ply
format ascii 1.0
element vertex 1095
property float x
property float y
property float z
property uchar red
property uchar green
property uchar blue
property uchar semantic_label
property uchar instance_label
end_header
0.182095 -0.434459 -0.491613 55 39 24 14 3
0.163647 -0.432242 -0.491486 119 87 55 14 3
0.203321 -0.415223 -0.491296 59 40 28 14 3
0.182581 -0.422964 -0.491723 48 35 30 14 3
0.225246 -0.719098 -0.425779 88 84 84 0 0
0.223756 -0.707633 -0.411404 99 99 100 0 0
0.226159 -0.699830 -0.428493 59 57 59 0 0
0.501293 -0.479349 -0.257815 243 135 102 0 0
0.490270 -0.480629 -0.248292 218 135 112 0 0
0.490444 -0.468713 -0.257294 220 127 102 0 0
0.200618 -0.475537 -0.492973 76 62 47 14 3
0.215280 -0.489665 -0.482971 52 36 20 14 3
0.210474 -0.506562 -0.492419 47 35 22 14 3
0.207683 -0.488913 -0.489694 57 40 24 14 3
0.128235 -0.405047 -0.486145 168 120 65 14 3
0.119807 -0.397972 -0.483358 193 140 72 14 3
0.475619 -0.754447 -0.477655 187 123 63 14 3
0.483117 -0.772353 -0.476734 199 133 68 14 3
0.227915 -0.738179 -0.434504 133 128 133 0 0
0.226064 -0.729932 -0.415599 137 129 139 0 0
0.229844 -0.761061 -0.418026 119 125 136 0 0
0.180022 -0.555739 -0.020054 47 49 44 0 0
0.260884 -0.889256 -0.386198 232 218 213 14 3
0.244499 -0.906632 -0.395384 239 231 224 14 3
0.264530 -0.911619 -0.399953 181 178 177 14 3
0.319849 -0.766818 -0.381855 76 55 36 0 0
0.330088 -0.774233 -0.380549 76 54 36 0 0
0.343988 -0.767511 -0.404122 85 62 36 0 0
0.307170 -0.791773 -0.396489 124 86 53 0 0
0.337742 -0.775921 -0.399010 77 55 33 0 0
0.320210 -0.789183 -0.374520 71 52 33 0 0
0.331902 -0.762946 -0.392726 75 54 33 0 0
0.314249 -0.796669 -0.381707 67 49 30 0 0
0.320581 -0.781721 -0.371363 56 43 31 0 0
0.309378 -0.781721 -0.374168 56 43 31 0 0
0.263625 -0.806331 -0.086239 40 42 40 0 0
0.267241 -0.809094 -0.078253 48 46 43 0 0
0.267772 -0.799262 -0.056275 48 48 48 0 0
0.264798 -0.809486 -0.041499 46 45 44 0 0
0.263952 -0.811306 -0.058212 49 48 47 0 0
0.264293 -0.801466 -0.069635 45 46 45 0 0
0.256159 -0.798151 -0.071657 32 37 37 0 0
0.263997 -0.819684 -0.068041 53 52 49 0 0
0.260300 -0.801310 -0.074784 32 34 34 0 0
0.262152 -0.794154 -0.064444 25 28 28 0 0
0.271721 -0.800608 -0.068756 49 48 45 0 0
0.261295 -0.807805 -0.061425 51 51 49 0 0
0.254813 -0.807505 -0.057411 35 39 41 0 0
0.283820 -0.497181 -0.477199 127 94 67 14 3
0.266862 -0.507674 -0.471736 132 97 65 14 3
0.274265 -0.516175 -0.481525 109 77 43 14 3
0.571364 -0.561239 -0.481308 136 99 62 14 3
0.213074 -0.618902 -0.020577 98 87 80 0 0
0.207454 -0.629960 -0.029630 61 58 57 0 0
0.218327 -0.600071 -0.024306 160 153 150 0 0
0.214006 -0.609760 -0.019632 130 124 122 0 0
0.224258 -0.614752 -0.036914 104 98 93 0 0
0.225907 -0.626613 -0.036663 83 80 75 0 0
0.216575 -0.617149 -0.037509 88 81 77 0 0
0.216457 -0.605492 -0.034664 122 118 114 0 0
0.208318 -0.621781 -0.029747 100 94 89 0 0
0.206779 -0.624418 -0.019653 107 97 90 0 0
0.222859 -0.602514 -0.030637 125 114 105 0 0
0.227482 -0.628508 -0.029880 157 147 143 0 0
0.145329 -0.529370 -0.104333 38 39 35 0 0
0.145344 -0.512705 -0.088416 37 38 36 0 0
0.142186 -0.520050 -0.107597 36 35 33 0 0
0.143327 -0.530161 -0.088212 36 37 36 0 0
0.130279 -0.530923 -0.121019 36 36 35 0 0
0.701021 -0.641586 -0.472626 160 113 72 14 3
0.688109 -0.650206 -0.471017 178 123 78 14 3
0.704056 -0.618689 -0.473369 173 121 72 14 3
0.675644 -0.635233 -0.471872 178 122 69 14 3
0.331623 -0.910052 -0.427492 214 210 200 14 3
0.313285 -0.918049 -0.427968 206 203 199 14 3
0.328099 -0.932637 -0.427239 107 99 94 14 3
0.290654 -0.885180 -0.406324 238 233 221 14 3
0.293561 -0.901914 -0.414671 234 230 222 14 3
0.393172 -0.723817 -0.465337 114 85 56 0 0
0.158238 -0.439095 -0.381145 80 76 70 0 0
0.164930 -0.442186 -0.399419 127 120 112 0 0
0.162204 -0.442693 -0.371311 102 95 89 0 0
0.661319 -0.876645 -0.472884 190 127 68 14 3
0.232559 -0.553071 -0.329749 81 69 46 0 0
0.667936 -0.824628 -0.472495 196 134 74 14 3
0.712852 -0.413936 -0.464947 81 57 34 14 3
0.705464 -0.467607 -0.481576 148 113 77 14 3
0.702652 -0.480446 -0.471341 100 76 51 14 3
0.690723 -0.458610 -0.473750 127 98 68 14 3
0.698742 -0.460616 -0.473076 127 92 61 14 3
0.700385 -0.470355 -0.472525 105 81 56 14 3
0.701640 -0.489159 -0.494158 181 140 98 14 3
0.715548 -0.490922 -0.483210 86 56 26 14 3
0.712654 -0.477335 -0.476922 92 76 62 14 3
0.709089 -0.481148 -0.477981 114 81 57 14 3
0.691159 -0.468592 -0.478053 137 92 42 14 3
0.695143 -0.488687 -0.487961 153 114 79 14 3
0.684278 -0.486806 -0.482764 148 107 73 14 3
0.714838 -0.459117 -0.488387 89 57 28 14 3
0.707131 -0.457582 -0.482060 136 100 68 14 3
0.693932 -0.460827 -0.486537 179 133 89 14 3
0.701848 -0.465826 -0.492431 151 109 72 14 3
0.697309 -0.475733 -0.474431 129 83 37 14 3
0.691694 -0.463069 -0.471210 107 82 64 14 3
0.704668 -0.478946 -0.500207 167 125 91 14 3
0.716427 -0.474294 -0.489358 112 81 59 14 3
0.708896 -0.483609 -0.494101 180 127 80 14 3
0.361140 -0.874156 -0.435776 151 129 123 14 3
0.470572 -0.542083 -0.370727 46 60 38 0 0
0.469117 -0.544653 -0.353179 41 56 34 0 0
0.449217 -0.540209 -0.349943 50 63 43 0 0
0.434065 -0.820753 -0.466447 246 185 108 14 3
0.427619 -0.841039 -0.454601 246 190 105 14 3
0.422967 -0.820305 -0.465888 206 157 114 14 3
0.638822 -0.412054 -0.476113 205 157 99 14 3
0.659218 -0.399571 -0.477479 198 152 99 14 3
0.648821 -0.422827 -0.477874 193 139 76 14 3
0.272013 -0.570138 -0.475212 33 25 19 0 0
0.289905 -0.546522 -0.471615 23 14 11 0 0
0.345341 -0.879068 -0.427403 171 152 141 14 3
0.358612 -0.721709 -0.422116 78 56 38 0 0
0.343460 -0.739267 -0.411487 56 42 30 0 0
0.719954 -0.564944 -0.492577 115 96 77 14 3
0.720038 -0.569053 -0.482061 152 115 83 14 3
0.717656 -0.586916 -0.493500 152 115 83 14 3
0.724169 -0.558238 -0.487376 151 115 83 14 3
0.565460 -0.549143 -0.481448 195 141 80 14 3
0.518084 -0.607591 -0.480634 196 142 79 14 3
0.157067 -0.484352 -0.078900 34 34 36 0 0
0.212076 -0.662578 -0.014667 159 148 140 0 0
0.207499 -0.638864 -0.001205 190 180 173 0 0
0.229936 -0.638387 0.005828 130 119 112 0 0
0.229765 -0.662424 0.005284 191 182 174 0 0
0.226593 -0.654567 -0.001420 213 204 195 0 0
0.221693 -0.635561 0.005102 155 144 141 0 0
0.223401 -0.663025 -0.000400 85 79 74 0 0
0.212157 -0.658663 -0.019865 157 152 149 0 0
0.233039 -0.655557 -0.011025 66 65 62 0 0
0.223852 -0.657939 -0.008419 132 123 116 0 0
0.219379 -0.643089 -0.012783 194 182 177 0 0
0.223735 -0.651242 -0.012356 197 185 176 0 0
0.223036 -0.655309 0.005518 78 75 70 0 0
0.221963 -0.642972 0.008048 188 180 171 0 0
0.220701 -0.642959 -0.004596 111 103 97 0 0
0.214015 -0.638287 -0.009472 167 159 153 0 0
0.212887 -0.646945 -0.006452 137 128 123 0 0
0.204737 -0.648146 0.000638 199 187 179 0 0
0.215297 -0.658108 -0.010746 207 198 191 0 0
0.202423 -0.631204 -0.010369 70 68 65 0 0
0.207466 -0.640968 -0.010491 70 68 65 0 0
0.216079 -0.640147 0.003104 119 108 103 0 0
0.227559 -0.642111 -0.002516 116 103 99 0 0
0.599865 -0.651889 -0.479046 200 139 75 14 3
0.601240 -0.627766 -0.478837 198 137 75 14 3
0.202571 -0.383305 -0.468234 90 81 71 14 3
0.209566 -0.373985 -0.465066 36 30 24 14 3
0.364729 -0.746385 -0.425783 161 132 108 0 0
0.946912 0.151493 -0.760697 136 113 94 3 4
0.623292 -0.873864 -0.473739 203 133 71 14 3
0.626238 -0.894372 -0.473235 197 127 68 14 3
0.658917 -0.528814 -0.477309 190 132 76 14 3
0.655566 -0.561452 -0.477396 199 137 76 14 3
0.674639 -0.567638 -0.474125 191 129 71 14 3
0.341506 -0.938247 -0.427128 179 163 151 14 3
0.343755 -0.801092 -0.434700 189 166 145 14 3
0.328941 -0.815577 -0.432865 219 204 188 14 3
0.338178 -0.820086 -0.430035 220 203 178 14 3
0.319597 -0.826856 -0.429449 216 200 189 14 3
0.210183 -0.560433 -0.406580 31 25 20 0 0
0.186956 -0.485836 -0.428840 25 19 15 0 0
0.504752 -0.507846 -0.331980 108 108 96 0 0
0.216615 -0.551292 -0.043586 69 68 64 0 0
0.208214 -0.547621 -0.040250 55 53 55 0 0
0.226486 -0.554788 -0.040002 98 91 83 0 0
0.225443 -0.545098 -0.044711 99 93 86 0 0
0.222304 -0.548419 -0.040786 110 99 88 0 0
0.212309 -0.555068 -0.038415 88 85 78 0 0
0.211323 -0.580195 -0.010982 215 201 186 0 0
0.213943 -0.588132 -0.013899 191 180 167 0 0
0.189432 -0.613629 -0.014954 77 73 69 0 0
0.200990 -0.589685 -0.014414 175 164 153 0 0
0.187569 -0.604621 -0.014609 52 52 51 0 0
0.194416 -0.568890 -0.019329 75 72 67 0 0
0.177211 -0.579401 -0.019810 44 45 45 0 0
0.221382 -0.673919 -0.016473 190 181 177 0 0
0.212523 -0.685287 -0.006114 179 171 168 0 0
0.232245 -0.664071 -0.000370 150 138 130 0 0
0.223778 -0.671126 0.012210 106 96 91 0 0
0.223729 -0.663727 -0.013941 185 174 161 0 0
0.224966 -0.685303 -0.014557 159 146 129 0 0
0.218899 -0.666971 -0.021247 181 175 171 0 0
0.230453 -0.667486 -0.011892 194 184 174 0 0
0.231003 -0.693695 -0.006102 105 100 95 0 0
0.227175 -0.677795 0.000128 83 79 75 0 0
0.222834 -0.674042 -0.004450 158 152 145 0 0
0.215702 -0.673153 -0.003985 117 108 105 0 0
0.231588 -0.688274 0.009395 90 87 84 0 0
0.227719 -0.677580 0.010853 188 181 172 0 0
0.224068 -0.687389 0.001594 80 77 74 0 0
0.219181 -0.678986 0.001547 76 71 68 0 0
0.219145 -0.667589 0.007423 157 149 144 0 0
0.220866 -0.693363 -0.009297 197 189 177 0 0
0.216572 -0.670325 -0.010366 178 168 163 0 0
0.222950 -0.688715 0.011704 73 67 66 0 0
0.465778 -0.867577 -0.470586 232 173 97 14 3
0.466396 -0.891667 -0.469745 244 189 102 14 3
0.454521 -0.838733 -0.467869 241 184 94 14 3
0.437248 -0.565162 -0.470042 84 71 42 0 0
0.260334 -0.834221 -0.172883 67 71 65 0 0
0.249174 -0.845940 -0.165177 59 63 57 0 0
0.237511 -0.829274 -0.155437 12 12 12 0 0
0.245243 -0.829761 -0.162181 12 12 12 0 0
0.245713 -0.839865 -0.156630 11 11 11 0 0
0.222918 -0.716085 -0.004450 168 159 151 0 0
0.317682 -0.489598 -0.479630 51 39 31 14 3
0.315455 -0.493658 -0.468564 49 39 31 14 3
0.316694 -0.479174 -0.471517 43 28 18 14 3
0.301137 -0.483439 -0.478299 101 74 51 14 3
0.307754 -0.470743 -0.473057 72 51 34 14 3
0.309686 -0.498711 -0.481509 91 63 37 0 0
0.294889 -0.500092 -0.480573 90 62 39 14 3
0.693013 -0.447899 -0.472033 151 112 72 14 3
0.690378 -0.447955 -0.483981 178 137 95 14 3
0.698938 -0.438989 -0.498318 181 138 98 14 3
0.703333 -0.447078 -0.496116 186 139 95 14 3
0.697176 -0.432306 -0.477222 153 114 77 14 3
0.702180 -0.434917 -0.492754 177 137 96 14 3
0.708300 -0.451880 -0.497704 179 135 90 14 3
0.687632 -0.453520 -0.479601 176 137 98 14 3
0.710538 -0.448030 -0.481792 125 90 58 14 3
0.705380 -0.437250 -0.489912 125 90 58 14 3
0.690831 -0.435914 -0.483823 184 140 96 14 3
0.699718 -0.442681 -0.478402 88 58 28 14 3
0.698762 -0.454875 -0.480140 89 59 28 14 3
0.706609 -0.423106 -0.466226 146 113 82 14 3
0.703232 -0.424724 -0.474142 150 113 78 14 3
0.707569 -0.807119 -0.476811 121 81 49 14 3
0.699039 -0.818027 -0.471447 39 25 11 14 3
0.691892 -0.792279 -0.472215 133 98 64 14 3
0.686328 -0.812931 -0.470183 189 127 70 14 3
0.718451 -0.819744 -0.479823 36 22 5 14 3
0.706031 -0.788716 -0.478041 179 122 65 14 3
0.482687 -0.826961 -0.476350 232 167 94 14 3
0.513532 -0.814772 -0.475770 190 126 61 14 3
0.658416 -0.655710 -0.475775 201 134 70 14 3
0.639206 -0.663298 -0.477626 204 136 71 14 3
0.179160 -0.486308 -0.416109 49 43 37 0 0
0.681636 -0.523513 -0.478251 189 131 73 14 3
0.674464 -0.510630 -0.477806 161 116 72 14 3
0.704331 -0.515680 -0.483406 190 133 75 14 3
0.686615 -0.507929 -0.481728 180 125 78 14 3
0.233326 -0.802227 -0.364522 177 169 166 0 0
0.227257 -0.821861 -0.343779 109 98 93 0 0
0.233269 -0.808184 -0.351833 173 160 155 0 0
0.213279 -0.588662 -0.477142 111 101 95 14 3
0.225978 -0.593014 -0.481014 120 111 107 14 3
0.240506 -0.584164 -0.484586 88 79 72 14 3
0.290249 -0.528089 -0.482914 63 44 29 0 0
0.275418 -0.556461 -0.481465 35 24 17 0 0
0.269450 -0.555134 -0.484956 49 34 21 0 0
0.293240 -0.513195 -0.483015 89 63 39 0 0
0.712844 -0.792080 -0.483591 177 126 71 14 3
0.712359 -0.787490 -0.493336 156 107 61 14 3
0.489403 -0.584873 -0.482120 198 142 80 14 3
0.481075 -0.578596 -0.483373 197 143 82 14 3
0.197354 -0.716617 -0.367259 140 137 141 0 0
0.200092 -0.717644 -0.376488 136 134 147 0 0
0.207080 -0.543243 -0.480876 100 87 79 14 3
0.197293 -0.557206 -0.479781 104 92 83 14 3
0.625216 -0.558193 -0.479505 201 139 77 14 3
0.629497 -0.586218 -0.478907 205 140 73 14 3
0.199780 -0.695111 -0.342198 152 140 132 0 0
0.197860 -0.699744 -0.360014 162 153 146 0 0
0.195848 -0.701352 -0.373227 130 127 122 0 0
0.200025 -0.723288 -0.347424 171 160 151 0 0
0.261401 -0.826259 -0.077056 135 127 122 0 0
0.325892 -0.758282 -0.392757 41 35 30 0 0
0.333113 -0.753289 -0.398438 20 17 14 0 0
0.546689 -0.605572 -0.479637 198 143 82 14 3
0.507347 -0.629853 -0.480663 132 95 62 14 3
0.240955 -0.794186 -0.351219 90 87 93 0 0
0.234724 -0.811959 -0.331336 37 43 57 0 0
0.222830 -0.807803 -0.311963 52 46 43 0 0
0.656528 -0.895384 -0.472229 191 124 66 14 3
0.189838 -0.599153 -0.332412 112 102 73 0 0
0.279060 -0.491983 -0.467698 103 80 62 14 3
0.266361 -0.497634 -0.459576 97 76 60 14 3
0.154024 -0.565514 -0.500907 91 74 54 14 3
0.528217 -0.485971 -0.475674 149 111 59 0 0
0.242057 -0.743175 -0.336641 90 87 87 0 0
0.242062 -0.760992 -0.324322 73 66 64 0 0
0.248310 -0.727915 -0.331444 80 76 75 0 0
0.241513 -0.746445 -0.326326 72 66 65 0 0
0.251328 -0.741306 -0.342031 91 85 83 0 0
0.240704 -0.734921 -0.337049 85 84 84 0 0
0.729949 -0.506997 -0.482651 83 71 58 14 3
0.399871 -0.747355 -0.476136 181 150 113 14 3
0.394264 -0.946551 -0.436473 248 189 113 14 3
0.477930 -0.809543 -0.475988 248 183 104 14 3
0.462089 -0.817257 -0.474943 251 196 107 14 3
0.297115 -0.532777 -0.474308 37 28 20 0 0
0.289477 -0.545096 -0.460461 42 30 22 0 0
0.163613 -0.395497 -0.482568 171 123 65 14 3
0.159257 -0.407997 -0.487983 178 127 69 14 3
0.151721 -0.392277 -0.483267 199 141 78 14 3
0.232534 -0.820414 -0.441587 149 141 139 0 0
0.479251 -0.855983 -0.475965 242 184 102 14 3
0.469888 -0.827623 -0.474127 243 188 98 14 3
0.489327 -0.843927 -0.477085 238 179 101 14 3
0.724829 -0.476731 -0.486230 74 57 41 14 3
0.718943 -0.480412 -0.481713 72 57 40 14 3
0.268058 -0.648253 -0.380369 70 67 67 0 0
0.262548 -0.619722 -0.376277 61 57 56 0 0
0.264461 -0.639993 -0.375667 63 58 59 0 0
0.209229 -0.702819 -0.328684 127 119 110 0 0
0.200581 -0.695743 -0.331840 140 132 121 0 0
0.207640 -0.681207 -0.329445 82 77 70 0 0
0.664748 -0.496350 -0.477191 154 109 71 14 3
0.678155 -0.455407 -0.480030 181 134 90 14 3
0.679951 -0.469115 -0.480203 180 136 93 14 3
0.254842 -0.658747 -0.335781 72 70 67 0 0
0.250204 -0.628197 -0.350185 68 66 62 0 0
0.253605 -0.633172 -0.336760 97 90 84 0 0
0.252006 -0.642228 -0.344446 101 96 91 0 0
0.260803 -0.647222 -0.351422 78 74 73 0 0
0.129874 -0.439914 -0.491722 67 51 30 14 3
0.542622 -0.728280 -0.478097 195 131 67 14 3
0.721958 -0.622519 -0.496838 176 124 78 14 3
0.715970 -0.634793 -0.487575 141 110 96 14 3
0.708139 -0.626773 -0.476867 151 106 72 14 3
0.708175 -0.648694 -0.475024 145 110 84 14 3
0.716075 -0.638117 -0.495037 157 114 78 14 3
0.717535 -0.646091 -0.486593 175 121 78 14 3
0.472962 -0.541293 -0.282271 80 97 78 0 0
0.487719 -0.534881 -0.294632 79 87 73 0 0
0.489137 -0.532291 -0.280046 94 103 87 0 0
0.235680 -0.776523 -0.030782 120 114 111 0 0
0.232672 -0.787447 -0.029745 29 27 24 0 0
0.217481 -0.767936 -0.022126 115 110 108 0 0
0.168891 -0.443180 -0.407958 141 133 124 0 0
0.550317 -0.460146 -0.481312 162 120 66 14 3
0.537310 -0.466056 -0.473348 154 115 59 0 0
0.203889 -0.477963 -0.040909 127 124 115 0 0
0.184861 -0.490951 -0.025839 159 152 139 0 0
0.201053 -0.489226 -0.036629 123 116 106 0 0
0.196323 -0.471626 -0.036438 103 98 90 0 0
0.189896 -0.478202 -0.027860 146 140 130 0 0
0.198462 -0.511445 -0.036061 136 123 109 0 0
0.226948 -0.685049 -0.431665 52 49 50 0 0
0.214595 -0.682291 -0.410903 64 65 67 0 0
0.225580 -0.669767 -0.427934 32 35 37 0 0
0.220417 -0.693980 -0.417398 61 62 64 0 0
0.152088 -0.362136 -0.502829 191 144 86 14 3
0.454925 -0.970323 -0.451798 186 125 64 14 3
0.228840 -0.742836 -0.320418 73 68 62 0 0
0.219354 -0.758597 -0.319013 82 78 74 0 0
0.211863 -0.763629 -0.329310 157 146 142 0 0
0.210735 -0.740029 -0.327301 108 101 93 0 0
0.434282 -0.972267 -0.440425 203 134 69 14 3
0.450264 -0.956188 -0.448070 238 178 97 14 3
0.195315 -0.462508 -0.351227 45 43 40 0 0
0.184676 -0.474721 -0.345591 45 42 38 0 0
0.191773 -0.447025 -0.346088 42 40 37 0 0
0.214995 -0.772607 -0.002751 187 163 148 0 0
0.221713 -0.797913 -0.009877 107 103 102 0 0
0.224195 -0.785739 -0.007652 170 151 135 0 0
0.221776 -0.781090 -0.024136 148 142 138 0 0
0.222445 -0.769879 -0.012956 156 151 147 0 0
0.223672 -0.791445 -0.017786 152 147 142 0 0
0.265107 -0.823499 -0.132620 130 93 80 0 0
0.260796 -0.832779 -0.116206 154 131 123 0 0
0.618070 -0.667864 -0.477897 202 137 71 14 3
0.420291 -0.732012 -0.479993 185 153 118 14 3
0.411465 -0.727160 -0.480873 129 97 70 14 3
0.395695 -0.738063 -0.474402 141 109 79 14 3
0.417492 -0.704475 -0.478099 143 111 80 14 3
0.232204 -0.725491 -0.003565 166 156 149 0 0
0.185277 -0.439555 -0.438452 38 29 20 0 0
0.201516 -0.430545 -0.456535 62 55 47 0 0
0.208701 -0.431997 -0.466767 84 63 38 0 0
0.449093 -0.867932 -0.462072 241 185 97 14 3
0.451043 -0.887649 -0.461475 244 187 102 14 3
0.539582 -0.489346 -0.481523 176 125 69 14 3
0.526833 -0.480437 -0.468919 149 110 59 0 0
0.247970 -0.636524 -0.481702 77 66 59 14 3
0.236143 -0.638389 -0.480545 44 38 33 14 3
0.259822 -0.637774 -0.475693 64 45 33 0 0
0.255263 -0.638980 -0.480105 68 49 36 0 0
0.190812 -0.631384 -0.332883 133 121 108 0 0
0.194424 -0.629460 -0.328408 115 104 91 0 0
0.190418 -0.619089 -0.325771 120 109 91 0 0
0.296232 -0.832283 -0.416686 212 198 187 14 3
0.299382 -0.822104 -0.430043 225 212 202 14 3
0.308147 -0.815190 -0.431766 234 222 212 14 3
0.302169 -0.827512 -0.425305 207 197 188 14 3
0.330999 -0.775089 -0.418586 109 79 45 0 0
0.329168 -0.776620 -0.426847 187 166 152 0 0
0.317554 -0.785721 -0.404766 124 101 78 0 0
0.318245 -0.782433 -0.431094 200 178 168 0 0
0.208290 -0.525960 -0.042754 76 74 69 0 0
0.206291 -0.507045 -0.042559 35 35 35 0 0
0.197295 -0.389867 -0.041824 108 105 99 0 0
0.208182 -0.395650 -0.047532 71 69 66 0 0
0.490195 -0.942157 -0.468378 217 148 82 14 3
0.473193 -0.952092 -0.460912 200 136 71 14 3
0.473672 -0.930643 -0.464617 233 173 86 14 3
0.225462 -0.690648 -0.478238 73 66 61 14 3
0.201497 -0.687209 -0.470939 117 107 105 14 3
0.163347 -0.597259 -0.023901 47 48 48 0 0
0.168966 -0.610690 -0.020165 48 49 48 0 0
0.164443 -0.608659 -0.024712 46 48 47 0 0
0.512379 -0.917858 -0.473905 202 136 74 14 3
0.316822 -0.800843 -0.438033 222 211 202 14 3
0.346235 -0.781851 -0.440453 232 217 207 14 3
0.331243 -0.799465 -0.440765 227 215 204 14 3
0.316238 -0.791904 -0.437206 225 216 207 14 3
0.564943 -0.606683 -0.479528 157 110 69 14 3
0.579469 -0.427893 -0.483934 197 141 79 14 3
0.467376 -0.735218 -0.477266 189 127 68 14 3
0.403207 -0.842078 -0.453464 161 130 118 14 3
0.415923 -0.822276 -0.474708 239 198 140 14 3
0.403447 -0.836045 -0.465155 176 146 127 14 3
0.282283 -0.798091 -0.450895 142 138 132 0 0
0.288366 -0.804166 -0.447349 156 153 146 14 3
0.296349 -0.791875 -0.443806 196 191 184 14 3
0.507252 -0.486639 -0.262878 239 137 102 0 0
0.500514 -0.496078 -0.258034 248 145 109 0 0
0.505474 -0.506989 -0.266543 200 122 97 0 0
0.501429 -0.516426 -0.281726 173 132 117 0 0
0.509148 -0.486107 -0.273401 139 83 64 0 0
0.185543 -0.633411 -0.378187 64 48 34 0 0
0.192455 -0.622860 -0.388827 75 52 36 0 0
0.185109 -0.620355 -0.371853 106 92 82 0 0
0.226944 -0.524320 -0.458299 29 21 14 14 3
0.208439 -0.528643 -0.437595 23 18 16 14 3
0.219661 -0.513378 -0.465196 38 28 17 14 3
0.219781 -0.502784 -0.466058 27 20 13 14 3
0.218635 -0.530669 -0.446031 27 21 17 14 3
0.214337 -0.517637 -0.451027 24 17 15 14 3
0.163802 -0.435747 -0.052332 30 32 33 0 0
0.156679 -0.433102 -0.062109 32 34 32 0 0
0.153008 -0.445736 -0.058799 35 35 38 0 0
0.144497 -0.429527 -0.064241 28 29 28 0 0
0.144927 -0.460497 -0.055749 18 19 19 0 0
0.153102 -0.426250 -0.069385 28 28 27 0 0
0.496826 -0.705256 -0.478323 190 128 66 14 3
0.648592 -0.437531 -0.479815 191 135 75 14 3
0.264092 -0.702622 -0.359501 87 82 83 0 0
0.256073 -0.687765 -0.347249 88 84 83 0 0
0.256653 -0.707275 -0.341311 84 80 78 0 0
0.261198 -0.686944 -0.364972 86 82 82 0 0
0.262241 -0.713474 -0.355600 86 82 81 0 0
0.216980 -0.463784 -0.490785 97 76 49 14 3
0.213866 -0.432884 -0.474716 73 58 35 0 0
0.221541 -0.442506 -0.475668 122 94 61 0 0
0.214821 -0.440556 -0.484658 121 93 59 14 3
0.221147 -0.454130 -0.480533 108 86 63 14 3
0.324866 -1.010838 -0.423572 174 152 139 14 3
0.541803 -0.757204 -0.477477 194 128 64 14 3
0.178228 -0.387284 -0.483919 171 123 73 14 3
0.195366 -0.401148 -0.488311 119 84 45 14 3
0.194621 -0.390122 -0.480828 131 93 48 14 3
0.176087 -0.404052 -0.488004 146 101 53 14 3
0.207416 -0.457590 -0.492050 53 44 34 14 3
0.193861 -0.458286 -0.489062 43 38 30 14 3
0.200565 -0.441017 -0.489497 50 38 29 14 3
0.171850 -0.471156 -0.486372 73 56 36 14 3
0.549147 -0.828100 -0.475407 194 129 67 14 3
0.557540 -0.798888 -0.476049 193 129 65 14 3
0.176254 -0.470626 -0.416145 48 41 35 0 0
0.179692 -0.477223 -0.425273 42 35 31 0 0
0.173146 -0.458586 -0.397276 47 45 39 0 0
0.171734 -0.458104 -0.417337 36 30 24 0 0
0.232195 -0.649377 -0.422131 45 47 46 0 0
0.223821 -0.638946 -0.407145 85 77 71 0 0
0.224181 -0.663631 -0.419830 31 31 32 0 0
0.229185 -0.652436 -0.411710 39 40 48 0 0
0.203675 -0.649689 -0.025833 73 69 68 0 0
0.203993 -0.647539 -0.030094 133 113 112 0 0
0.199285 -0.673503 -0.024383 96 93 92 0 0
0.433260 -0.632825 -0.497169 95 68 40 14 3
0.431314 -0.653646 -0.484587 138 97 61 14 3
0.424662 -0.662467 -0.489688 56 41 26 14 3
0.427138 -0.673318 -0.478273 145 102 59 14 3
0.325075 -0.476431 -0.468685 26 15 9 14 3
0.196491 -0.634324 -0.029075 95 85 79 0 0
0.200493 -0.633680 -0.023510 95 85 79 0 0
0.606870 -0.562715 -0.480049 163 114 71 14 3
0.150760 -0.495610 -0.088892 38 37 37 0 0
0.138363 -0.512536 -0.103637 35 35 33 0 0
0.142148 -0.498734 -0.100873 32 33 32 0 0
0.136076 -0.495830 -0.112243 27 27 27 0 0
0.436611 -0.782819 -0.475458 189 151 121 14 3
0.421667 -0.802259 -0.480487 221 191 151 14 3
0.412714 -0.783834 -0.485052 191 155 118 14 3
0.415363 -0.800394 -0.481000 222 188 151 14 3
0.149470 -0.483820 -0.109564 26 27 28 0 0
0.143780 -0.489584 -0.094350 25 27 28 0 0
0.151771 -0.482799 -0.082581 29 30 29 0 0
0.151675 -0.477759 -0.105875 16 16 16 0 0
0.497075 -0.912892 -0.474512 229 168 89 14 3
0.496067 -0.901667 -0.477655 240 183 94 14 3
0.488829 -0.908317 -0.476924 242 185 97 14 3
0.395311 -0.978046 -0.437626 220 181 153 14 3
0.389239 -0.992240 -0.441321 179 137 104 14 3
0.215729 -0.747397 -0.004334 149 140 129 0 0
0.211215 -0.739647 0.000180 133 123 114 0 0
0.219391 -0.744044 -0.012460 172 165 161 0 0
0.224329 -0.756337 -0.012754 94 88 86 0 0
0.223559 -0.757681 -0.006632 190 177 170 0 0
0.217543 -0.747052 -0.019979 131 125 121 0 0
0.216214 -0.730343 -0.025049 170 163 156 0 0
0.208722 -0.752268 0.001360 85 72 59 0 0
0.210190 -0.757876 0.003054 144 134 128 0 0
0.175768 -0.463531 -0.335486 27 26 22 0 0
0.165996 -0.452411 -0.335050 41 41 38 0 0
0.235897 -0.764404 -0.437518 157 150 150 0 0
0.237343 -0.780428 -0.421572 125 129 130 0 0
0.157154 -0.552591 -0.496140 102 75 48 14 3
0.165190 -0.544092 -0.489522 78 62 43 14 3
0.157375 -0.540496 -0.493635 95 76 54 14 3
0.143630 -0.531074 -0.488865 90 80 70 14 3
0.164175 -0.433894 -0.348643 78 75 71 0 0
0.164243 -0.441535 -0.345517 70 67 62 0 0
0.164301 -0.445448 -0.354537 86 82 77 0 0
0.160153 -0.431638 -0.358706 58 54 51 0 0
0.165991 -0.435690 -0.361807 113 110 102 0 0
0.249842 -0.828798 -0.087049 47 45 42 0 0
0.249061 -0.828666 -0.110331 64 56 53 0 0
0.251265 -0.840543 -0.108869 75 70 64 0 0
0.243587 -0.837673 -0.112507 27 27 27 0 0
0.235906 -0.648556 -0.341392 76 71 66 0 0
0.235177 -0.646389 -0.350949 95 87 80 0 0
0.243651 -0.843167 -0.103967 42 38 34 0 0
0.706804 -0.870731 -0.467486 132 91 54 14 3
0.726329 -0.851153 -0.479227 102 73 48 14 3
0.719386 -0.859927 -0.474570 148 102 60 14 3
0.714882 -0.847356 -0.472960 149 102 59 14 3
0.226100 -0.404205 -0.478327 83 60 36 14 3
0.219028 -0.394757 -0.470243 44 29 15 14 3
0.210785 -0.389277 -0.477138 131 101 64 14 3
0.206277 -0.395885 -0.484427 109 73 38 14 3
0.203694 -0.380170 -0.479562 160 132 99 14 3
0.284049 -0.557247 -0.459916 26 21 19 0 0
0.418222 -0.690517 -0.476499 148 109 66 14 3
0.404694 -0.714389 -0.473795 155 115 72 14 3
0.418861 -0.773619 -0.483862 211 182 151 14 3
0.437534 -0.760321 -0.477588 225 196 170 14 3
0.427402 -0.743472 -0.482468 225 201 174 14 3
0.412160 -0.754271 -0.486998 202 158 115 14 3
0.404060 -0.749972 -0.480755 198 169 136 14 3
0.253659 -0.789980 -0.433400 179 170 163 0 0
0.196460 -0.669622 -0.331964 127 116 104 0 0
0.202778 -0.639472 -0.327532 98 89 78 0 0
0.202526 -0.662710 -0.328554 84 76 68 0 0
0.192864 -0.645606 -0.330713 126 116 106 0 0
0.196514 -0.667064 -0.342234 134 122 110 0 0
0.274424 -0.796312 -0.445928 130 129 123 0 0
0.261545 -0.797205 -0.444041 139 137 128 0 0
0.411120 -0.934819 -0.434764 246 185 109 14 3
0.644776 -0.755382 -0.476368 193 126 63 14 3
0.674526 -0.735523 -0.472623 192 123 60 14 3
0.654757 -0.741678 -0.475848 193 125 62 14 3
0.130798 -0.361691 -0.504557 146 113 71 14 3
0.251992 -0.827994 -0.032712 69 67 65 0 0
0.249572 -0.828595 -0.040062 105 99 95 0 0
0.251290 -0.823113 -0.053967 57 56 53 0 0
0.327954 -0.451843 -0.470500 34 22 14 14 3
0.314688 -0.464217 -0.469004 51 37 26 14 3
0.472240 -0.549408 -0.450468 81 73 40 0 0
0.459146 -0.553586 -0.439936 63 65 33 0 0
0.449622 -0.549744 -0.452457 50 60 36 0 0
0.467273 -0.552521 -0.468631 85 74 39 0 0
0.358127 -0.791361 -0.447920 170 150 137 14 3
0.351023 -0.777447 -0.440320 222 202 181 0 0
0.359447 -0.781515 -0.452917 227 207 185 14 3
0.367697 -0.766752 -0.457547 214 192 169 0 0
0.479397 -0.529362 -0.256766 245 120 78 0 0
0.334769 -0.757518 -0.407534 54 46 37 0 0
0.338096 -0.748000 -0.414122 80 60 41 0 0
0.353820 -0.754964 -0.414320 108 78 48 0 0
0.341289 -0.752874 -0.414986 98 72 46 0 0
0.350186 -0.741789 -0.422272 63 47 29 0 0
0.352384 -0.731417 -0.418259 78 56 37 0 0
0.332872 -0.744642 -0.403481 59 45 31 0 0
0.361007 -0.734061 -0.429856 82 60 36 0 0
0.357305 -0.756797 -0.418945 132 90 53 0 0
0.678612 -0.752829 -0.473247 188 124 61 14 3
0.692918 -0.746947 -0.474565 189 125 67 14 3
0.672529 -0.439087 -0.479425 189 141 93 14 3
0.664490 -0.468837 -0.477207 182 134 80 14 3
0.655252 -0.457270 -0.479128 188 139 86 14 3
0.254884 -0.604528 -0.480076 79 58 37 0 0
0.255917 -0.618228 -0.476480 70 49 25 0 0
0.264222 -0.592913 -0.470763 31 21 13 0 0
0.533252 -0.785550 -0.476527 188 126 61 14 3
0.200497 -0.647601 -0.397952 56 42 31 0 0
0.188745 -0.665447 -0.385765 37 31 26 0 0
0.190330 -0.647806 -0.385168 59 44 32 0 0
0.205573 -0.663634 -0.399559 34 32 27 0 0
0.716477 -0.834540 -0.473446 113 78 49 14 3
0.722155 -0.826426 -0.483928 161 118 73 14 3
0.721549 -0.812427 -0.489148 161 118 73 14 3
0.252203 -0.667702 -0.470422 54 47 40 0 0
0.247846 -0.672597 -0.481915 55 48 38 0 0
0.255539 -0.658003 -0.475642 52 44 34 0 0
0.232948 -0.609583 -0.481652 116 109 104 14 3
0.478088 -0.474766 -0.248785 133 106 96 0 0
0.480372 -0.494374 -0.244261 218 124 98 0 0
0.308385 -0.511426 -0.476762 59 42 29 0 0
0.510021 -0.499337 -0.449025 116 89 47 0 0
0.518901 -0.490966 -0.464000 139 104 56 0 0
0.687098 -0.356353 -0.499325 186 143 99 14 3
0.663018 -0.357203 -0.498064 176 141 104 14 3
0.462917 -0.535754 -0.271581 148 90 68 0 0
0.597197 -0.602018 -0.478957 199 137 78 14 3
0.380021 -0.954947 -0.434735 236 207 192 14 3
0.375418 -0.979842 -0.432697 242 214 199 14 3
0.324390 -0.965088 -0.424028 141 129 123 14 3
0.303715 -0.972696 -0.423786 117 108 106 14 3
0.348643 -0.821063 -0.435914 223 193 159 14 3
0.321641 -0.816231 -0.438276 221 208 197 14 3
0.213909 -0.593896 -0.401747 97 84 80 0 0
0.201740 -0.475185 -0.449496 22 15 13 0 0
0.539262 -0.672044 -0.478854 200 138 74 14 3
0.528520 -0.641325 -0.479515 186 128 76 14 3
0.228566 -0.600873 -0.350233 81 73 65 0 0
0.232076 -0.610048 -0.350471 66 61 58 0 0
0.230409 -0.629690 -0.351833 100 92 82 0 0
0.248887 -0.608132 -0.349658 94 88 82 0 0
0.256724 -0.613616 -0.366050 68 64 60 0 0
0.247938 -0.613532 -0.358781 66 62 59 0 0
0.244889 -0.598736 -0.357605 71 64 61 0 0
0.172621 -0.529685 -0.485600 73 51 33 14 3
0.517005 -0.721612 -0.478105 190 127 63 14 3
0.653703 -0.703107 -0.476851 197 132 68 14 3
0.634193 -0.720972 -0.477409 194 132 71 14 3
0.181092 -0.654005 -0.269137 19 17 14 0 0
0.545063 -0.534534 -0.481054 181 127 72 14 3
0.243907 -0.871945 -0.307815 104 82 57 0 0
0.629583 -0.807077 -0.475688 197 130 65 14 3
0.602352 -0.784246 -0.476117 192 126 65 14 3
0.518886 -0.507386 -0.478359 174 125 69 0 0
0.535220 -0.528380 -0.481910 179 129 70 14 3
0.507319 -0.530978 -0.481214 180 130 71 14 3
0.497570 -0.532687 -0.477837 160 115 63 0 0
0.518629 -0.537550 -0.481007 183 135 74 14 3
0.704932 -0.850389 -0.466984 37 26 20 14 3
0.692066 -0.826340 -0.469239 93 67 46 14 3
0.179766 -0.525288 -0.352205 20 18 16 0 0
0.178262 -0.519752 -0.349016 27 27 25 0 0
0.174113 -0.522099 -0.362620 39 37 35 0 0
0.248977 -0.590779 -0.348266 96 89 81 0 0
0.243498 -0.583240 -0.346197 97 90 82 0 0
0.227370 -0.584101 -0.345315 105 95 86 0 0
0.232641 -0.572929 -0.344653 114 102 84 0 0
0.234827 -0.588213 -0.343075 96 89 79 0 0
0.242308 -0.582052 -0.355918 111 103 95 0 0
0.235061 -0.581114 -0.342165 99 92 83 0 0
0.678003 -0.607169 -0.472126 176 120 67 14 3
0.353954 -0.994418 -0.426437 230 202 181 14 3
0.378530 -0.988990 -0.434950 195 168 141 14 3
0.337897 -1.001555 -0.422826 216 192 170 14 3
0.728009 -0.833153 -0.480296 140 102 68 14 3
0.713564 -0.655322 -0.484312 185 130 82 14 3
0.714548 -0.673856 -0.500324 181 145 112 14 3
0.711562 -0.657539 -0.493795 177 136 100 14 3
0.213043 -0.426093 -0.468342 44 33 24 0 0
0.333202 -0.488691 -0.467672 19 9 5 14 3
0.333178 -0.464054 -0.465955 24 14 10 14 3
0.181795 -0.506320 -0.022650 56 56 52 0 0
0.157714 -0.494002 -0.038227 44 44 43 0 0
0.177315 -0.483938 -0.024385 51 51 50 0 0
0.170943 -0.504843 -0.024719 46 46 45 0 0
0.158553 -0.497097 -0.025802 54 53 51 0 0
0.165796 -0.479373 -0.025022 45 46 45 0 0
0.428163 -0.963415 -0.436949 225 155 87 14 3
0.413596 -0.965877 -0.433007 249 185 106 14 3
0.393515 -0.968594 -0.435732 253 189 115 14 3
0.321264 -0.857043 -0.423569 234 221 212 14 3
0.310537 -0.844155 -0.420059 216 205 197 14 3
0.299722 -0.846093 -0.414169 181 168 160 14 3
0.326657 -0.841304 -0.424834 233 217 198 14 3
0.314326 -0.840192 -0.422956 230 220 210 14 3
0.303862 -0.853501 -0.417083 185 172 164 14 3
0.440386 -0.638992 -0.482110 155 112 64 14 3
0.452870 -0.665793 -0.479977 134 92 52 14 3
0.510720 -0.769776 -0.477341 188 123 61 14 3
0.316998 -0.993288 -0.422028 206 191 183 14 3
0.244256 -0.755461 -0.337417 94 86 84 0 0
0.720538 -0.442153 -0.495020 116 87 61 14 3
0.714732 -0.425695 -0.495166 153 120 86 14 3
0.714650 -0.449627 -0.486342 127 95 60 14 3
0.711413 -0.439924 -0.489884 144 110 74 14 3
0.711440 -0.418829 -0.485326 87 56 28 14 3
0.706974 -0.426590 -0.481856 129 97 67 14 3
0.296453 -1.008377 -0.422660 118 108 98 14 3
0.295002 -0.996930 -0.420517 120 111 102 14 3
0.137727 -0.486288 -0.144977 25 25 25 0 0
0.130165 -0.485587 -0.133176 31 30 31 0 0
0.141940 -0.498243 -0.139320 25 25 25 0 0
0.222026 -0.728642 -0.012141 190 181 175 0 0
0.215633 -0.717683 0.002378 47 40 43 0 0
0.220194 -0.705696 -0.002940 137 132 125 0 0
0.219500 -0.735831 0.001686 138 127 116 0 0
0.218356 -0.717347 -0.023078 148 139 132 0 0
0.205987 -0.713570 -0.004416 159 149 143 0 0
0.215822 -0.709710 -0.009232 182 174 167 0 0
0.208467 -0.723303 0.005572 43 38 41 0 0
0.429892 -0.676487 -0.477104 142 101 60 14 3
0.438409 -0.693641 -0.480029 140 99 60 14 3
0.220708 -0.600653 -0.402043 59 48 40 0 0
0.212764 -0.671481 -0.017869 110 109 105 0 0
0.212445 -0.697403 -0.009534 171 158 145 0 0
0.207310 -0.682770 -0.011132 65 63 62 0 0
0.205033 -0.694698 -0.007064 49 48 49 0 0
0.197175 -0.676061 -0.008392 46 47 46 0 0
0.188829 -0.696954 -0.011417 48 48 48 0 0
0.711690 -0.434581 -0.469776 147 113 82 14 3
0.705328 -0.444275 -0.467115 148 112 80 14 3
0.697033 -0.442704 -0.464892 127 85 43 14 3
0.210040 -0.715669 -0.392166 97 95 101 0 0
0.201385 -0.743832 -0.372430 104 101 111 0 0
0.487074 -0.508414 -0.251176 243 159 130 0 0
0.494479 -0.518435 -0.259014 252 150 115 0 0
0.463967 -0.505395 -0.243481 251 139 103 0 0
0.233132 -0.389132 -0.479504 76 57 35 14 3
0.651744 -0.484306 -0.479103 128 90 54 14 3
0.634419 -0.468803 -0.481661 176 124 68 14 3
0.625253 -0.537193 -0.479836 132 93 55 14 3
0.222367 -0.770362 -0.385645 129 120 111 0 0
0.208230 -0.772218 -0.368698 109 105 116 0 0
0.234465 -0.774551 -0.403215 125 123 125 0 0
0.227144 -0.762225 -0.403313 122 116 107 0 0
0.234910 -0.782528 -0.390753 139 128 121 0 0
0.212019 -0.704110 -0.019722 117 115 112 0 0
0.222537 -0.730673 -0.016820 144 139 135 0 0
0.218121 -0.707269 -0.030673 60 57 56 0 0
0.208845 -0.598986 -0.009621 189 178 172 0 0
0.200695 -0.612128 -0.014353 54 47 47 0 0
0.161962 -0.560508 -0.029149 46 47 49 0 0
0.168266 -0.557581 -0.024050 47 47 45 0 0
0.165732 -0.542231 -0.026078 47 47 47 0 0
0.166027 -0.577433 -0.023073 45 47 45 0 0
0.161572 -0.577787 -0.028735 48 47 48 0 0
0.159651 -0.563547 -0.041369 44 44 45 0 0
0.153216 -0.584240 -0.045404 40 41 39 0 0
0.149314 -0.562179 -0.050255 41 42 39 0 0
0.156993 -0.548970 -0.042847 42 44 43 0 0
0.441464 -0.555691 -0.456994 45 49 33 0 0
0.201319 -0.670648 -0.029277 74 71 69 0 0
0.213917 -0.697059 -0.024608 85 82 82 0 0
0.214661 -0.677889 -0.019756 126 124 120 0 0
0.314036 -0.872287 -0.420059 229 223 215 14 3
0.334299 -0.881821 -0.423856 218 206 193 14 3
0.315348 -0.886090 -0.422574 205 199 188 14 3
0.446115 -0.596280 -0.490203 139 98 56 14 3
0.459841 -0.589854 -0.486570 137 97 57 14 3
0.433993 -0.612177 -0.496516 86 61 35 14 3
0.436915 -0.622288 -0.491371 95 67 41 14 3
0.243582 -0.619772 -0.481726 87 73 62 0 0
0.250575 -0.591776 -0.484329 91 75 67 0 0
0.406965 -0.922404 -0.436775 245 186 108 14 3
0.389650 -0.900640 -0.440318 220 187 155 14 3
0.407076 -0.876052 -0.442791 231 182 130 14 3
0.157654 -0.518131 -0.043486 44 44 45 0 0
0.155210 -0.539726 -0.043426 43 44 46 0 0
0.160760 -0.527326 -0.027994 44 43 43 0 0
0.166288 -0.527855 -0.024106 43 46 44 0 0
0.263158 -0.724604 -0.347681 90 86 84 0 0
0.270031 -0.740794 -0.343971 92 88 84 0 0
0.339785 -0.978129 -0.423946 231 216 207 14 3
0.355911 -0.967471 -0.428099 239 218 210 14 3
0.689079 -0.384226 -0.463898 151 104 61 14 3
0.685796 -0.366922 -0.467258 124 104 85 14 3
0.681965 -0.376577 -0.467016 155 127 98 14 3
0.258189 -0.668563 -0.358092 86 84 82 0 0
0.262273 -0.667573 -0.371102 87 83 83 0 0
0.260850 -0.656324 -0.360329 86 84 82 0 0
0.168962 -0.453939 -0.365749 72 71 62 0 0
0.179028 -0.468785 -0.342959 45 41 38 0 0
0.172734 -0.461235 -0.351401 39 37 31 0 0
0.168894 -0.463086 -0.335017 32 33 28 0 0
0.178342 -0.480937 -0.369557 52 48 43 0 0
0.237758 -0.712775 -0.471280 36 29 26 0 0
0.238047 -0.706601 -0.478706 52 45 34 0 0
0.226598 -0.721073 -0.477792 41 33 23 14 3
0.183443 -0.595582 -0.472211 109 99 93 14 3
0.297148 -0.804009 -0.367164 42 33 23 0 0
0.296438 -0.795312 -0.370776 41 33 27 0 0
0.315124 -0.789571 -0.366694 67 51 34 0 0
0.306734 -0.800499 -0.365729 63 47 34 0 0
0.214319 -0.726882 -0.472941 51 41 31 14 3
0.224187 -0.742916 -0.476781 83 73 66 14 3
0.210903 -0.529996 -0.430186 22 21 20 14 3
0.688140 -0.400167 -0.468157 150 117 84 14 3
0.153317 -0.488479 -0.074517 35 35 36 0 0
0.144923 -0.510489 -0.075554 36 37 35 0 0
0.151829 -0.508117 -0.063782 40 40 41 0 0
0.146778 -0.491534 -0.055953 35 35 36 0 0
0.147851 -0.504325 -0.058528 37 39 35 0 0
0.153898 -0.499290 -0.068194 38 35 39 0 0
0.151081 -0.519443 -0.051187 37 40 42 0 0
0.148279 -0.525487 -0.062624 36 37 38 0 0
0.142625 -0.519225 -0.080635 34 36 36 0 0
0.620613 -0.418905 -0.479877 198 142 76 14 3
0.617725 -0.445661 -0.480482 197 139 74 14 3
0.175737 -0.509164 -0.357596 49 45 41 0 0
0.177344 -0.497916 -0.374443 28 24 22 0 0
0.176747 -0.493645 -0.363696 52 51 45 0 0
0.182940 -0.482752 -0.353977 58 56 51 0 0
0.188829 -0.493197 -0.349958 46 44 40 0 0
0.182823 -0.500419 -0.350372 20 19 17 0 0
0.244111 -0.842828 -0.131346 59 55 51 0 0
0.255003 -0.837957 -0.127943 64 60 55 0 0
0.251866 -0.838649 -0.143657 94 78 74 0 0
0.240049 -0.844675 -0.143622 14 13 12 0 0
0.236975 -0.837348 -0.131122 12 12 11 0 0
0.246022 -0.847358 -0.114359 35 33 30 0 0
0.227429 -0.839929 -0.140240 7 7 7 0 0
0.234348 -0.847640 -0.120855 14 14 14 0 0
0.327434 -0.495013 -0.467886 29 18 10 14 3
0.173287 -0.394097 -0.032264 145 141 135 0 0
0.189691 -0.396314 -0.037703 78 76 73 0 0
0.183543 -0.406956 -0.038052 111 108 103 0 0
0.182456 -0.387396 -0.036118 105 102 98 0 0
0.183707 -0.397514 -0.042844 27 26 27 0 0
0.299217 -0.475472 -0.472629 84 63 45 14 3
0.214949 -0.594851 -0.028757 118 107 97 0 0
0.217520 -0.595994 -0.037477 105 99 95 0 0
0.218406 -0.582215 -0.037276 78 77 72 0 0
0.215976 -0.581939 -0.024128 158 139 116 0 0
0.211646 -0.590285 -0.021057 165 152 137 0 0
0.206638 -0.576115 -0.021246 182 164 147 0 0
0.213304 -0.577904 -0.031520 122 109 96 0 0
0.445500 -0.543612 -0.379041 45 62 38 0 0
0.450193 -0.538320 -0.367669 42 58 33 0 0
0.449031 -0.542761 -0.399334 45 61 37 0 0
0.458559 -0.540191 -0.383512 41 57 35 0 0
0.470071 -0.543240 -0.382999 58 70 47 0 0
0.258934 -0.689512 -0.331476 55 53 51 0 0
0.260568 -0.718648 -0.343348 69 65 64 0 0
0.256631 -0.696138 -0.319003 57 54 51 0 0
0.257756 -0.705368 -0.321477 37 35 33 0 0
0.223245 -0.539804 -0.435864 24 19 18 14 3
0.222224 -0.550771 -0.417020 69 56 46 0 0
0.213375 -0.541264 -0.421418 24 23 23 14 3
0.204730 -0.549094 -0.408979 66 54 47 0 0
0.196014 -0.578707 -0.391032 40 33 26 0 0
0.206015 -0.611212 -0.398967 95 72 53 0 0
0.209994 -0.577559 -0.405486 88 70 56 0 0
0.194333 -0.588847 -0.389476 48 39 34 0 0
0.193800 -0.607332 -0.392778 88 73 62 0 0
0.186139 -0.593387 -0.378106 83 79 73 0 0
0.240018 -0.526338 -0.464691 68 53 41 14 3
0.242958 -0.522410 -0.445889 100 84 70 14 3
0.231001 -0.533639 -0.431600 104 86 71 14 3
0.253668 -0.510047 -0.453900 145 120 93 14 3
0.159555 -0.439389 -0.028168 48 49 46 0 0
0.154479 -0.440423 -0.033480 39 41 39 0 0
0.151729 -0.441423 -0.053604 31 33 32 0 0
0.150738 -0.424301 -0.052056 27 28 27 0 0
0.148502 -0.433812 -0.052190 30 31 31 0 0
0.160035 -0.444623 -0.046621 38 40 36 0 0
0.158406 -0.446936 -0.030438 38 40 36 0 0
0.155865 -0.425095 -0.029993 70 69 66 0 0
0.138876 -0.462052 -0.491867 95 73 48 14 3
0.195135 -0.361604 -0.502202 172 129 85 14 3
0.210015 -0.357625 -0.500781 157 119 82 14 3
0.182164 -0.362173 -0.507722 158 125 86 14 3
0.571019 -0.477053 -0.482394 181 127 68 14 3
0.667175 -0.678245 -0.474037 194 130 66 14 3
0.649432 -0.681098 -0.476704 194 129 66 14 3
0.673407 -0.659999 -0.471118 190 125 64 14 3
0.667361 -0.716859 -0.473852 191 124 64 14 3
0.558723 -0.780873 -0.476785 191 127 63 14 3
0.702179 -0.429608 -0.497264 178 133 85 14 3
0.729015 -0.498670 -0.485286 121 92 64 14 3
0.720738 -0.509281 -0.488080 123 94 67 14 3
0.712662 -0.513271 -0.484114 155 112 73 14 3
0.705034 -0.493305 -0.490233 170 122 73 14 3
0.702567 -0.507140 -0.486482 188 132 73 14 3
0.701168 -0.499794 -0.497745 174 127 87 14 3
0.722293 -0.495836 -0.489273 123 93 67 14 3
0.725840 -0.509342 -0.477439 92 69 48 14 3
0.716010 -0.492814 -0.477819 79 69 59 14 3
0.696899 -0.502306 -0.485278 177 124 70 14 3
0.700493 -0.497257 -0.478807 123 90 62 14 3
0.701841 -0.508864 -0.480806 171 122 80 14 3
0.699832 -0.496274 -0.464807 130 84 42 14 3
0.723285 -0.503447 -0.481991 80 55 31 14 3
0.717168 -0.503121 -0.476884 91 68 45 14 3
0.707680 -0.487781 -0.484000 87 56 26 14 3
0.708683 -0.520038 -0.492759 172 124 76 14 3
0.708332 -0.505034 -0.489758 183 128 74 14 3
0.706519 -0.501903 -0.479114 86 56 28 14 3
0.704785 -0.489930 -0.473748 94 79 64 14 3
0.704312 -0.512145 -0.474755 146 103 66 14 3
0.714804 -0.490313 -0.490453 138 103 68 14 3
0.718673 -0.508825 -0.471029 66 45 26 14 3
0.567725 -0.743237 -0.477178 196 131 65 14 3
0.614489 -0.749299 -0.476972 194 129 71 14 3
0.375376 -0.760220 -0.463285 159 130 96 0 0
0.383454 -0.716558 -0.449602 113 87 58 0 0
0.584138 -0.416715 -0.482037 189 136 74 14 3
0.602515 -0.409157 -0.478143 195 150 98 14 3
0.578951 -0.411220 -0.477585 210 157 93 14 3
0.384541 -0.748944 -0.465794 172 137 103 0 0
0.382622 -0.729606 -0.452931 126 94 64 0 0
0.369167 -0.757179 -0.444998 189 166 145 0 0
0.373616 -0.737997 -0.444093 112 89 66 0 0
0.384711 -0.735370 -0.460498 119 89 60 0 0
0.615054 -0.524765 -0.481175 131 94 54 14 3
0.251012 -0.518399 -0.468433 124 95 68 14 3
0.432002 -0.804016 -0.471733 239 181 114 14 3
0.614471 -0.711168 -0.477588 197 135 73 14 3
0.610988 -0.693689 -0.477989 195 134 74 14 3
0.603808 -0.485921 -0.482005 173 120 64 14 3
0.259249 -0.837979 -0.189674 68 69 61 0 0
0.267749 -0.824784 -0.198380 59 54 48 0 0
0.181342 -0.610606 -0.362604 119 113 105 0 0
0.179501 -0.608400 -0.369650 97 94 87 0 0
0.181205 -0.598840 -0.348365 102 97 67 0 0
0.583883 -0.765467 -0.477025 192 126 65 14 3
0.176176 -0.491632 -0.487901 84 62 41 14 3
0.179975 -0.522466 -0.486339 47 41 37 14 3
0.190577 -0.504956 -0.488843 79 64 46 14 3
0.167373 -0.505452 -0.488022 74 54 34 14 3
0.154360 -0.487446 -0.488575 89 67 40 14 3
0.338966 -0.851745 -0.429588 236 223 204 14 3
0.188534 -0.621665 -0.355711 161 147 140 0 0
0.187586 -0.610433 -0.338361 140 127 119 0 0
0.190560 -0.648418 -0.374576 159 144 138 0 0
0.234089 -0.523912 -0.470311 59 41 31 14 3
0.219057 -0.520690 -0.478717 72 56 41 14 3
0.210333 -0.511578 -0.479458 53 40 25 14 3
0.197960 -0.512530 -0.492503 77 59 33 14 3
0.267052 -0.590939 -0.455289 27 21 19 0 0
0.262150 -0.609280 -0.458545 32 25 22 0 0
0.221101 -0.643770 -0.324708 61 53 46 0 0
0.210759 -0.650079 -0.323183 51 44 39 0 0
0.216857 -0.667494 -0.322750 60 52 46 0 0
0.229918 -0.630022 -0.332428 65 58 50 0 0
0.255639 -0.657130 -0.328764 94 88 83 0 0
0.255279 -0.678122 -0.326822 86 82 78 0 0
0.256639 -0.669806 -0.321723 88 84 80 0 0
0.251448 -0.659667 -0.315232 24 23 20 0 0
0.259612 -0.669399 -0.340542 67 64 62 0 0
0.259710 -0.681785 -0.315154 34 31 27 0 0
0.226439 -0.579740 -0.036602 117 105 93 0 0
0.224816 -0.583942 -0.029474 104 98 92 0 0
0.238760 -0.586807 -0.043198 65 60 55 0 0
0.221283 -0.587327 -0.023268 176 167 163 0 0
0.237672 -0.595108 -0.039364 108 97 93 0 0
0.236553 -0.569036 -0.044611 108 102 94 0 0
0.221502 -0.568440 -0.039205 95 88 83 0 0
0.233094 -0.587988 -0.033013 116 109 103 0 0
0.241633 -0.578149 -0.048090 90 84 80 0 0
0.653182 -0.812109 -0.474664 195 128 69 14 3
0.662504 -0.772332 -0.474445 195 128 63 14 3
0.639545 -0.786135 -0.475939 195 129 64 14 3
0.682796 -0.789133 -0.472053 194 129 70 14 3
0.579315 -0.865412 -0.474187 195 129 67 14 3
0.219042 -0.352824 -0.499605 145 116 88 14 3
0.233752 -0.685827 -0.347478 102 96 89 0 0
0.235135 -0.663955 -0.345244 76 72 65 0 0
0.258541 -0.826935 -0.099906 141 132 125 0 0
0.259984 -0.828707 -0.107407 93 77 72 0 0
0.711431 -0.718951 -0.494951 196 140 83 14 3
0.708117 -0.745784 -0.484140 178 120 71 14 3
0.708610 -0.745441 -0.493493 187 129 70 14 3
0.710082 -0.718681 -0.487008 168 119 77 14 3
0.710793 -0.735257 -0.495764 176 121 64 14 3
0.542487 -0.877462 -0.473885 191 126 63 14 3
0.505839 -0.852239 -0.476066 198 134 67 14 3
0.507501 -0.892927 -0.474379 213 147 78 14 3
0.703837 -0.409326 -0.500502 185 142 100 14 3
0.703569 -0.393568 -0.500508 195 147 106 14 3
0.225223 -0.708347 -0.318712 70 64 58 0 0
0.238248 -0.701066 -0.330795 88 81 75 0 0
0.239605 -0.720297 -0.326834 72 65 59 0 0
0.245007 -0.707922 -0.332810 80 77 74 0 0
0.372995 -0.709933 -0.441378 71 53 30 0 0
0.367028 -0.721371 -0.432837 77 56 36 0 0
0.440498 -0.539369 -0.319882 72 77 69 0 0
0.456515 -0.539031 -0.318958 46 60 41 0 0
0.470278 -0.543318 -0.327294 45 57 38 0 0
0.447943 -0.539362 -0.334963 41 56 36 0 0
0.236413 -0.696596 -0.338963 90 86 86 0 0
0.234168 -0.696573 -0.355023 149 143 137 0 0
0.237559 -0.713106 -0.352726 126 118 117 0 0
0.168536 -0.508622 -0.384436 23 22 18 0 0
0.169659 -0.513433 -0.373422 24 23 21 0 0
0.179386 -0.486006 -0.388642 50 46 39 0 0
0.182091 -0.480245 -0.390405 54 50 44 0 0
0.174462 -0.497399 -0.392386 42 36 30 0 0
0.580231 -0.696803 -0.478302 196 135 77 14 3
0.579051 -0.643677 -0.479051 200 139 79 14 3
0.708193 -0.370653 -0.500936 182 137 94 14 3
0.704115 -0.380232 -0.501751 196 149 101 14 3
0.698621 -0.366577 -0.500707 191 144 92 14 3
0.204191 -0.448338 -0.455819 20 17 12 0 0
0.203646 -0.459511 -0.451377 24 16 12 0 0
0.213050 -0.452870 -0.463254 24 18 10 0 0
0.191914 -0.445100 -0.447101 32 26 21 0 0
0.179813 -0.454958 -0.433416 39 30 22 0 0
0.194331 -0.467902 -0.442233 30 22 19 0 0
0.509577 -0.508535 -0.425977 155 128 87 0 0
0.502391 -0.508134 -0.417567 91 93 73 0 0
0.499922 -0.523521 -0.417687 129 107 66 0 0
0.289145 -0.965354 -0.423881 210 204 199 14 3
0.297465 -0.944275 -0.427514 159 152 149 14 3
0.274063 -0.952025 -0.430757 188 180 176 14 3
0.276885 -0.989441 -0.423613 134 124 120 14 3
0.267774 -0.977308 -0.426822 139 129 127 14 3
0.265290 -0.826795 -0.183595 64 74 64 0 0
0.263974 -0.825354 -0.147101 97 81 70 0 0
0.264222 -0.829276 -0.157180 61 74 68 0 0
0.253381 -0.840054 -0.152283 71 66 63 0 0
0.181503 -0.587035 -0.016768 45 46 45 0 0
0.445288 -0.530411 -0.286712 92 91 81 0 0
0.183716 -0.453305 -0.339485 28 27 22 0 0
0.217253 -0.744276 -0.026211 38 36 35 0 0
0.217966 -0.759001 -0.023095 109 105 102 0 0
0.455370 -0.558349 -0.480984 154 114 64 0 0
0.460292 -0.576598 -0.487679 183 131 72 14 3
0.361217 -0.756617 -0.431693 155 125 95 0 0
0.342443 -0.768951 -0.422431 137 97 61 0 0
0.231102 -0.796975 -0.077429 8 9 6 0 0
0.211629 -0.803926 -0.066059 12 13 10 0 0
0.253218 -0.777545 -0.372003 42 45 58 0 0
0.266795 -0.760206 -0.364910 54 55 73 0 0
0.251345 -0.766572 -0.352224 17 15 15 0 0
0.248572 -0.779973 -0.354180 49 52 70 0 0
0.245358 -0.780404 -0.349290 46 48 56 0 0
0.196660 -0.604721 -0.318753 50 44 32 0 0
0.213801 -0.589212 -0.327657 85 77 64 0 0
0.206451 -0.579695 -0.326240 54 49 36 0 0
0.197471 -0.596936 -0.321148 106 94 59 0 0
0.192727 -0.571497 -0.326026 122 105 35 0 0
0.262684 -0.859884 -0.417191 187 181 177 14 3
0.251451 -0.866408 -0.409187 243 235 230 14 3
0.151851 -0.537789 -0.058029 39 39 38 0 0
0.143191 -0.497559 -0.161555 27 25 28 0 0
0.144146 -0.511060 -0.154895 31 31 31 0 0
0.507337 -0.499518 -0.345053 108 109 96 0 0
0.503499 -0.497258 -0.355596 65 73 57 0 0
0.498844 -0.517850 -0.353934 101 102 88 0 0
0.490325 -0.876156 -0.478549 224 166 87 14 3
0.480926 -0.885416 -0.476533 242 183 96 14 3
0.640363 -0.853815 -0.474133 203 134 70 14 3
0.468344 -0.698833 -0.478355 155 102 54 14 3
0.231462 -0.655670 -0.023312 167 163 159 0 0
0.235928 -0.655182 -0.030776 124 122 119 0 0
0.235688 -0.640508 -0.022750 151 146 143 0 0
0.228044 -0.653123 -0.028982 84 80 77 0 0
0.238932 -0.639491 -0.038058 85 83 79 0 0
0.231613 -0.633000 -0.035434 144 135 133 0 0
0.214333 -0.660514 -0.036499 27 26 24 0 0
0.215723 -0.641783 -0.037294 50 46 44 0 0
0.238404 -0.646270 -0.030498 124 122 115 0 0
0.212826 -0.635462 -0.023034 124 119 116 0 0
0.207569 -0.656440 -0.031990 44 42 41 0 0
0.218442 -0.651860 -0.041998 72 70 67 0 0
0.215676 -0.651098 -0.021629 99 95 94 0 0
0.689756 -0.766327 -0.472616 189 127 68 14 3
0.699413 -0.763223 -0.476047 177 124 76 14 3
0.177021 -0.446533 -0.426285 72 62 52 0 0
0.182954 -0.435062 -0.431992 96 83 71 0 0
0.597994 -0.919543 -0.471857 198 132 73 14 3
0.578150 -0.895970 -0.473495 196 131 71 14 3
0.439132 -0.720475 -0.478867 231 210 192 14 3
0.230344 -0.732472 -0.447687 93 91 99 0 0
0.236248 -0.751896 -0.463943 79 77 73 0 0
0.699777 -0.685283 -0.473049 172 122 84 14 3
0.715201 -0.708178 -0.499758 190 136 73 14 3
0.709687 -0.696008 -0.493469 196 132 72 14 3
0.706597 -0.703892 -0.483140 165 115 68 14 3
0.702799 -0.725044 -0.479605 153 104 73 14 3
0.228078 -0.813126 -0.139042 7 7 7 0 0
0.226832 -0.808722 -0.147185 7 7 6 0 0
0.271751 -0.802501 -0.094252 32 33 30 0 0
0.267200 -0.815438 -0.092918 71 66 62 0 0
0.271391 -0.799058 -0.107814 49 46 44 0 0
0.254305 -0.817683 -0.107365 49 45 42 0 0
0.263608 -0.819950 -0.110967 124 101 94 0 0
0.258280 -0.814969 -0.110992 57 54 50 0 0
0.258524 -0.799240 -0.090434 27 28 28 0 0
0.262441 -0.797970 -0.099484 30 30 29 0 0
0.270582 -0.790670 -0.106867 38 39 37 0 0
0.266352 -0.807319 -0.112379 45 42 40 0 0
0.692722 -0.727989 -0.474118 185 123 67 14 3
0.687235 -0.708395 -0.470292 188 125 70 14 3
0.681790 -0.722819 -0.470963 188 125 68 14 3
0.199118 -0.558273 -0.401758 19 18 17 0 0
