ply
format ascii 1.0
element vertex 1148
property float x
property float y
property float z
property uchar red
property uchar green
property uchar blue
property uchar semantic_label
property uchar instance_label
end_header
1.356780 -0.289683 -1.037704 37 19 5 5 7
1.156228 0.080251 -1.003541 61 32 13 5 7
1.193180 0.084111 -1.003447 41 27 17 5 7
1.144391 0.259188 -0.715180 170 99 69 7 2
1.133758 0.314028 -0.717544 189 118 92 7 2
0.962941 0.129243 -0.823210 65 42 32 7 2
0.893432 0.111929 -0.832484 49 31 21 7 2
0.900504 0.089135 -0.805894 51 33 26 7 2
0.919089 0.111645 -0.824079 54 39 29 7 2
0.766059 0.481299 -0.693003 198 122 90 7 2
1.433607 -0.220264 -0.869452 96 39 12 5 7
1.423707 -0.232167 -0.799772 22 16 10 5 7
1.137020 -0.292826 -0.944921 24 23 27 5 7
1.152544 -0.317709 -0.957417 25 25 27 5 7
1.214339 -0.288847 -0.951353 46 21 8 5 7
0.748833 0.046937 -0.827792 40 23 16 7 2
1.164409 0.236364 -0.836188 42 14 1 7 2
1.342241 -0.284441 -0.991037 101 47 21 5 7
1.317120 -0.269897 -0.962120 64 32 9 5 7
1.306407 -0.299858 -1.006989 40 20 6 5 7
1.374881 -0.283134 -1.017638 36 17 5 5 7
1.299537 -0.274817 -0.984683 58 25 9 5 7
1.283038 -0.261672 -0.956980 57 26 10 5 7
1.307406 -0.252733 -0.960254 93 47 12 5 7
1.349541 -0.271079 -0.993392 99 58 41 5 7
1.357055 -0.250914 -0.998043 74 35 11 5 7
1.295074 -0.292561 -0.966968 71 32 10 5 7
1.085611 -0.215837 -1.032606 26 25 27 5 7
1.097172 -0.200204 -1.041234 29 27 27 5 7
1.020262 -0.038422 -1.020193 48 23 10 5 7
1.541485 0.418697 -0.750208 165 81 41 7 2
0.859418 0.325045 -0.696313 207 135 106 7 2
1.571732 0.416214 -0.753875 142 80 44 7 2
1.455446 0.094077 -1.033312 90 47 23 5 7
1.654476 0.561811 -0.913112 32 13 3 7 2
1.337673 0.351247 -0.843679 30 10 1 7 2
1.324793 0.342725 -0.808954 29 9 1 7 2
1.337113 0.348801 -0.860821 32 12 3 7 2
1.440670 -0.270494 -0.628914 44 14 1 5 7
1.038359 0.043580 -0.992121 81 40 14 5 7
1.121755 0.053635 -0.993338 64 32 12 5 7
1.053517 0.062855 -1.004384 78 33 17 5 7
1.102902 0.076973 -1.008162 34 22 12 5 7
1.104089 0.091241 -1.019611 75 39 20 5 7
1.110673 0.167130 -0.709051 156 74 32 7 2
1.050433 0.210518 -0.706353 194 132 111 7 2
1.079981 0.218668 -0.710522 190 127 105 7 2
0.882397 0.019930 -0.711417 185 138 120 7 2
0.953117 0.047897 -0.704940 186 141 127 7 2
0.901627 0.014970 -0.691667 188 141 122 7 2
1.193362 -0.205187 -1.006459 125 69 29 5 7
1.120403 -0.181325 -0.990292 133 80 33 5 7
1.160871 -0.179028 -1.000154 114 66 24 5 7
1.478651 -0.224086 -0.802612 28 12 2 5 7
1.438717 -0.216251 -0.818166 30 14 6 5 7
1.478767 -0.222898 -0.844261 76 33 11 5 7
1.502315 -0.212702 -0.807360 30 14 4 5 7
1.504282 -0.205287 -0.848864 27 14 4 5 7
1.440739 -0.209309 -0.863228 31 13 5 5 7
1.518166 -0.216557 -0.835817 69 35 16 5 7
1.492307 -0.203373 -0.864317 60 26 6 5 7
1.006574 0.145743 -0.816523 53 35 25 7 2
0.970660 0.142056 -0.833724 55 36 25 7 2
1.012145 0.143323 -0.765999 60 39 31 7 2
1.262235 -0.268246 -0.900129 109 55 17 5 7
1.231594 -0.276104 -0.946003 72 37 12 5 7
1.250453 -0.268485 -0.930677 109 55 18 5 7
1.246420 -0.277962 -0.889822 62 31 10 5 7
1.271639 -0.278749 -0.899864 116 59 17 5 7
1.272105 -0.280133 -0.920434 121 63 22 5 7
1.232684 -0.276049 -0.922310 129 76 24 5 7
1.249203 -0.265429 -0.883871 62 31 10 5 7
1.264816 -0.292579 -0.861596 123 62 18 5 7
1.244411 -0.267655 -0.945691 49 23 8 5 7
1.240422 -0.298120 -0.902866 129 77 25 5 7
1.293513 -0.296614 -0.911045 131 70 25 5 7
1.229550 -0.284725 -0.914578 130 77 26 5 7
1.307179 0.422705 -0.734012 168 84 39 7 2
1.348687 0.350895 -0.783792 30 9 2 7 2
1.255801 0.287910 -0.774604 29 9 1 7 2
1.269141 0.247799 -0.723315 135 76 37 7 2
0.762029 0.016853 -0.791423 45 24 14 7 2
0.801672 0.024020 -0.728458 46 21 5 7 2
1.640808 0.522690 -0.830863 33 13 2 7 2
1.701966 0.564906 -0.871113 33 13 4 7 2
1.135231 0.159067 -0.725255 59 28 8 7 2
0.819289 0.046655 -0.799529 51 32 22 7 2
0.831079 0.068786 -0.819306 49 27 19 7 2
0.811565 0.076947 -0.832370 47 26 15 7 2
1.530510 -0.240478 -0.653176 36 20 8 5 7
1.536134 -0.293791 -0.662650 22 15 10 5 7
1.571249 -0.284560 -0.647277 25 12 5 5 7
1.563772 -0.261429 -0.706823 34 19 7 5 7
1.559604 -0.246696 -0.694057 41 27 13 5 7
1.572651 -0.260067 -0.656488 31 16 7 5 7
1.481862 -0.300084 -0.605312 38 13 3 5 7
1.682872 0.585234 -0.923320 43 26 18 7 2
1.642667 0.595099 -0.936864 21 13 10 7 2
1.623826 0.572062 -0.930076 32 14 5 7 2
1.142701 -0.290930 -0.857857 19 19 18 5 7
1.182226 -0.282819 -0.826310 38 19 5 5 7
1.156885 -0.289937 -0.810107 16 14 13 5 7
1.204634 -0.278067 -0.821270 54 28 12 5 7
1.484116 -0.190187 -0.939517 49 20 4 5 7
1.470263 -0.213916 -0.940632 122 61 25 5 7
1.458163 -0.210391 -0.921863 91 46 18 5 7
1.468104 -0.216655 -0.912176 112 59 15 5 7
1.501362 -0.198832 -0.918262 33 15 5 5 7
1.378571 0.373113 -0.846816 30 10 1 7 2
1.379966 0.368447 -0.864388 21 8 2 7 2
1.439606 0.402493 -0.867378 29 10 2 7 2
1.393887 0.379862 -0.812512 29 9 1 7 2
1.444439 0.410783 -0.821820 31 11 2 7 2
1.095157 -0.174626 -0.993999 36 30 25 5 7
1.094001 -0.125807 -0.986142 131 76 24 5 7
1.128421 -0.101830 -0.992655 121 67 19 5 7
1.045359 -0.095461 -0.993307 24 23 24 5 7
1.457934 0.504580 -0.748984 164 79 36 7 2
1.069651 0.181978 -0.821541 53 33 24 7 2
1.139743 0.219745 -0.817942 36 14 6 7 2
1.071976 0.191377 -0.835277 53 35 25 7 2
1.115550 0.223128 -0.845583 45 27 16 7 2
1.486081 -0.250736 -0.629866 27 11 2 5 7
1.453400 -0.297766 -0.731122 27 11 3 5 7
1.467705 -0.236854 -0.700504 24 11 2 5 7
1.662074 0.551456 -0.762736 182 96 50 7 2
1.186212 0.250108 -0.771492 28 8 2 7 2
1.187455 0.259938 -0.784856 29 9 2 7 2
1.159580 0.270580 -0.715056 171 86 41 7 2
1.174580 0.447471 -0.724227 201 134 109 7 2
1.002200 0.018548 -1.017820 60 56 57 5 7
1.011604 0.048748 -1.015202 53 46 43 5 7
1.029895 0.073024 -1.029366 64 62 60 5 7
1.009309 0.019466 -0.993618 48 41 40 5 7
1.495368 0.374222 -0.762812 109 67 37 7 2
1.463178 0.357056 -0.742234 115 69 40 7 2
1.496332 0.367087 -0.752105 110 65 38 7 2
1.486080 0.378760 -0.744931 138 80 48 7 2
0.862933 0.551768 -0.702843 203 131 97 7 2
1.479846 -0.184333 -0.990176 59 25 6 5 7
1.465945 -0.206039 -0.985092 114 61 32 5 7
1.499621 -0.200380 -1.036843 58 30 17 5 7
1.459606 -0.210797 -0.989740 57 24 9 5 7
1.516912 -0.224854 -0.944116 31 14 4 5 7
1.491798 -0.191527 -1.000051 33 15 5 5 7
1.470607 -0.170787 -1.023237 111 55 22 5 7
1.511089 -0.233916 -1.004672 34 15 8 5 7
1.229499 0.471120 -0.731468 195 129 105 7 2
1.278480 0.350687 -0.883361 25 9 4 7 2
1.167009 -0.323343 -1.024066 33 28 23 5 7
1.222583 -0.312380 -1.029694 37 18 6 5 7
1.491947 0.469388 -0.901652 23 11 6 7 2
1.066059 0.604893 -0.722072 195 130 104 7 2
1.502523 -0.243521 -0.963977 68 29 6 5 7
1.504089 -0.238588 -1.051587 31 13 4 5 7
1.458772 -0.248976 -0.988008 47 22 8 5 7
1.510012 -0.247424 -0.990225 38 14 4 5 7
1.482652 -0.236567 -1.008801 156 110 93 5 7
1.459355 -0.221691 -0.953538 43 20 5 5 7
1.449478 -0.254560 -0.963440 55 24 7 5 7
1.300816 -0.273536 -0.831707 69 33 7 5 7
1.222637 -0.287072 -0.858678 117 59 17 5 7
1.234766 -0.276487 -0.866706 62 31 9 5 7
1.265187 -0.263796 -0.838621 96 47 13 5 7
1.292111 -0.262294 -0.887670 105 53 13 5 7
1.272490 -0.273443 -0.867064 105 53 13 5 7
1.232341 -0.298827 -0.869476 105 51 12 5 7
1.308109 -0.305727 -0.856961 105 54 17 5 7
1.232084 -0.287373 -0.801329 74 32 9 5 7
1.246659 -0.282218 -0.829408 45 21 4 5 7
1.286683 -0.277576 -0.812674 67 34 11 5 7
1.248917 -0.307328 -0.867371 46 23 6 5 7
1.137901 0.217172 -0.777494 26 8 1 7 2
1.100843 0.166348 -0.745708 35 17 10 7 2
1.074136 0.179476 -0.776148 38 22 12 7 2
1.136451 0.252153 -0.859583 48 30 20 7 2
0.813383 0.596964 -0.700610 199 125 91 7 2
1.301655 0.280749 -0.726911 137 76 39 7 2
1.377082 0.314723 -0.733705 141 79 44 7 2
1.343996 0.284289 -0.732922 137 80 42 7 2
1.292984 0.251745 -0.732633 94 57 28 7 2
1.353761 0.289862 -0.744516 28 10 1 7 2
1.317166 0.330137 -0.783745 28 9 1 7 2
1.318860 0.303519 -0.766851 27 9 2 7 2
1.414279 -0.278850 -0.874511 78 39 11 5 7
1.423318 -0.290977 -0.808228 64 27 10 5 7
1.388665 -0.293728 -0.785210 34 19 8 5 7
1.375789 -0.236375 -0.824844 45 23 5 5 7
1.404923 -0.282289 -0.830208 97 45 11 5 7
1.443700 -0.251886 -0.795823 30 17 8 5 7
1.384121 -0.259868 -0.856378 113 56 16 5 7
1.442571 -0.249484 -0.870456 100 47 15 5 7
1.424683 -0.280458 -0.834047 54 25 7 5 7
1.419536 -0.267636 -0.848857 63 30 8 5 7
1.444709 -0.233803 -0.834662 92 41 11 5 7
1.393464 -0.235441 -0.869492 64 30 7 5 7
1.408686 -0.245183 -0.815612 30 16 5 5 7
1.279911 0.035810 -1.011600 106 52 17 5 7
1.261582 0.135461 -1.031623 44 25 14 5 7
1.428758 -0.205389 -0.879025 99 44 14 5 7
1.435239 -0.203360 -0.945666 66 31 10 5 7
1.418448 -0.207426 -0.926742 111 53 14 5 7
1.290576 -0.315707 -0.638249 34 18 3 5 7
1.229508 -0.315125 -0.670287 35 18 3 5 7
1.415241 -0.093409 -1.029062 122 64 19 5 7
1.425208 0.027187 -1.020283 135 73 29 5 7
1.103502 0.108935 -1.041309 78 41 16 5 7
1.169854 0.125021 -1.031585 77 38 17 5 7
0.820434 0.038018 -0.679696 205 143 121 7 2
1.426149 -0.303910 -0.760494 30 19 10 5 7
1.442378 -0.271562 -0.784833 32 17 8 5 7
1.362595 -0.274302 -0.739300 28 13 4 5 7
1.425359 -0.251743 -0.783424 31 17 6 5 7
1.417035 -0.259246 -0.711360 19 7 2 5 7
1.437597 -0.247168 -0.717602 22 11 4 5 7
1.432783 -0.292158 -0.782144 34 20 10 5 7
1.417430 -0.248363 -0.772215 24 14 10 5 7
1.460494 -0.230585 -0.740315 19 8 4 5 7
1.248769 0.294577 -0.786012 31 11 2 7 2
1.269074 0.308232 -0.853123 31 11 2 7 2
1.208009 0.273150 -0.849117 34 12 3 7 2
1.163040 0.283342 -0.872837 23 9 4 7 2
1.268787 0.313869 -0.861400 15 7 1 7 2
1.283800 0.336376 -0.873594 32 13 4 7 2
1.448252 -0.154277 -1.027138 105 51 17 5 7
1.428075 -0.169646 -1.015929 46 20 4 5 7
1.447789 -0.183270 -1.021044 48 21 7 5 7
1.420516 -0.202596 -0.974009 110 56 24 5 7
1.433567 -0.196032 -0.979410 60 29 12 5 7
1.391788 -0.191870 -1.012639 106 52 18 5 7
1.401751 -0.207483 -0.992214 66 31 11 5 7
1.174331 0.191829 -0.735533 161 111 79 7 2
1.208274 0.211789 -0.734821 28 9 1 7 2
1.187187 0.189577 -0.722313 149 80 37 7 2
1.156977 0.187526 -0.713484 168 82 38 7 2
1.186840 0.357002 -0.722215 167 82 38 7 2
1.241059 0.356767 -0.725982 167 82 36 7 2
1.154422 0.217687 -0.764615 41 15 3 7 2
1.524927 -0.231891 -0.712113 30 15 5 5 7
1.506138 -0.271992 -0.762559 69 35 9 5 7
1.478867 -0.292600 -0.749232 25 18 15 5 7
1.485713 -0.271433 -0.802467 34 21 14 5 7
1.530111 -0.270587 -0.776413 41 24 17 5 7
1.472294 -0.278017 -0.800294 54 32 12 5 7
1.511686 -0.284202 -0.714844 26 12 4 5 7
1.507090 0.449272 -0.851564 31 11 2 7 2
1.567550 0.476207 -0.816582 30 11 2 7 2
1.543730 0.467428 -0.878969 31 11 2 7 2
1.404965 0.566299 -0.746770 169 83 37 7 2
1.461684 0.622550 -0.753148 176 89 33 7 2
1.532248 -0.310572 -0.606031 89 55 27 5 7
1.038556 0.125349 -0.702486 168 104 73 7 2
1.127021 0.152567 -0.713144 171 85 41 7 2
0.795082 0.124011 -0.682187 214 142 116 7 2
0.993541 0.070243 -0.702054 162 115 93 7 2
1.451202 -0.263490 -0.816797 77 38 14 5 7
1.466708 -0.267674 -0.857392 62 26 7 5 7
1.531758 -0.268469 -0.806624 77 33 8 5 7
1.483934 -0.253686 -0.846714 84 37 11 5 7
1.494285 -0.244318 -0.818515 101 43 13 5 7
1.099496 0.419268 -0.717259 194 133 111 7 2
0.939496 0.662237 -0.713125 190 118 90 7 2
1.354554 -0.229825 -0.979389 118 65 26 5 7
1.332014 -0.182076 -1.020218 83 41 13 5 7
1.359670 -0.192479 -1.018543 100 48 15 5 7
1.282019 -0.201618 -1.012860 104 51 22 5 7
1.312480 -0.206279 -1.013867 80 38 14 5 7
1.376001 -0.208301 -0.993510 114 60 24 5 7
1.338828 -0.216398 -1.005795 54 26 8 5 7
1.588566 0.494486 -0.883038 33 12 2 7 2
1.580171 0.515254 -0.905854 26 7 2 7 2
1.643031 0.525197 -0.885538 26 10 3 7 2
1.146786 -0.239223 -0.993475 74 44 23 5 7
1.215923 -0.232311 -0.987714 115 59 24 5 7
1.139436 -0.278675 -0.961446 26 25 27 5 7
1.182912 -0.232138 -0.994829 51 23 7 5 7
1.268846 -0.231301 -0.993656 71 33 9 5 7
1.264459 -0.306034 -1.006945 52 29 14 5 7
1.206395 -0.256434 -0.976404 82 41 17 5 7
1.267805 -0.260069 -0.968992 89 46 19 5 7
1.262352 -0.279352 -0.969312 120 69 47 5 7
1.281343 -0.291245 -0.970062 109 51 19 5 7
1.220071 -0.289084 -0.963850 117 64 24 5 7
1.243529 -0.283404 -0.974737 59 27 9 5 7
1.290398 -0.238744 -0.988383 49 24 7 5 7
1.309325 0.138302 -1.029905 52 29 20 5 7
1.340236 0.153796 -1.037706 59 30 18 5 7
1.238324 0.088895 -1.003103 87 35 11 5 7
1.571041 -0.258345 -0.615779 103 71 51 5 7
1.528085 -0.304423 -0.600200 29 11 2 5 7
1.575239 -0.289695 -0.600793 49 27 16 5 7
1.543143 -0.284572 -0.595743 119 80 49 5 7
1.582452 -0.275303 -0.602783 112 74 41 5 7
1.522326 -0.243776 -0.627599 48 28 16 5 7
0.740202 -0.006018 -0.723430 36 17 7 7 2
1.434396 0.420107 -0.884149 20 8 2 7 2
1.495877 0.460479 -0.892794 19 9 3 7 2
1.479870 -0.233459 -0.741802 26 13 6 5 7
1.507091 -0.227298 -0.729338 29 14 5 5 7
0.763265 0.183584 -0.682146 219 147 116 7 2
1.090140 0.307706 -0.712463 195 132 112 7 2
1.410008 -0.162606 -1.023380 117 60 25 5 7
1.409597 -0.032296 -1.021927 127 68 25 5 7
1.396665 -0.269357 -0.702754 30 15 5 5 7
1.350901 -0.263700 -0.792482 22 15 13 5 7
1.391865 -0.249053 -0.761181 34 18 7 5 7
1.299959 -0.289340 -0.766080 22 8 3 5 7
1.325541 -0.266660 -0.770081 18 5 1 5 7
1.329172 -0.287711 -0.709522 28 17 11 5 7
1.304206 -0.293205 -0.729533 21 8 2 5 7
1.391970 -0.312075 -0.751332 29 18 8 5 7
1.191641 -0.297150 -0.758207 35 16 4 5 7
1.142981 -0.306638 -0.771300 13 4 2 5 7
1.220640 -0.287810 -0.751595 30 14 6 5 7
1.166996 -0.297698 -0.728038 34 17 6 5 7
1.172449 -0.290154 -0.764673 13 4 1 5 7
1.241840 0.587862 -0.733884 191 129 109 7 2
1.637613 0.527980 -0.860279 31 11 1 7 2
1.217061 0.109492 -1.011918 40 26 18 5 7
1.273748 0.119394 -1.015375 43 27 15 5 7
1.128057 -0.293026 -1.033252 31 31 31 5 7
1.140551 -0.303995 -0.996212 30 29 29 5 7
1.112649 -0.259933 -1.020018 28 25 27 5 7
1.133662 -0.276835 -0.996119 29 26 26 5 7
0.956446 0.112549 -0.757432 44 21 8 7 2
0.929235 0.102530 -0.782658 38 18 6 7 2
1.277934 0.543643 -0.737631 165 80 37 7 2
1.392848 0.506067 -0.744189 171 86 40 7 2
1.460594 -0.249268 -0.673981 26 12 3 5 7
1.397088 -0.289756 -0.624718 30 14 3 5 7
1.426813 -0.268003 -0.668732 30 13 4 5 7
1.309479 -0.324417 -0.780652 82 40 13 5 7
1.052800 0.094508 -1.038867 62 61 58 5 7
1.470597 0.002710 -1.031466 137 75 27 5 7
1.225605 -0.204803 -1.008264 108 57 23 5 7
1.242710 -0.233779 -1.000807 100 48 17 5 7
1.253613 -0.190264 -1.015944 123 69 29 5 7
1.309589 -0.163428 -1.022259 117 65 23 5 7
1.026511 -0.028788 -0.993747 40 16 4 5 7
1.036306 0.013909 -0.983595 87 38 15 5 7
1.567934 0.629268 -0.760209 171 87 46 7 2
1.365537 0.042205 -1.018064 91 39 12 5 7
1.554310 -0.264966 -0.749463 29 13 3 5 7
1.541784 -0.263152 -0.811397 29 12 4 5 7
1.540987 -0.237304 -0.810427 44 23 12 5 7
1.549766 -0.239039 -0.729509 42 22 11 5 7
1.550569 -0.248076 -0.764296 32 15 5 5 7
1.553853 -0.280313 -0.725842 24 15 11 5 7
1.294228 -0.305215 -1.034670 39 20 5 5 7
0.841038 0.248643 -0.692101 209 142 112 7 2
1.204508 0.127236 -1.029387 74 35 14 5 7
1.182415 0.103117 -1.015365 51 28 13 5 7
1.021919 0.326455 -0.707852 202 136 109 7 2
0.968613 0.280604 -0.702624 201 135 110 7 2
0.983715 0.190127 -0.699646 201 136 109 7 2
1.540143 0.507705 -0.754268 169 85 45 7 2
1.327640 0.114523 -1.012826 98 47 14 5 7
1.222575 -0.306302 -0.861419 114 62 18 5 7
1.225184 -0.326182 -0.780636 74 31 9 5 7
1.356744 -0.279338 -0.717943 31 15 2 5 7
1.315615 -0.307264 -0.646401 35 16 5 5 7
1.310748 -0.298332 -0.681455 33 16 4 5 7
1.352365 -0.291687 -0.671517 31 15 2 5 7
1.535760 -0.230533 -0.785385 75 38 17 5 7
1.240320 -0.067120 -1.010791 118 61 21 5 7
1.267502 -0.158354 -1.015075 123 63 26 5 7
1.324948 -0.148627 -1.022973 135 73 23 5 7
0.737680 0.375401 -0.686716 208 136 106 7 2
0.776684 0.306768 -0.687708 202 131 104 7 2
0.861849 -0.003834 -0.694266 174 128 113 7 2
0.883893 0.024264 -0.684215 186 138 124 7 2
1.550533 0.474153 -0.831499 31 11 1 7 2
1.450225 0.405261 -0.796970 30 12 2 7 2
1.504714 0.436721 -0.808067 48 23 9 7 2
1.502777 0.440863 -0.873985 29 10 3 7 2
1.373866 0.387681 -0.881207 21 7 3 7 2
1.518802 -0.256718 -0.612323 118 81 50 5 7
1.234728 -0.306994 -0.699067 33 17 5 5 7
1.281957 -0.303883 -0.698193 35 17 5 5 7
0.744257 0.006227 -0.734753 43 20 6 7 2
0.749037 -0.027476 -0.714887 62 33 14 7 2
0.811652 -0.005628 -0.714483 54 29 9 7 2
1.298363 -0.286170 -0.916120 87 45 13 5 7
1.290595 -0.262597 -0.928991 65 31 10 5 7
1.353170 -0.289374 -0.912948 102 52 19 5 7
1.348260 -0.277174 -0.950622 63 30 9 5 7
1.304744 -0.256019 -0.907376 102 52 17 5 7
1.360544 -0.271322 -0.861802 54 25 8 5 7
1.341734 -0.248794 -0.919645 71 33 12 5 7
1.310532 -0.247348 -0.904433 113 58 21 5 7
1.325396 -0.254831 -0.916929 107 54 20 5 7
1.366521 -0.235977 -0.926853 110 56 21 5 7
1.379184 -0.229840 -0.900113 109 58 17 5 7
1.341621 -0.285969 -0.918949 98 51 17 5 7
1.328797 -0.247975 -0.970210 111 55 23 5 7
1.354287 -0.247087 -0.883880 48 21 5 5 7
1.362613 -0.238893 -0.889486 75 37 11 5 7
1.370182 -0.237036 -0.861463 75 37 11 5 7
1.305590 -0.297820 -0.892308 60 30 9 5 7
0.998559 0.572393 -0.715129 198 130 103 7 2
1.059184 0.425987 -0.715068 196 130 106 7 2
1.326730 -0.310551 -0.615578 42 21 4 5 7
1.148426 0.575030 -0.726624 192 128 108 7 2
0.909067 0.209033 -0.694924 208 140 113 7 2
1.417682 -0.268855 -1.048041 34 15 2 5 7
1.186604 -0.316127 -0.657320 30 13 3 5 7
1.197261 -0.311228 -0.694782 29 14 6 5 7
0.860488 0.065719 -0.747046 40 18 6 7 2
0.801683 0.034832 -0.744484 45 22 8 7 2
0.848756 0.046527 -0.733344 91 57 37 7 2
0.702934 0.316768 -0.681765 215 140 108 7 2
1.439297 -0.260712 -1.026525 51 27 13 5 7
1.420770 -0.260186 -1.012519 173 133 109 5 7
1.393670 -0.228374 -1.002555 46 21 7 5 7
1.415236 -0.235659 -1.001394 96 46 18 5 7
1.400781 -0.255575 -0.958400 52 23 6 5 7
1.431362 -0.228899 -0.947761 110 62 28 5 7
1.391745 -0.267231 -0.992864 106 51 16 5 7
1.399461 -0.258538 -0.996108 84 50 32 5 7
1.435455 -0.252131 -1.001159 81 42 18 5 7
1.385806 -0.233860 -0.979375 56 25 8 5 7
0.859937 0.029379 -0.725218 109 75 58 7 2
0.892304 0.080495 -0.753969 43 21 10 7 2
0.939742 0.064147 -0.728197 138 98 79 7 2
0.907955 0.077172 -0.739444 46 24 11 7 2
0.909223 0.095500 -0.689261 202 138 114 7 2
0.964442 0.056522 -0.692824 200 134 112 7 2
1.376996 0.461377 -0.741571 165 81 38 7 2
0.763401 -0.054036 -0.672616 197 144 122 7 2
0.866011 0.000048 -0.683273 191 142 120 7 2
0.778869 -0.031354 -0.705473 165 118 102 7 2
0.793270 -0.042954 -0.684034 177 132 111 7 2
1.401048 0.379431 -0.792507 43 20 7 7 2
1.451841 0.343646 -0.753871 46 20 6 7 2
1.394695 0.349871 -0.776931 44 20 7 7 2
1.406861 0.316588 -0.742281 135 83 47 7 2
1.059985 -0.053654 -0.983849 115 59 14 5 7
1.165469 -0.062640 -1.002258 103 55 14 5 7
1.073674 -0.018772 -0.984702 86 38 10 5 7
0.988559 0.422081 -0.709592 203 138 109 7 2
0.704717 -0.079143 -0.691932 178 129 111 7 2
1.035752 -0.149924 -1.013543 33 31 30 5 7
1.034974 -0.136994 -1.023489 39 24 19 5 7
1.034081 -0.124212 -1.004207 21 21 23 5 7
1.026395 -0.119939 -1.013211 41 23 13 5 7
1.032119 -0.089825 -1.023481 47 24 12 5 7
1.051710 -0.118547 -1.031163 24 24 25 5 7
1.359319 -0.138576 -1.024505 125 63 27 5 7
1.377964 -0.085976 -1.027080 128 66 25 5 7
1.453174 -0.257522 -0.902840 97 48 18 5 7
1.470608 -0.257733 -0.895015 42 19 6 5 7
1.522243 -0.254477 -0.919767 28 13 4 5 7
1.469663 -0.237205 -0.907085 35 16 4 5 7
1.491699 -0.236340 -0.904431 113 58 17 5 7
1.462428 -0.258214 -0.929271 57 27 10 5 7
1.484761 -0.234494 -0.878969 113 56 19 5 7
1.515019 -0.256080 -0.880413 34 11 3 5 7
1.534802 -0.247926 -0.873257 28 14 5 5 7
1.533195 -0.228734 -0.857395 35 16 5 5 7
1.411649 0.155368 -1.027519 85 42 18 5 7
1.432281 0.145031 -1.021323 103 51 17 5 7
1.447725 0.078387 -1.022184 105 47 13 5 7
1.418773 0.130272 -1.017473 106 49 13 5 7
1.162737 -0.271348 -0.896401 40 23 12 5 7
1.189658 -0.263100 -0.954443 74 39 14 5 7
1.159298 -0.263983 -0.972136 24 23 26 5 7
1.143751 -0.279393 -0.919686 21 21 22 5 7
1.213691 -0.283931 -0.900694 69 35 14 5 7
1.196840 -0.266424 -0.878155 59 27 9 5 7
1.214630 -0.311734 -0.997579 39 16 4 5 7
1.193313 -0.322303 -0.984875 39 20 7 5 7
1.086935 -0.226474 -1.023441 27 24 27 5 7
1.117021 -0.239230 -1.005939 33 30 29 5 7
1.077122 -0.189701 -1.003794 23 22 27 5 7
1.060296 -0.194652 -1.020971 24 23 28 5 7
0.822024 0.107429 -0.843392 45 23 12 7 2
1.311255 -0.025325 -1.018198 112 54 16 5 7
1.350236 0.015718 -1.021060 106 48 13 5 7
0.949575 0.475127 -0.708297 202 130 104 7 2
0.896371 0.471612 -0.704269 198 131 102 7 2
1.635210 0.454290 -0.775172 71 36 15 7 2
1.645585 0.455072 -0.761304 142 84 52 7 2
1.689532 0.487285 -0.763494 151 89 54 7 2
1.675321 0.473344 -0.775459 59 28 12 7 2
0.785488 0.083817 -0.838026 40 18 4 7 2
1.027527 0.100070 -0.701230 168 113 88 7 2
1.072205 0.118725 -0.712784 162 98 74 7 2
0.831450 0.462627 -0.698077 202 131 98 7 2
1.298523 -0.071720 -1.017292 108 55 15 5 7
1.210027 0.066075 -1.001858 109 55 16 5 7
1.193559 -0.006982 -1.003152 96 49 15 5 7
0.905278 0.603955 -0.708980 197 126 94 7 2
1.467345 -0.096025 -1.027997 136 75 31 5 7
1.467552 -0.131172 -1.031239 148 89 53 5 7
1.481899 -0.099504 -1.033028 155 96 55 5 7
1.303013 -0.272118 -0.802590 36 18 7 5 7
1.357652 -0.298432 -0.857732 71 34 8 5 7
1.371764 -0.262924 -0.840865 47 21 7 5 7
1.319147 -0.280102 -0.865758 90 44 12 5 7
1.365384 -0.250404 -0.805331 32 17 8 5 7
1.320083 -0.252399 -0.861714 76 37 8 5 7
1.374311 -0.275455 -0.810508 49 25 6 5 7
1.325183 -0.292577 -0.820876 50 25 6 5 7
1.368123 -0.307024 -0.803042 83 35 9 5 7
1.362221 -0.287918 -0.875078 58 27 9 5 7
1.318648 -0.255645 -0.822031 75 33 13 5 7
1.357526 -0.251832 -0.850572 57 24 4 5 7
1.201394 -0.167789 -1.006564 127 72 23 5 7
1.194864 -0.103989 -1.005571 122 67 25 5 7
1.614775 0.458320 -0.756249 157 82 46 7 2
1.541667 0.397593 -0.764196 59 29 11 7 2
1.581980 0.416753 -0.765934 83 45 22 7 2
1.068182 0.170231 -0.764983 42 23 15 7 2
0.994407 0.098080 -0.735274 52 27 21 7 2
1.012238 0.088587 -0.716276 86 52 33 7 2
1.046414 0.146280 -0.752078 58 34 21 7 2
0.974596 0.113447 -0.748097 51 27 9 7 2
1.157708 0.234324 -0.784872 34 9 1 7 2
1.199583 0.268517 -0.826442 35 14 2 7 2
1.187815 0.280076 -0.863075 19 9 3 7 2
1.384641 0.313930 -0.753534 27 9 1 7 2
1.197758 0.214030 -0.715500 140 77 38 7 2
1.220862 0.234964 -0.717736 139 77 35 7 2
1.286123 0.257447 -0.743805 56 23 8 7 2
1.248966 0.227141 -0.725421 141 92 58 7 2
1.403711 -0.269151 -0.944407 95 49 18 5 7
1.398550 -0.269667 -0.907329 106 54 16 5 7
1.438050 -0.242491 -0.926727 112 56 22 5 7
1.392827 -0.263016 -0.949144 135 77 33 5 7
1.408358 -0.261779 -0.915794 66 33 13 5 7
1.380740 -0.246525 -0.962209 118 65 25 5 7
1.382403 -0.235415 -0.954506 109 57 20 5 7
1.278682 -0.284963 -0.743196 23 10 3 5 7
1.251644 -0.305723 -0.727073 31 17 5 5 7
1.247153 -0.295177 -0.768126 31 17 5 5 7
1.276373 -0.272491 -0.785031 33 16 4 5 7
0.717906 0.015787 -0.813479 43 23 13 7 2
0.793384 0.054709 -0.819529 51 33 23 7 2
1.375592 0.703905 -1.470294 70 68 68 2 5
1.334285 0.679127 -1.466745 60 59 60 2 5
1.027636 1.269310 -1.469027 23 23 29 0 0
0.950654 1.266545 -1.460595 27 24 25 0 0
0.985908 1.241757 -1.462458 33 25 22 0 0
1.018965 1.208925 -1.443371 23 14 10 2 5
1.056104 1.253122 -1.460710 24 14 10 2 5
0.964539 1.315396 -1.471761 25 24 28 0 0
1.356298 1.326062 -1.286464 35 32 32 14 3
1.313176 1.318070 -1.310459 30 30 37 14 3
1.300115 1.307919 -1.365587 28 12 6 14 3
1.308329 1.333540 -1.314816 31 14 7 0 0
1.315796 1.353174 -1.325178 42 19 3 0 0
1.397281 1.252494 -1.451334 60 32 21 7 2
1.399765 1.235284 -1.420071 79 72 62 7 2
1.401037 1.213957 -1.378343 107 97 87 7 2
1.401493 1.250427 -1.384037 105 91 79 7 2
1.415599 1.221461 -1.353152 88 69 57 7 2
1.395783 1.336151 -1.109480 26 16 14 14 3
1.378108 1.321069 -1.086316 18 18 23 14 3
1.411786 1.351732 -1.099015 36 13 4 14 3
1.276669 0.860795 -1.465044 61 62 64 2 5
1.364965 1.027092 -1.474339 64 64 66 2 5
0.942748 1.099534 -1.349838 19 8 3 14 4
0.907647 1.121558 -1.352499 42 32 29 14 3
0.827071 1.025764 -1.342551 18 9 3 14 4
0.829173 1.044446 -1.337939 17 8 4 14 3
0.866121 1.048131 -1.354576 17 8 1 14 4
1.324909 1.073154 -1.472905 61 65 65 2 5
1.313701 1.102475 -1.464364 34 30 26 2 5
1.334030 1.105745 -1.473861 65 65 65 2 5
1.369637 1.179909 -1.149390 17 18 20 7 2
1.332941 1.190899 -1.177294 21 13 10 7 2
1.319653 1.210435 -1.223186 28 20 22 7 2
1.319748 1.217855 -1.142218 30 21 20 7 2
1.334138 1.192642 -1.122841 19 20 26 7 2
1.358292 1.179914 -1.196171 17 6 4 7 2
0.923214 1.110702 -1.345436 38 32 29 14 3
0.882747 1.066742 -1.344589 18 8 2 14 3
0.855959 1.079134 -1.340646 37 28 24 14 3
0.947739 1.099263 -1.421427 24 22 21 14 4
0.924234 1.081295 -1.355608 18 6 1 14 4
1.002306 1.150851 -1.354575 26 13 5 14 3
1.370492 1.254735 -1.482018 58 48 39 7 2
1.405117 1.240717 -1.461050 82 74 68 7 2
1.379347 1.262970 -1.500187 74 71 64 2 5
1.441169 1.217923 -1.488829 84 80 75 2 5
1.403673 1.215861 -1.459429 81 76 72 7 2
1.427715 1.214697 -1.484269 83 78 74 2 5
1.330904 1.229529 -1.254349 82 41 24 7 2
1.341489 1.253675 -1.254116 88 44 27 7 2
1.366184 1.262946 -1.215572 64 36 26 7 2
0.797932 1.006357 -1.369501 19 12 8 14 4
0.724182 0.962384 -1.346323 18 8 3 14 4
0.750280 0.986717 -1.423485 19 19 18 2 5
0.715910 0.985191 -1.408630 19 19 18 14 4
0.807092 1.022259 -1.425040 20 19 20 2 5
0.692792 0.952642 -1.365973 21 21 24 14 4
0.750797 1.002454 -1.410151 21 21 24 14 4
0.876684 0.751143 -1.436128 29 29 35 2 5
0.931684 0.846768 -1.441736 26 29 34 2 5
0.924800 1.165858 -1.433676 20 9 6 0 0
0.942622 1.220407 -1.457451 22 14 9 0 0
1.111718 1.302930 -1.480116 40 35 36 2 5
1.054384 1.288341 -1.476290 40 39 40 0 0
1.090212 1.356847 -1.491279 43 40 37 0 0
1.635001 0.786953 -1.511883 53 52 47 2 5
1.396344 1.377765 -1.372890 68 31 10 14 3
1.389290 1.206636 -1.406240 106 99 88 7 2
1.409414 1.211788 -1.340062 96 87 76 7 2
1.398442 1.351600 -1.313434 37 14 4 14 3
1.403185 1.361749 -1.332193 69 34 13 14 3
1.033439 1.418479 -1.470700 41 39 39 2 5
1.005123 1.367689 -1.481956 33 32 35 2 5
1.175323 1.289261 -1.422601 33 14 5 14 3
0.906378 1.135306 -1.362831 35 26 22 14 3
0.857767 1.121270 -1.410194 17 7 1 0 0
0.917003 1.142762 -1.396815 17 7 2 14 3
0.850469 1.110954 -1.388361 18 9 2 14 3
0.839696 1.110792 -1.373325 17 8 2 14 3
0.808273 1.091549 -1.363608 19 10 4 14 3
1.256249 1.341192 -1.479503 71 66 62 14 3
1.195455 1.340214 -1.487619 61 58 52 2 5
1.262163 1.323950 -1.447018 22 11 4 14 3
0.713712 1.053465 -1.354272 29 21 20 14 3
1.589999 0.645779 -1.500643 61 49 42 2 5
1.215966 1.159726 -1.468915 28 27 27 2 5
0.995334 1.166771 -1.360852 44 39 35 14 3
1.055392 1.214331 -1.386137 25 14 9 14 3
1.008094 1.187717 -1.375396 22 9 4 14 3
1.020261 1.140588 -1.359658 23 12 7 14 4
1.059868 1.168550 -1.362401 22 12 6 14 4
0.991225 1.190132 -1.437294 21 11 7 0 0
0.730065 1.107821 -1.433547 22 18 16 0 0
0.763830 1.131300 -1.441141 21 14 12 0 0
0.909840 1.072916 -1.433411 16 18 19 2 5
0.923498 1.055758 -1.442273 20 18 19 2 5
1.330607 1.383166 -1.163121 74 38 17 14 3
1.317773 1.148346 -1.437577 37 20 10 2 5
1.296760 1.188903 -1.439469 13 5 3 7 2
1.354092 1.146523 -1.470870 47 35 31 2 5
1.275959 1.127656 -1.457591 15 5 4 2 5
1.349350 1.164017 -1.449154 38 18 12 7 2
1.391813 1.400755 -1.139327 80 39 13 14 3
1.413797 1.386487 -1.090489 84 40 16 14 3
0.908309 1.003921 -1.442875 21 24 27 2 5
0.982591 1.069284 -1.448161 22 19 21 2 5
1.562858 1.063432 -1.492247 81 73 71 2 5
1.393929 1.188605 -1.114140 21 13 10 7 2
0.878546 1.190107 -1.451982 19 21 26 0 0
1.014184 0.968643 -1.448264 24 24 23 2 5
1.010917 1.027119 -1.446532 22 21 22 2 5
0.727145 1.252225 -1.434002 25 21 24 2 5
0.705910 1.147344 -1.436406 17 20 24 0 0
0.784995 1.177167 -1.445099 20 19 27 0 0
0.847907 1.181227 -1.451802 21 18 24 0 0
1.024712 0.905461 -1.450660 25 25 25 2 5
0.694953 1.063319 -1.411937 19 11 7 0 0
0.759043 1.071756 -1.398286 19 8 3 0 0
0.752562 1.068186 -1.363477 17 7 1 14 3
0.791263 1.078375 -1.385110 16 7 1 14 3
0.772337 1.096362 -1.418893 19 13 10 0 0
0.810968 1.094986 -1.407789 20 11 9 0 0
1.374809 1.396554 -1.203444 63 33 16 14 3
1.369639 1.392730 -1.318374 66 37 17 14 3
1.364924 1.395033 -1.254680 62 33 15 14 3
1.326809 1.382483 -1.213088 79 38 13 14 3
1.438375 1.005266 -1.479759 75 76 75 2 5
0.950745 0.718699 -1.439638 28 30 37 2 5
0.883109 0.667706 -1.435946 26 29 33 2 5
1.310302 1.374939 -1.427027 71 34 13 14 3
1.305293 1.353633 -1.365260 59 30 11 0 0
1.329975 1.308275 -1.372545 25 12 3 14 3
1.319424 1.375004 -1.321756 71 34 11 14 3
1.326403 1.313343 -1.341501 23 13 7 14 3
1.355305 1.328664 -1.444931 27 18 12 14 3
1.284174 1.278039 -1.407271 20 8 5 14 3
1.105378 1.030006 -1.458405 31 28 27 2 5
1.314032 0.816703 -1.467314 61 59 63 2 5
1.372827 0.783045 -1.470584 62 55 53 2 5
1.337690 0.749424 -1.465492 69 62 66 2 5
1.425746 1.054617 -1.477787 81 78 77 2 5
1.484056 1.104613 -1.486477 76 76 74 2 5
1.419665 1.104882 -1.481853 77 78 74 2 5
1.382309 1.130203 -1.480425 78 74 71 2 5
1.089729 1.230012 -1.426198 25 11 5 14 3
1.070711 1.212452 -1.371897 52 44 37 14 3
1.114751 1.250789 -1.404922 45 30 21 14 3
1.395008 1.195893 -1.210492 16 12 11 7 2
1.414582 1.211812 -1.247863 31 17 10 7 2
0.814184 0.738019 -1.432171 27 31 36 2 5
1.401101 0.860026 -1.473706 68 69 66 2 5
1.463973 0.917664 -1.480689 66 63 63 2 5
1.459068 0.665003 -1.488394 71 68 68 2 5
1.507823 0.624818 -1.498991 74 73 71 2 5
1.244262 0.665489 -1.454144 39 40 47 2 5
1.303071 0.685552 -1.461163 54 51 55 2 5
1.219435 0.720850 -1.454198 51 49 48 2 5
1.141095 0.869882 -1.459751 29 31 35 2 5
1.177706 0.862151 -1.460234 47 48 51 2 5
0.706697 1.392779 -1.440081 20 19 20 2 5
0.767934 1.354893 -1.443171 22 21 23 2 5
0.709432 1.309347 -1.437199 19 20 24 2 5
1.310658 1.317828 -1.247082 19 22 29 0 0
1.309921 1.329463 -1.187744 26 18 18 0 0
1.322649 1.345536 -1.131396 32 15 7 0 0
1.327606 1.308745 -1.144320 21 21 28 14 3
1.313956 1.314905 -1.129045 22 19 19 0 0
1.357836 1.317526 -1.154744 18 21 25 14 3
1.315722 1.332360 -1.131135 26 19 19 0 0
0.890689 1.142705 -1.423248 17 8 4 0 0
0.824256 1.124472 -1.429217 19 9 8 0 0
1.221915 0.817554 -1.463227 48 47 47 2 5
1.294257 0.772055 -1.463223 54 53 56 2 5
1.414606 0.683990 -1.477296 74 72 72 2 5
1.436739 0.738174 -1.479918 75 74 72 2 5
1.157796 0.937401 -1.459171 46 47 51 2 5
0.977766 1.095376 -1.443241 20 20 19 2 5
1.029008 1.101749 -1.451808 22 23 25 2 5
1.036637 1.140735 -1.439198 35 31 27 14 4
1.148466 1.206967 -1.385321 22 11 2 14 4
0.784298 0.723279 -1.427664 23 26 29 2 5
1.323355 1.371930 -1.254562 66 30 11 0 0
1.321503 1.354655 -1.239910 43 16 6 0 0
1.310815 1.333694 -1.238510 35 13 7 0 0
1.324632 1.314790 -1.249452 21 21 29 14 3
1.354047 1.320394 -1.232609 23 20 21 14 3
1.151875 1.038314 -1.462543 44 44 44 2 5
1.165230 0.994380 -1.459370 45 51 49 2 5
1.389649 1.337587 -1.181905 28 15 12 14 3
1.390704 1.342130 -1.230258 28 15 12 14 3
1.404775 1.351768 -1.194152 34 15 2 14 3
1.414400 1.371768 -1.174068 74 36 12 14 3
1.413136 1.361774 -1.163648 74 37 15 14 3
1.017573 1.193557 -1.429518 25 17 12 0 0
1.100947 0.862318 -1.454268 30 31 35 2 5
1.092934 0.926768 -1.455135 30 31 39 2 5
1.132046 0.809883 -1.455719 28 32 40 2 5
1.055864 0.847340 -1.452121 28 32 39 2 5
0.852166 1.293522 -1.459581 22 21 29 0 0
1.507733 0.928288 -1.485170 73 70 68 2 5
1.546303 0.880283 -1.489715 78 77 74 2 5
1.650805 0.824998 -1.515287 77 74 74 2 5
0.939098 1.156214 -1.374784 24 12 8 14 3
0.934670 1.156852 -1.419950 19 8 4 0 0
1.005865 1.184692 -1.413692 19 7 2 14 3
1.321230 1.200428 -1.249444 25 10 5 7 2
1.352662 1.180628 -1.289307 15 8 8 7 2
1.336670 1.186721 -1.248189 16 12 11 7 2
1.213758 0.930683 -1.459753 57 55 60 2 5
1.236727 0.881991 -1.464090 57 61 59 2 5
1.291103 0.943410 -1.466632 57 59 58 2 5
0.803261 1.049777 -1.335587 30 22 18 14 3
0.802284 1.077795 -1.353384 20 10 4 14 3
0.991747 0.848171 -1.447049 29 30 36 2 5
0.911921 1.300575 -1.465837 21 21 27 0 0
0.895558 1.318895 -1.462947 22 22 24 2 5
0.955877 1.351858 -1.471382 36 35 32 2 5
0.980171 1.393210 -1.461295 35 33 32 2 5
0.882815 1.338090 -1.449708 38 36 32 2 5
0.806310 0.983020 -1.432080 17 17 17 2 5
0.865889 1.033612 -1.436951 18 16 18 2 5
1.357775 1.260381 -1.183717 98 52 32 7 2
1.329729 1.230989 -1.232497 35 23 20 7 2
1.340631 1.252017 -1.168355 88 46 26 7 2
1.322164 1.223003 -1.160985 39 22 23 7 2
1.344613 1.255719 -1.137189 81 42 30 7 2
1.329289 1.231895 -1.143268 39 25 21 7 2
1.332946 1.236242 -1.119789 99 52 29 7 2
1.379964 1.190799 -1.289603 16 17 18 7 2
1.320525 1.196197 -1.301871 24 13 12 7 2
1.316492 1.187719 -1.355971 22 9 2 7 2
1.305530 1.207013 -1.380362 13 5 1 7 2
1.685070 0.659103 -1.508862 57 55 48 2 5
1.685270 0.731227 -1.513340 57 57 48 2 5
1.628255 0.716849 -1.508940 57 55 51 2 5
1.414100 1.259801 -1.229828 84 42 26 7 2
1.424560 1.221696 -1.194939 60 29 18 7 2
1.403113 1.261658 -1.267388 63 33 20 7 2
1.417362 1.251118 -1.264380 83 40 26 7 2
1.425020 1.231768 -1.238443 74 37 21 7 2
0.919863 1.442915 -1.457160 41 41 40 2 5
0.933509 1.366490 -1.454185 39 41 40 2 5
0.843501 1.373527 -1.450403 39 40 39 2 5
1.222128 0.621374 -1.452528 39 40 45 2 5
1.157666 0.664101 -1.447855 35 35 40 2 5
1.142107 0.711302 -1.451550 38 36 41 2 5
0.823190 0.906487 -1.435987 23 25 27 2 5
1.154944 1.362654 -1.498613 47 41 39 0 0
1.219353 1.310908 -1.459033 43 36 29 14 3
1.293469 1.334559 -1.365458 44 32 26 0 0
1.287342 1.342463 -1.410807 74 68 61 14 3
1.251060 1.321692 -1.412534 68 59 51 14 3
1.263612 1.321277 -1.390697 70 55 48 14 3
1.367872 0.993616 -1.475988 67 64 65 2 5
1.357337 0.914650 -1.473386 66 66 65 2 5
1.320744 0.904746 -1.472147 61 61 62 2 5
1.359666 1.308125 -1.063594 19 20 25 14 3
1.547934 1.119268 -1.493047 86 79 73 2 5
0.725455 1.025696 -1.334579 19 9 6 14 3
1.400464 1.404650 -1.086486 85 42 17 14 3
1.344032 1.252278 -1.335062 82 41 24 7 2
1.407417 1.254088 -1.329988 77 37 23 7 2
1.382815 1.256415 -1.351238 77 37 23 7 2
1.417430 1.232744 -1.334265 76 37 18 7 2
1.381287 1.261253 -1.284662 52 27 14 7 2
0.952507 1.092200 -1.391374 26 17 15 14 4
0.991615 1.122369 -1.431748 41 38 35 14 4
0.973494 1.106414 -1.365373 22 9 4 14 4
1.406308 1.381768 -1.245944 77 38 14 14 3
1.405104 1.394197 -1.160084 75 38 11 14 3
1.385800 1.394202 -1.285084 66 35 17 14 3
1.392806 1.398997 -1.176481 67 35 16 14 3
1.395208 1.391768 -1.293444 75 36 12 14 3
1.406602 0.953992 -1.475011 69 71 68 2 5
1.419941 0.912457 -1.478873 67 69 69 2 5
1.124844 1.088287 -1.458706 37 40 37 2 5
1.413156 1.273268 -1.058084 68 40 31 7 2
1.420884 1.208092 -1.100731 51 25 13 7 2
1.628034 0.983614 -1.502635 79 72 68 2 5
1.508918 0.734738 -1.495466 73 73 71 2 5
1.507934 0.809268 -1.489316 76 72 73 2 5
1.475909 0.735045 -1.487606 71 70 72 2 5
1.041701 1.180944 -1.359908 51 45 39 14 3
1.056078 1.146759 -1.406777 24 12 7 14 4
1.132364 1.183594 -1.414903 24 12 7 14 3
1.088657 1.194933 -1.364133 28 12 4 14 3
1.106183 1.190377 -1.370116 29 15 6 14 4
1.052932 1.154377 -1.371719 25 10 5 14 4
1.397645 1.357175 -1.380154 39 17 5 14 3
1.382906 1.339437 -1.335094 28 12 4 14 3
1.478432 1.158471 -1.488029 82 76 73 2 5
1.578485 0.754039 -1.504117 73 71 70 2 5
1.539622 0.662491 -1.497434 56 52 49 2 5
1.331515 1.242089 -1.364475 14 5 3 7 2
1.356760 1.250932 -1.448433 65 34 23 7 2
1.302932 1.290713 -1.385563 29 14 7 14 3
1.300966 1.209759 -1.438239 19 8 1 7 2
1.330736 1.243230 -1.414027 13 6 1 7 2
1.326532 1.364575 -1.147308 98 51 24 0 0
1.341871 1.307765 -1.103884 20 21 26 14 3
1.324974 1.303139 -1.077678 20 21 26 14 3
1.314178 1.315303 -1.054461 27 24 29 0 0
1.305115 1.194586 -1.403257 15 6 1 7 2
1.337347 1.172950 -1.401703 17 7 4 7 2
1.352212 1.176923 -1.343076 34 15 8 7 2
1.317403 1.169569 -1.426007 15 6 2 2 5
1.351950 1.174832 -1.406620 38 20 13 7 2
0.811645 1.028671 -1.410707 22 21 21 14 4
0.871454 1.062047 -1.420331 22 23 23 14 4
0.860426 1.045541 -1.379740 17 7 1 14 4
1.319257 1.211261 -1.307673 41 19 10 7 2
1.332967 1.237440 -1.308440 54 30 18 7 2
1.352938 1.251045 -1.377339 76 39 23 7 2
1.355693 1.393185 -1.149068 85 41 17 14 3
1.330595 1.383189 -1.084821 84 40 15 14 3
1.382892 1.401474 -1.053025 98 50 20 0 0
1.589501 1.009810 -1.499837 73 67 65 2 5
1.041931 1.344320 -1.483278 36 30 32 0 0
0.806191 1.292370 -1.441031 25 24 26 2 5
0.820645 1.320127 -1.444641 26 25 27 2 5
0.821971 1.288475 -1.458853 25 24 25 0 0
1.396300 1.265885 -1.211769 77 43 31 7 2
1.418272 1.263251 -1.133383 94 50 30 7 2
1.388730 1.269235 -1.126914 85 45 31 7 2
1.407225 1.268034 -1.124093 88 47 30 7 2
1.415869 1.207363 -1.135215 32 14 6 7 2
1.429400 1.242856 -1.123642 79 39 27 7 2
1.431766 1.231768 -1.117193 52 27 14 7 2
0.954590 0.933583 -1.445443 24 25 27 2 5
0.867934 0.961768 -1.440307 23 23 23 2 5
0.989706 0.895652 -1.444649 25 26 29 2 5
1.096037 0.672650 -1.450132 37 32 36 2 5
1.111228 0.725999 -1.453009 30 31 32 2 5
1.332002 1.383407 -1.266521 69 36 14 14 3
1.330100 1.382415 -1.336678 72 36 11 14 3
1.342771 1.253264 -1.027382 97 51 29 7 2
1.319503 1.218170 -1.034122 25 23 26 7 2
1.325786 1.230388 -1.026224 31 23 23 7 2
1.360756 1.264988 -1.100796 104 55 33 7 2
0.856881 1.443720 -1.455275 31 33 33 2 5
1.222671 1.237466 -1.420652 21 9 5 14 3
1.269681 1.302597 -1.381014 41 24 12 14 3
1.262392 1.263096 -1.428419 25 12 4 14 3
1.263457 1.272205 -1.395534 26 11 4 14 3
1.316573 1.219566 -1.437520 18 7 2 7 2
1.318654 1.241370 -1.451645 24 10 4 7 2
1.297351 1.302005 -1.482396 15 9 3 14 3
1.326292 1.256896 -1.487357 53 32 27 7 2
1.323946 1.284469 -1.505213 33 27 29 2 5
1.308004 1.223820 -1.460757 39 33 30 2 5
1.302519 1.278769 -1.480937 17 8 2 2 5
1.290412 1.263119 -1.450220 23 14 7 2 5
1.379636 1.194015 -1.440243 81 75 68 7 2
1.442592 1.152906 -1.484558 79 79 74 2 5
1.399187 1.197739 -1.474944 80 75 71 2 5
1.402062 1.179198 -1.485415 80 75 72 2 5
0.999419 0.787861 -1.445521 29 29 34 2 5
0.979194 0.710170 -1.443761 29 30 34 2 5
1.217898 1.226936 -1.469629 37 34 30 2 5
1.268743 1.173776 -1.468575 36 31 25 2 5
1.194567 1.296189 -1.443117 26 9 5 14 3
1.149023 1.209408 -1.451619 54 54 52 14 3
1.172252 1.205582 -1.417011 56 57 54 14 3
1.197965 1.234951 -1.452046 63 61 59 14 3
1.154843 1.289610 -1.463719 24 11 4 14 3
1.168126 1.211532 -1.464517 45 46 41 2 5
0.865395 1.231599 -1.453122 32 26 28 0 0
1.235337 1.066710 -1.464833 50 54 54 2 5
1.263742 1.039190 -1.465644 49 53 56 2 5
1.248499 0.968871 -1.463502 55 58 56 2 5
1.291539 0.985425 -1.468472 60 61 63 2 5
0.874184 0.809268 -1.436604 24 26 27 2 5
0.906719 0.872999 -1.439331 24 26 29 2 5
0.805434 0.848643 -1.433360 22 24 25 2 5
0.897317 0.924748 -1.442064 22 23 27 2 5
0.939142 0.783189 -1.440426 27 28 34 2 5
1.061607 0.918047 -1.450659 27 30 29 2 5
1.046684 0.979269 -1.452080 31 33 30 2 5
1.065338 1.038023 -1.454172 29 25 27 2 5
0.753662 1.255985 -1.445716 24 21 23 2 5
0.738005 1.269963 -1.435089 23 21 23 2 5
0.789172 1.266631 -1.453084 27 23 24 0 0
1.075284 1.163625 -1.446753 39 41 37 14 4
1.076132 1.120481 -1.456059 29 30 25 2 5
1.098636 1.171021 -1.453714 33 34 32 2 5
1.285853 1.225362 -1.454636 19 10 3 2 5
1.239961 1.260872 -1.463575 61 54 47 14 3
1.286330 1.274728 -1.442448 14 6 1 14 3
1.252335 1.259052 -1.470589 12 7 2 2 5
1.277495 1.102078 -1.462363 14 10 8 2 5
1.374321 1.339771 -1.424716 38 20 8 14 3
1.151597 1.144122 -1.462216 31 35 35 2 5
1.219041 1.104732 -1.466565 39 35 33 2 5
1.150400 0.781737 -1.453731 33 36 41 2 5
1.189135 0.759524 -1.456064 37 38 44 2 5
1.207586 1.296108 -1.395633 60 43 32 14 3
1.148806 1.270195 -1.397577 69 58 50 14 3
1.143471 1.254358 -1.380442 67 57 50 14 3
1.206830 1.277427 -1.378760 68 58 49 14 3
1.152821 1.231494 -1.372293 21 8 3 14 3
1.191553 1.256240 -1.372923 44 27 17 14 3
1.229142 1.259424 -1.380346 19 9 5 14 3
0.743598 0.998655 -1.324368 16 7 1 14 3
0.789260 0.997890 -1.334948 17 8 2 14 4
1.388562 1.198040 -1.349844 31 23 16 7 2
0.740909 1.418637 -1.445240 19 19 22 2 5
0.818190 1.417390 -1.451460 22 23 26 2 5
1.311675 1.308863 -1.435157 24 12 5 14 3
1.295639 1.342592 -1.465316 50 32 19 14 3
1.305488 1.361921 -1.443259 59 28 11 0 0
1.319110 1.315390 -1.465801 32 28 21 14 3
1.366790 1.179937 -1.121050 19 21 29 7 2
1.326191 1.197924 -1.053057 29 23 25 7 2
1.326532 1.195579 -1.083133 23 22 28 7 2
1.322137 1.201770 -1.122076 22 20 23 7 2
1.066536 1.223253 -1.438513 22 14 10 14 3
1.138258 1.256876 -1.438982 25 12 6 14 3
1.116829 1.254622 -1.449564 24 13 7 14 3
0.790196 0.790604 -1.432018 25 26 28 2 5
1.568974 0.960674 -1.494397 78 71 67 2 5
1.549002 0.996454 -1.490296 78 72 72 2 5
1.578038 0.929354 -1.494964 80 77 74 2 5
1.660400 0.945111 -1.512351 84 76 74 2 5
1.561684 0.815518 -1.496902 77 74 76 2 5
1.502568 0.880854 -1.483224 69 65 65 2 5
1.420470 0.817505 -1.473565 72 67 68 2 5
1.396305 0.760314 -1.473827 68 68 65 2 5
1.055434 0.815518 -1.451550 30 30 34 2 5
1.330094 0.855784 -1.468001 60 61 60 2 5
1.459400 1.061032 -1.481199 82 78 75 2 5
1.041372 0.708018 -1.447427 28 31 37 2 5
1.016018 0.660687 -1.445979 28 33 37 2 5
1.523815 1.058672 -1.485602 77 77 73 2 5
1.473493 0.988224 -1.481416 77 73 69 2 5
0.807934 0.696768 -1.432136 26 31 35 2 5
0.747483 0.718016 -1.426476 25 28 28 2 5
0.779809 0.663643 -1.428169 26 28 34 2 5
1.612393 0.877020 -1.501858 80 76 72 2 5
0.926921 1.513916 -0.731649 169 119 76 14 3
1.426251 1.370398 -0.861208 25 14 8 14 3
1.424495 1.332650 -0.809534 115 73 58 14 3
1.438927 1.377876 -0.802184 127 83 72 14 3
1.396070 1.310781 -0.827551 20 19 17 14 3
1.459353 1.320590 -0.793954 115 69 51 7 2
1.418174 1.306592 -0.814795 54 33 22 7 2
1.421636 1.345940 -0.823997 49 38 31 14 3
1.428859 1.379793 -0.816310 48 20 3 14 3
1.375137 1.297633 -0.844427 21 17 16 14 3
0.818465 1.131066 -0.178138 100 53 27 14 3
0.854900 1.145894 -0.191815 104 53 25 14 3
0.859872 1.147327 -0.225217 115 66 35 14 3
0.857036 1.139678 -0.163885 126 73 42 14 3
0.886029 1.150907 -0.168877 116 63 31 14 3
0.718612 1.340666 -0.229272 229 163 113 14 3
0.768725 0.979279 -0.529971 125 76 45 0 0
0.867267 1.035058 -0.506256 111 66 46 0 0
0.877910 1.040730 -0.462182 59 47 45 0 0
0.750341 1.146200 -0.235504 89 49 22 14 3
0.733578 1.134527 -0.230464 230 167 120 14 3
0.783800 1.160132 -0.229755 225 162 115 14 3
1.032150 1.198195 -0.178050 147 109 91 14 3
0.983609 1.208215 -0.217174 101 59 34 14 3
0.994339 1.106321 -0.188827 254 255 255 0 0
0.974598 1.178560 -0.178931 110 64 39 14 3
0.994045 1.201091 -0.212178 107 64 39 14 3
1.189555 1.202685 -0.570325 137 102 85 0 0
1.552800 1.121623 -0.805924 170 110 86 7 2
1.579321 0.996004 -0.835490 87 51 31 7 2
1.571181 1.123069 -0.793900 162 102 80 7 2
1.463133 1.182695 -0.770970 166 108 90 7 2
1.466116 1.134142 -0.767417 168 113 93 7 2
1.389913 1.213346 -0.762670 160 104 80 7 2
1.260029 1.253250 -0.276924 167 152 136 0 0
1.239128 1.232007 -0.270612 133 116 101 0 0
1.240954 1.279006 -0.252854 194 178 166 0 0
1.254026 1.227690 -0.294332 255 253 251 0 0
1.332741 0.990898 -0.752677 178 115 97 7 2
1.282944 0.986311 -0.746208 173 112 90 7 2
1.382650 1.402331 -0.867615 103 57 31 0 0
1.382740 1.403533 -0.934938 120 61 27 0 0
1.418471 1.391768 -0.915944 127 66 28 14 3
1.402884 1.408000 -0.904185 72 39 21 0 0
1.410165 1.401721 -0.959661 113 58 26 14 3
1.402961 1.411791 -0.605471 138 88 60 14 3
1.395652 1.406851 -0.552348 120 71 44 14 3
1.439279 1.405509 -0.602356 130 82 53 14 3
1.419667 1.418253 -0.551661 115 69 43 14 3
0.775698 0.987295 -0.657279 83 62 49 0 0
0.772819 0.976675 -0.705315 65 39 26 7 2
0.968908 1.178270 -0.400198 92 53 33 14 3
1.022806 1.198238 -0.422284 84 45 26 14 3
1.450297 1.324712 -0.517586 62 36 25 0 0
1.490765 1.381416 -0.484648 150 133 123 0 0
1.489146 1.084435 -0.911099 110 64 40 7 2
1.516162 1.090415 -0.893463 106 62 37 7 2
1.250590 0.630663 -0.736775 189 126 103 7 2
1.202621 0.644893 -0.732406 190 128 107 7 2
1.399499 1.416390 -0.399992 96 70 57 14 3
1.440102 1.441077 -0.361881 107 89 76 14 3
1.389876 1.371801 -0.332378 188 171 159 0 0
1.441611 1.376658 -0.341990 122 107 93 0 0
1.436128 1.414116 -0.345500 185 169 156 0 0
1.235746 1.227955 -0.464694 181 158 153 0 0
1.310665 1.264747 -0.493963 158 134 130 0 0
1.192934 1.206720 -0.383443 242 232 228 0 0
1.261510 1.241636 -0.410833 152 142 140 0 0
1.518051 1.192554 -0.783126 151 107 90 7 2
1.276757 1.652834 -0.783575 205 158 116 0 0
1.308242 1.596335 -0.782993 204 156 111 0 0
1.307937 1.581192 -0.793353 204 156 111 0 0
1.268464 1.649149 -0.793267 207 160 115 0 0
1.274088 1.044178 -0.748686 169 108 87 7 2
0.765990 0.965477 -0.099548 182 168 167 0 0
0.851187 1.164250 -0.323742 159 106 73 0 0
0.881089 1.145373 -0.326477 111 62 29 0 0
0.971684 0.993643 -0.723150 159 112 108 7 2
0.942019 1.015373 -0.718575 145 98 93 7 2
1.443460 0.905859 -0.759275 194 130 110 7 2
1.367577 1.276018 -0.911711 78 45 30 7 2
1.440290 1.241050 -0.929835 34 14 5 7 2
1.434294 1.253018 -0.977507 99 54 35 7 2
1.416086 1.279113 -0.910929 97 52 34 7 2
1.440410 1.223966 -0.903747 100 57 36 7 2
0.924340 0.828877 -0.715819 199 160 182 7 2
0.920224 1.175187 -0.189530 76 40 16 14 3
0.915974 1.175575 -0.220304 114 65 36 14 3
0.920777 1.158825 -0.156432 118 65 34 14 3
0.971906 1.197940 -0.243325 85 47 27 14 3
1.139698 1.266799 -0.358616 110 69 46 14 3
1.115940 1.256908 -0.334154 130 89 66 14 3
1.197194 1.297596 -0.383957 119 78 57 14 3
1.186393 1.293274 -0.325593 105 66 47 14 3
0.896684 0.676455 -0.709427 180 106 75 7 2
1.263873 1.338796 -0.753655 134 83 43 14 3
1.271368 1.326789 -0.743632 99 55 27 14 3
1.240317 1.309171 -0.729805 94 52 29 14 3
1.224941 1.312752 -0.747554 115 68 32 14 3
1.475328 1.389297 -0.638701 87 66 58 0 0
1.477116 1.376908 -0.598689 95 68 63 0 0
1.476317 1.410833 -0.577096 81 51 41 14 3
1.482149 1.391571 -0.587970 112 93 84 0 0
1.052781 1.136618 -0.225235 254 255 255 0 0
1.102473 1.164597 -0.194687 213 198 189 0 0
1.084435 1.152555 -0.183841 192 179 167 0 0
1.147691 1.226295 -0.201874 255 254 253 0 0
1.445522 1.219711 -0.772768 157 108 91 7 2
1.484003 1.244116 -0.782893 132 94 83 7 2
1.514053 1.213042 -0.793775 135 93 80 7 2
1.479889 1.273357 -0.793927 146 101 85 7 2
1.117164 1.023188 -0.736852 183 140 153 7 2
1.432868 1.417641 -0.539487 59 24 10 14 3
1.472321 1.422485 -0.511397 65 30 10 14 3
1.525644 1.113982 -0.823328 111 65 45 7 2
1.498067 1.137682 -0.834758 91 54 37 7 2
0.835056 1.135639 -0.130666 120 88 67 0 0
0.832891 1.141903 -0.144462 116 61 26 14 3
0.868523 1.149550 -0.149881 123 69 33 14 3
0.906146 1.146226 -0.135388 125 84 54 0 0
0.801417 1.279774 -0.313909 220 154 109 0 0
0.770434 1.285518 -0.318794 222 156 113 0 0
0.805085 1.221025 -0.323205 203 145 110 0 0
1.408453 1.310430 -0.446349 209 203 199 0 0
1.460350 1.339159 -0.436826 162 145 138 0 0
1.388262 1.307330 -0.412330 242 241 236 0 0
1.030746 0.838644 -0.725390 165 94 73 7 2
0.985434 0.796768 -0.720957 200 158 166 7 2
1.067215 1.217721 -0.590479 96 54 32 14 3
1.004438 1.186302 -0.552235 101 60 38 14 3
0.879719 1.040937 -0.552333 59 21 9 0 0
0.848447 1.024364 -0.586568 122 71 50 0 0
1.062479 1.139935 -0.419381 227 210 203 0 0
1.297935 0.678730 -0.743245 192 127 106 7 2
1.351597 0.631144 -0.745858 190 120 93 7 2
1.308559 0.631144 -0.741763 189 127 113 7 2
1.477934 0.661768 -0.754731 192 129 110 7 2
1.107603 1.166823 -0.249642 255 254 255 0 0
1.151663 1.189178 -0.284487 255 254 253 0 0
1.202833 1.215787 -0.303401 255 255 255 0 0
1.363799 1.444385 -0.800745 192 137 90 0 0
1.341567 1.375395 -0.847705 147 82 45 0 0
1.394532 1.414584 -0.358670 98 73 61 14 3
1.371281 1.366812 -0.324224 100 82 69 0 0
1.371105 1.394922 -0.337219 117 95 87 0 0
1.331351 1.357618 -0.490079 116 74 51 14 3
1.240720 1.618193 -0.811554 203 153 108 0 0
1.305083 1.549895 -0.801733 204 154 108 0 0
0.955075 1.083647 -0.257272 255 254 254 0 0
1.008460 1.110575 -0.232013 255 254 255 0 0
1.065434 1.140660 -0.268443 254 254 255 0 0
1.003290 1.107651 -0.310475 255 254 255 0 0
1.057988 1.137162 -0.332819 255 254 254 0 0
1.478267 1.448701 -0.359267 112 97 82 0 0
1.480622 1.466977 -0.375880 82 43 20 14 3
1.244338 1.312670 -0.673277 93 55 36 14 3
1.270777 1.322329 -0.625997 103 61 37 14 3
0.747104 0.642236 -0.694683 196 146 146 7 2
1.160434 1.079268 -0.741331 164 121 132 7 2
1.096433 1.131592 -0.736138 149 109 115 7 2
1.094184 1.080518 -0.734698 168 122 125 7 2
0.993243 1.103977 -0.709662 102 77 71 0 0
0.998588 1.102315 -0.675943 82 56 47 0 0
1.106070 1.482784 -0.746832 156 109 69 14 3
0.900030 1.149847 -0.699804 106 60 32 14 3
1.406625 1.093809 -0.761138 161 110 94 7 2
1.394692 1.138762 -0.760338 173 111 92 7 2
1.219188 1.314029 -0.316323 64 36 22 14 3
1.334596 1.372333 -0.940359 133 75 30 0 0
1.332094 1.236582 -0.900349 63 47 38 0 0
1.341742 1.251132 -0.895622 98 55 34 7 2
