ply
format ascii 1.0
element vertex 1074
property float x
property float y
property float z
property uchar red
property uchar green
property uchar blue
property uchar semantic_label
property uchar instance_label
end_header
0.060284 -0.028043 0.001865 255 255 0 45 17
0.121605 -0.029617 0.045865 255 255 0 45 17
0.058477 0.006795 -0.038135 255 255 0 45 17
0.077937 0.029414 0.019865 255 255 0 45 17
0.080755 -0.041051 -0.040135 255 255 0 45 17
0.141007 -0.011249 0.041045 255 255 0 45 17
0.065959 -0.012092 0.017865 255 255 0 45 17
0.137171 -0.038643 0.013865 255 255 0 45 17
0.057473 -0.003505 -0.006135 255 255 0 45 17
0.080845 -0.052234 -0.058135 255 255 0 45 17
0.123480 -0.040995 0.045224 255 255 0 45 17
0.074644 0.030644 -0.018135 255 255 0 45 17
0.060889 -0.028269 -0.072135 255 255 0 45 17
0.086030 -0.044075 0.045293 255 255 0 45 17
0.157030 0.016924 0.043865 255 255 0 45 17
0.110569 -0.059655 0.003865 255 255 0 45 17
0.057171 -0.016203 0.001865 255 255 0 45 17
0.158371 -0.010496 -0.044135 255 255 0 45 17
0.122900 -0.048258 0.019865 255 255 0 45 17
0.065835 0.001909 -0.056135 255 255 0 45 17
0.057990 -0.010564 -0.078135 255 255 0 45 17
0.089933 -0.056481 0.033865 255 255 0 45 17
0.105803 -0.059721 0.033865 255 255 0 45 17
0.112041 -0.051665 -0.008135 255 255 0 45 17
0.126772 -0.046497 -0.030135 255 255 0 45 17
0.140212 -0.047642 -0.024135 255 255 0 45 17
0.091567 0.039264 0.040906 255 255 0 45 17
0.154293 -0.029029 -0.074135 255 255 0 45 17
0.145468 -0.042811 -0.004135 255 255 0 45 17
0.149925 -0.018854 -0.054135 255 255 0 45 17
0.080172 -0.039749 -0.072135 255 255 0 45 17
0.076537 -0.035199 -0.062135 255 255 0 45 17
0.094630 0.018902 0.041005 255 255 0 45 17
0.151323 -0.015107 0.017865 255 255 0 45 17
0.072824 0.020649 -0.070135 255 255 0 45 17
0.161493 -0.018910 0.041865 255 255 0 45 17
0.129573 -0.047544 -0.081027 255 255 0 45 17
0.105839 -0.040805 0.045865 255 255 0 45 17
0.070561 -0.025480 -0.042135 255 255 0 45 17
0.067719 0.009746 -0.019126 255 255 0 45 17
0.136447 -0.040578 0.001865 255 255 0 45 17
0.068213 -0.020332 -0.056135 255 255 0 45 17
0.145749 -0.042915 -0.040135 255 255 0 45 17
0.089693 0.039964 -0.055141 255 255 0 45 17
0.145808 -0.030126 0.013865 255 255 0 45 17
0.105113 -0.050144 -0.072135 255 255 0 45 17
0.123641 0.033677 0.045488 255 255 0 45 17
0.147050 -0.041267 0.031865 255 255 0 45 17
0.148935 -0.039836 -0.056135 255 255 0 45 17
0.074857 0.023129 -0.028135 255 255 0 45 17
0.089420 -0.046429 -0.046135 255 255 0 45 17
0.096897 -0.049274 -0.026135 255 255 0 45 17
0.131640 -0.007747 0.045288 255 255 0 45 17
0.121337 -0.058150 0.035865 255 255 0 45 17
0.057791 -0.016808 -0.024135 255 255 0 45 17
0.056828 -0.009670 -0.044135 255 255 0 45 17
0.157870 -0.011149 -0.012135 255 255 0 45 17
0.139047 -0.039336 -0.082135 255 255 0 45 17
0.067263 -0.011435 -0.016135 255 255 0 45 17
0.107878 -0.059879 -0.040135 255 255 0 45 17
0.071693 0.014665 0.045428 255 255 0 45 17
0.060093 -0.032242 -0.028135 255 255 0 45 17
0.074723 0.028479 0.046596 255 255 0 45 17
0.058735 0.006699 0.013865 255 255 0 45 17
0.069152 -0.020683 0.038872 255 255 0 45 17
0.117405 -0.051535 -0.069129 255 255 0 45 17
0.143303 0.034867 0.042009 255 255 0 45 17
0.125390 -0.056656 -0.048135 255 255 0 45 17
0.138491 -0.038067 0.037865 255 255 0 45 17
0.066596 -0.038944 -0.074663 255 255 0 45 17
0.063480 -0.033509 -0.046135 255 255 0 45 17
0.069295 0.011292 -0.002135 255 255 0 45 17
0.154972 -0.025012 0.015865 255 255 0 45 17
0.117243 -0.011990 0.039865 255 255 0 45 17
0.098789 -0.049925 -0.050135 255 255 0 45 17
0.101957 -0.050030 0.019865 255 255 0 45 17
0.155216 -0.025103 0.035865 255 255 0 45 17
0.083784 -0.044369 -0.082135 255 255 0 45 17
0.069303 -0.043124 0.015865 255 255 0 45 17
0.060232 -0.027412 0.035865 255 255 0 45 17
0.157640 -0.017468 0.001865 255 255 0 45 17
0.134303 -0.052024 -0.054135 255 255 0 45 17
0.141691 0.007712 0.038866 255 255 0 45 17
0.057837 0.002765 -0.016135 255 255 0 45 17
0.140341 -0.047299 0.046229 255 255 0 45 17
0.147115 -0.026344 0.025865 255 255 0 45 17
0.069400 -0.042867 -0.012135 255 255 0 45 17
0.087364 0.028024 0.041003 255 255 0 45 17
0.130621 -0.044738 0.027865 255 255 0 45 17
0.132552 0.017534 0.038869 255 255 0 45 17
0.154477 0.001932 -0.008135 255 255 0 45 17
0.066087 -0.008860 -0.060135 255 255 0 45 17
0.080098 0.028605 -0.038135 255 255 0 45 17
0.070098 -0.029578 0.045696 255 255 0 45 17
0.068074 -0.023571 -0.066135 255 255 0 45 17
0.145556 -0.042844 0.019865 255 255 0 45 17
0.095036 -0.048543 -0.074135 255 255 0 45 17
0.067525 -0.030750 -0.080992 255 255 0 45 17
0.152259 0.010166 0.013865 255 255 0 45 17
0.127032 -0.055135 0.001865 255 255 0 45 17
0.126764 -0.046493 -0.070135 255 255 0 45 17
0.091567 0.039264 0.022506 255 255 0 45 17
0.083792 -0.044349 0.007865 255 255 0 45 17
0.063707 0.017652 -0.040135 255 255 0 45 17
0.118978 -0.058529 -0.018135 255 255 0 45 17
0.151862 0.012450 -0.016135 255 255 0 45 17
0.075952 -0.048186 0.035865 255 255 0 45 17
0.064129 0.019629 0.009865 255 255 0 45 17
0.078277 -0.039041 0.027865 255 255 0 45 17
0.095025 -0.048573 0.029865 255 255 0 45 17
0.135190 -0.051779 -0.014135 255 255 0 45 17
0.066090 -0.000321 -0.071137 255 255 0 45 17
0.060508 0.010307 0.035865 255 255 0 45 17
0.138854 -0.048879 0.007865 255 255 0 45 17
0.056214 -0.011575 -0.066135 255 255 0 45 17
0.088148 -0.055543 -0.068362 255 255 0 45 17
0.087981 -0.055991 0.023865 255 255 0 45 17
0.111434 -0.050372 -0.054135 255 255 0 45 17
0.135232 -0.041119 -0.042135 255 255 0 45 17
0.153495 0.010729 -0.070135 255 255 0 45 17
0.089697 0.037828 -0.028135 255 255 0 45 17
0.082765 -0.052810 -0.024135 255 255 0 45 17
0.068245 -0.040244 0.001865 255 255 0 45 17
0.095626 -0.058384 -0.042135 255 255 0 45 17
0.114579 -0.059093 -0.076135 255 255 0 45 17
0.149218 -0.029266 0.045360 255 255 0 45 17
0.095560 -0.058562 -0.060135 255 255 0 45 17
0.075089 -0.048526 -0.004135 255 255 0 45 17
0.115464 0.017517 0.045307 255 255 0 45 17
0.156858 0.002041 0.029865 255 255 0 45 17
0.152015 -0.013230 -0.034135 255 255 0 45 17
0.124586 0.024783 0.040984 255 255 0 45 17
0.098654 -0.055997 -0.080135 255 255 0 45 17
0.092455 0.038931 0.007865 255 255 0 45 17
0.063037 -0.003450 0.045865 255 255 0 45 17
0.069782 -0.027324 -0.002135 255 255 0 45 17
0.153523 -0.030876 -0.008135 255 255 0 45 17
0.076260 0.026878 -0.058135 255 255 0 45 17
0.106981 -0.050857 -0.036135 255 255 0 45 17
0.119060 -0.050019 -0.082135 255 255 0 45 17
0.147311 -0.039229 -0.028135 255 255 0 45 17
0.105153 0.029913 0.040967 255 255 0 45 17
0.066066 -0.008853 0.029865 255 255 0 45 17
0.063414 0.017761 -0.070135 255 255 0 45 17
0.123826 -0.057204 -0.064135 255 255 0 45 17
0.157858 -0.009010 0.021865 255 255 0 45 17
0.105110 -0.050151 -0.000135 255 255 0 45 17
0.074654 -0.034526 -0.044135 255 255 0 45 17
0.099344 -0.002078 0.045865 255 255 0 45 17
0.085667 -0.045046 -0.002135 255 255 0 45 17
0.113329 0.046073 0.040923 255 255 0 45 17
0.065342 -0.010718 0.007865 255 255 0 45 17
0.146484 -0.028244 -0.014135 255 255 0 45 17
0.080836 0.034734 -0.008135 255 255 0 45 17
0.157363 -0.019501 -0.048135 255 255 0 45 17
0.130612 -0.044765 -0.020135 255 255 0 45 17
0.128040 -0.045932 -0.002135 255 255 0 45 17
0.071457 0.016890 -0.012135 255 255 0 45 17
0.141674 0.024800 0.040983 255 255 0 45 17
0.064854 0.019218 -0.050135 255 255 0 45 17
0.109861 0.002531 0.045714 255 255 0 45 17
0.139738 -0.037489 -0.054135 255 255 0 45 17
0.130957 -0.026709 0.038888 255 255 0 45 17
0.093359 -0.057491 -0.010135 255 255 0 45 17
0.080360 0.009290 0.045667 255 255 0 45 17
0.067258 -0.011434 -0.080135 255 255 0 45 17
0.120325 -0.049435 -0.022135 255 255 0 45 17
0.152980 -0.005050 0.005865 255 255 0 45 17
0.071971 -0.030278 -0.021125 255 255 0 45 17
0.058256 -0.021275 0.025865 255 255 0 45 17
0.130203 -0.054185 0.011865 255 255 0 45 17
0.147109 -0.026342 -0.036135 255 255 0 45 17
0.057271 -0.018198 -0.038135 255 255 0 45 17
0.152248 -0.015452 0.036863 255 255 0 45 17
0.074065 -0.033196 0.021865 255 255 0 45 17
0.150146 -0.021072 -0.023138 255 255 0 45 17
0.138440 -0.048724 -0.036135 255 255 0 45 17
0.057049 0.003059 0.041865 255 255 0 45 17
0.153656 -0.003167 -0.058135 255 255 0 45 17
0.075820 -0.037119 -0.026135 255 255 0 45 17
0.112515 -0.058901 0.041865 255 255 0 45 17
0.096909 -0.049244 0.011865 255 255 0 45 17
0.067249 0.005651 -0.030135 255 255 0 45 17
0.151986 0.012404 -0.047163 255 255 0 45 17
0.143153 -0.045488 -0.062135 255 255 0 45 17
0.103830 -0.050730 -0.020135 255 255 0 45 17
0.089612 -0.056090 0.001865 255 255 0 45 17
0.161281 0.008929 0.041865 255 255 0 45 17
0.106603 -0.017604 0.040981 255 255 0 45 17
0.154134 0.003060 -0.032135 255 255 0 45 17
0.076124 0.032226 0.011095 255 255 0 45 17
0.057517 -0.018468 -0.072135 255 255 0 45 17
0.058161 0.001316 0.003865 255 255 0 45 17
0.099301 0.038508 0.045865 255 255 0 45 17
0.119515 -0.057314 0.023865 255 255 0 45 17
0.059456 0.008565 -0.066135 255 255 0 45 17
0.081321 -0.016692 0.038881 255 255 0 45 17
0.133497 0.008640 0.045017 255 255 0 45 17
0.151319 -0.023646 -0.080961 255 255 0 45 17
0.112468 -0.030472 0.045669 255 255 0 45 17
0.087540 -0.045745 -0.036135 255 255 0 45 17
0.056496 -0.003140 -0.025263 255 255 0 45 17
0.066932 -0.038044 -0.032135 255 255 0 45 17
0.147083 -0.000710 0.038887 255 255 0 45 17
0.070678 0.015046 -0.056135 255 255 0 45 17
0.106983 -0.050855 -0.046135 255 255 0 45 17
0.067231 0.005658 0.007865 255 255 0 45 17
0.057539 -0.001395 -0.074135 255 255 0 45 17
0.086925 -0.001705 0.045444 255 255 0 45 17
0.109683 -0.046513 0.039865 255 255 0 45 17
0.119057 -0.050018 -0.034135 255 255 0 45 17
0.130973 -0.043797 0.040918 255 255 0 45 17
0.158403 -0.009213 0.039865 255 255 0 45 17
0.145808 -0.030126 -0.070135 255 255 0 45 17
0.142627 -0.035472 0.045865 255 255 0 45 17
0.120639 -0.022851 0.039865 255 255 0 45 17
0.056914 -0.011837 0.017865 255 255 0 45 17
0.155798 -0.027456 -0.040135 255 255 0 45 17
0.057078 -0.001222 0.017865 255 255 0 45 17
0.113294 -0.051108 0.019865 255 255 0 45 17
0.135210 -0.041111 -0.074135 255 255 0 45 17
0.105820 -0.059675 -0.074135 255 255 0 45 17
0.149429 0.016987 -0.064135 255 255 0 45 17
0.153191 -0.030751 -0.026135 255 255 0 45 17
0.125320 -0.007520 0.038889 255 255 0 45 17
0.077557 -0.049605 0.013865 255 255 0 45 17
0.121396 -0.057989 -0.040135 255 255 0 45 17
0.097689 -0.058580 0.037865 255 255 0 45 17
0.059228 0.006515 -0.006135 255 255 0 45 17
0.155536 -0.025222 -0.058135 255 255 0 45 17
0.059314 -0.012734 0.046623 255 255 0 45 17
0.070724 0.015029 0.005865 255 255 0 45 17
0.147809 -0.024469 -0.000135 255 255 0 45 17
0.070537 0.000152 0.040942 255 255 0 45 17
0.059064 -0.023317 -0.030135 255 255 0 45 17
0.140729 -0.047444 0.025865 255 255 0 45 17
0.061436 -0.029902 -0.054135 255 255 0 45 17
0.075168 -0.048555 -0.048135 255 255 0 45 17
0.073078 0.029094 -0.046135 255 255 0 45 17
0.150775 -0.036254 -0.046135 255 255 0 45 17
0.123708 -0.034675 0.038887 255 255 0 45 17
0.069120 0.013493 0.024792 255 255 0 45 17
0.103857 -0.050740 0.031865 255 255 0 45 17
0.112286 -0.058162 -0.032135 255 255 0 45 17
0.084334 0.014210 0.038873 255 255 0 45 17
0.129965 -0.054096 0.037865 255 255 0 45 17
0.119978 -0.050362 -0.051137 255 255 0 45 17
0.143001 -0.034472 -0.036135 255 255 0 45 17
0.097743 -0.052725 0.045318 255 255 0 45 17
0.069575 0.026133 0.017317 255 255 0 45 17
0.080764 -0.052449 0.041865 255 255 0 45 17
0.101962 -0.058573 0.017607 255 255 0 45 17
0.129187 -0.054287 -0.008135 255 255 0 45 17
0.107828 -0.060015 -0.058135 255 255 0 45 17
0.094841 0.042310 -0.013657 255 255 0 45 17
0.084402 -0.054142 -0.015631 255 255 0 45 17
0.080758 -0.052465 0.001865 255 255 0 45 17
0.091413 -0.056764 0.015865 255 255 0 45 17
0.119063 -0.050020 0.011865 255 255 0 45 17
0.071043 -0.038472 0.045252 255 255 0 45 17
0.146889 -0.041207 -0.078593 255 255 0 45 17
0.066233 -0.019592 -0.012135 255 255 0 45 17
0.063068 0.015755 0.045865 255 255 0 45 17
0.082812 0.032981 -0.072135 255 255 0 45 17
0.066090 -0.000321 -0.047106 255 255 0 45 17
0.147767 0.018251 0.040938 255 255 0 45 17
0.142463 -0.033146 0.003865 255 255 0 45 17
0.065971 -0.012060 -0.028135 255 255 0 45 17
0.067942 0.007527 -0.078135 255 255 0 45 17
0.153678 -0.003176 -0.026135 255 255 0 45 17
0.127911 -0.023434 0.046298 255 255 0 45 17
0.133547 -0.042624 -0.009136 255 255 0 45 17
0.157159 0.001928 -0.040135 255 255 0 45 17
0.133179 -0.043610 -0.056135 255 255 0 45 17
0.057188 -0.012710 -0.008135 255 255 0 45 17
0.143825 -0.020844 0.038867 255 255 0 45 17
0.072135 0.018771 -0.042135 255 255 0 45 17
0.155696 0.005194 -0.058135 255 255 0 45 17
0.066442 0.003817 0.025865 255 255 0 45 17
0.069303 -0.043124 0.037865 255 255 0 45 17
0.065083 0.019272 0.019865 255 255 0 45 17
0.157528 -0.018460 -0.038135 255 255 0 45 17
0.073182 0.035462 0.041865 255 255 0 45 17
0.083821 0.033619 -0.056135 255 255 0 45 17
0.119455 0.005350 0.045691 255 255 0 45 17
0.084384 0.035544 0.037865 255 255 0 45 17
0.069384 -0.022905 -0.076135 255 255 0 45 17
0.090916 -0.013873 0.041036 255 255 0 45 17
0.132868 -0.053047 -0.030135 255 255 0 45 17
0.089532 -0.034709 0.038876 255 255 0 45 17
0.124426 -0.013591 0.045865 255 255 0 45 17
0.156077 -0.023289 -0.004135 255 255 0 45 17
0.057595 -0.001415 -0.036135 255 255 0 45 17
0.108915 0.011425 0.045569 255 255 0 45 17
0.060422 0.010339 -0.046135 255 255 0 45 17
0.082629 -0.041748 -0.062135 255 255 0 45 17
0.153344 -0.030809 0.029865 255 255 0 45 17
0.135160 -0.015468 0.045585 255 255 0 45 17
0.058767 0.004552 0.029865 255 255 0 45 17
0.153370 -0.030819 -0.064135 255 255 0 45 17
0.116849 0.038352 0.041002 255 255 0 45 17
0.093160 -0.047846 -0.056135 255 255 0 45 17
0.073752 0.028843 -0.068135 255 255 0 45 17
0.091283 -0.047158 -0.008135 255 255 0 45 17
0.130619 -0.044745 0.015865 255 255 0 45 17
0.074317 -0.035426 -0.079083 255 255 0 45 17
0.085018 0.033171 0.004841 255 255 0 45 17
0.152831 -0.008181 -0.050135 255 255 0 45 17
0.086743 0.037784 -0.046135 255 255 0 45 17
0.060952 -0.028293 0.017865 255 255 0 45 17
0.146839 0.010058 0.045070 255 255 0 45 17
0.134654 0.023155 0.045355 255 255 0 45 17
0.093051 -0.042430 0.041004 255 255 0 45 17
0.142256 -0.045880 -0.012135 255 255 0 45 17
0.065491 0.020920 0.033865 255 255 0 45 17
0.136354 -0.050079 -0.044135 255 255 0 45 17
0.148532 -0.022604 -0.064135 255 255 0 45 17
0.117745 -0.050623 -0.014135 255 255 0 45 17
0.122220 -0.055790 0.045865 255 255 0 45 17
0.157116 -0.017273 -0.018135 255 255 0 45 17
0.157624 -0.018205 0.011865 255 255 0 45 17
0.057318 0.002959 -0.056135 255 255 0 45 17
0.110157 -0.059496 -0.024135 255 255 0 45 17
0.063338 -0.036235 0.031865 255 255 0 45 17
0.068078 -0.023558 -0.032135 255 255 0 45 17
0.098848 0.013054 0.045090 255 255 0 45 17
0.057145 -0.003382 0.033865 255 255 0 45 17
0.082679 -0.053036 0.031865 255 255 0 45 17
0.099690 -0.058938 -0.016135 255 255 0 45 17
0.082390 -0.053811 -0.050135 255 255 0 45 17
0.153074 -0.032842 0.009865 255 255 0 45 17
0.139735 -0.037496 -0.024135 255 255 0 45 17
0.110712 -0.052302 -0.062135 255 255 0 45 17
0.065137 -0.037136 0.021865 255 255 0 45 17
0.062039 0.014005 -0.028135 255 255 0 45 17
0.120322 -0.049442 -0.006135 255 255 0 45 17
0.074845 0.023097 -0.000135 255 255 0 45 17
0.129378 -0.045336 -0.038135 255 255 0 45 17
0.074757 -0.005697 0.045352 255 255 0 45 17
0.151573 0.008287 0.027865 255 255 0 45 17
0.097481 -0.024870 0.045479 255 255 0 45 17
0.147130 -0.026350 -0.046135 255 255 0 45 17
0.072463 -0.046097 -0.072135 255 255 0 45 17
0.088175 -0.055469 -0.044135 255 255 0 45 17
0.100772 -0.038911 0.038882 255 255 0 45 17
0.153713 -0.003189 0.013865 255 255 0 45 17
0.077399 0.027479 0.027865 255 255 0 45 17
0.083774 -0.044397 0.021865 255 255 0 45 17
0.096911 -0.049240 -0.066135 255 255 0 45 17
0.087533 -0.045767 -0.072135 255 255 0 45 17
0.068594 0.024365 -0.076135 255 255 0 45 17
0.082977 0.036070 0.021865 255 255 0 45 17
0.065101 0.021401 -0.032135 255 255 0 45 17
0.073540 0.022516 -0.018135 255 255 0 45 17
0.057888 -0.018606 -0.016135 255 255 0 45 17
0.114427 -0.058963 -0.046135 255 255 0 45 17
0.158096 -0.011233 -0.028936 255 255 0 45 17
0.114602 -0.059028 -0.003543 255 255 0 45 17
0.075818 -0.037124 0.035865 255 255 0 45 17
0.119928 0.000902 0.038868 255 255 0 45 17
0.122902 -0.048253 -0.042135 255 255 0 45 17
0.143713 -0.032568 0.021865 255 255 0 45 17
0.074065 -0.047523 -0.040135 255 255 0 45 17
0.075912 0.008818 0.038866 255 255 0 45 17
0.157510 -0.000338 0.037865 255 255 0 45 17
0.131566 -0.053636 -0.074135 255 255 0 45 17
0.067625 -0.019061 -0.048135 255 255 0 45 17
0.121632 -0.048844 0.027865 255 255 0 45 17
0.074072 -0.033198 -0.008135 255 255 0 45 17
0.067623 -0.019065 0.013865 255 255 0 45 17
0.126430 -0.055948 -0.056135 255 255 0 45 17
0.061676 -0.029259 -0.010135 255 255 0 45 17
0.104880 -0.048987 0.045865 255 255 0 45 17
0.059380 -0.029692 0.043865 255 255 0 45 17
0.152049 -0.013242 0.005865 255 255 0 45 17
0.152974 -0.005048 -0.040135 255 255 0 45 17
0.155883 -0.025352 0.007865 255 255 0 45 17
0.152601 -0.014506 0.027865 255 255 0 45 17
0.060315 -0.027189 0.009865 255 255 0 45 17
0.067335 0.008718 -0.052135 255 255 0 45 17
0.156467 -0.021300 -0.074477 255 255 0 45 17
0.080737 -0.052521 -0.032135 255 255 0 45 17
0.066504 0.003795 -0.004135 255 255 0 45 17
0.134236 -0.052205 0.029865 255 255 0 45 17
0.088115 -0.055630 -0.060135 255 255 0 45 17
0.063407 -0.036051 -0.014135 255 255 0 45 17
0.073493 -0.031920 0.013865 255 255 0 45 17
0.056479 -0.007404 0.001865 255 255 0 45 17
0.078263 -0.039035 0.003865 255 255 0 45 17
0.055340 -0.017653 0.041668 255 255 0 45 17
0.119525 -0.057286 0.005865 255 255 0 45 17
0.153028 -0.032826 0.037865 255 255 0 45 17
0.081091 -0.051573 -0.080135 255 255 0 45 17
0.154237 -0.004418 -0.014135 255 255 0 45 17
0.139735 -0.037495 -0.008135 255 255 0 45 17
0.082629 -0.041751 -0.010135 255 255 0 45 17
0.095697 0.004624 0.039865 255 255 0 45 17
0.141799 -0.035033 -0.076135 255 255 0 45 17
0.113740 -0.058705 0.031865 255 255 0 45 17
0.070730 0.015026 -0.024135 255 255 0 45 17
0.108050 -0.059422 0.011865 255 255 0 45 17
0.089060 -0.030261 0.045664 255 255 0 45 17
0.075821 -0.037114 -0.054135 255 255 0 45 17
0.102918 -0.058930 -0.064135 255 255 0 45 17
0.114586 -0.041940 0.045289 255 255 0 45 17
0.134915 -0.004701 0.038877 255 255 0 45 17
0.158501 -0.009249 -0.074135 255 255 0 45 17
0.127616 0.038596 0.040957 255 255 0 45 17
0.157085 -0.025356 0.045865 255 255 0 45 17
0.136449 -0.040574 0.045865 255 255 0 45 17
0.156483 0.006452 -0.002135 255 255 0 45 17
0.157395 -0.013106 0.046512 255 255 0 45 17
0.083561 -0.053828 0.017865 255 255 0 45 17
0.070554 -0.016936 0.045506 255 255 0 45 17
0.104360 -0.052159 -0.028135 255 255 0 45 17
0.075668 0.019585 0.040972 255 255 0 45 17
0.126070 -0.056910 -0.015554 255 255 0 45 17
0.098637 -0.010355 0.040928 255 255 0 45 17
0.098882 -0.021122 0.038886 255 255 0 45 17
0.108671 0.022192 0.038866 255 255 0 45 17
0.089193 0.035881 0.031865 255 255 0 45 17
0.110578 -0.012684 0.045362 255 255 0 45 17
0.074895 -0.028170 0.039865 255 255 0 45 17
0.085950 0.032823 -0.034135 255 255 0 45 17
0.143615 -0.044252 0.003374 255 255 0 45 17
0.138450 -0.029511 0.041036 255 255 0 45 17
0.064047 -0.037991 -0.054135 255 255 0 45 17
0.068234 0.022548 -0.008135 255 255 0 45 17
0.155719 0.004602 -0.074135 255 255 0 45 17
0.056584 -0.013848 0.025865 255 255 0 45 17
0.074042 -0.047584 -0.056135 255 255 0 45 17
0.149762 -0.038010 -0.000135 255 255 0 45 17
0.115144 -0.051868 0.037865 255 255 0 45 17
0.069828 0.026810 -0.054135 255 255 0 45 17
0.075416 0.021815 0.021865 255 255 0 45 17
0.143440 -0.044719 -0.032135 255 255 0 45 17
0.139328 0.029947 0.046120 255 255 0 45 17
0.097954 -0.029316 0.038883 255 255 0 45 17
0.149603 -0.037951 -0.008135 255 255 0 45 17
0.065944 0.005000 -0.038135 255 255 0 45 17
0.153327 -0.015856 -0.060135 255 255 0 45 17
0.118738 0.020564 0.038866 255 255 0 45 17
0.110705 -0.052322 -0.016135 255 255 0 45 17
0.141113 -0.036912 -0.062135 255 255 0 45 17
0.065541 -0.004386 0.023865 255 255 0 45 17
0.080514 0.034855 -0.020135 255 255 0 45 17
0.089413 -0.046449 -0.024135 255 255 0 45 17
0.145899 -0.042972 -0.020135 255 255 0 45 17
0.141810 -0.035037 0.031865 255 255 0 45 17
0.082620 -0.041772 -0.020135 255 255 0 45 17
0.066444 -0.016505 -0.064135 255 255 0 45 17
0.077706 -0.037781 -0.034135 255 255 0 45 17
0.065754 0.001940 -0.020135 255 255 0 45 17
0.093768 -0.057645 -0.027690 255 255 0 45 17
0.064880 -0.006274 -0.006135 255 255 0 45 17
0.072808 0.020655 0.031865 255 255 0 45 17
0.089474 0.016559 0.045865 255 255 0 45 17
0.065226 0.003079 -0.064135 255 255 0 45 17
0.072315 -0.029360 -0.064135 255 255 0 45 17
0.085630 0.006253 0.039865 255 255 0 45 17
0.089465 0.033644 0.045397 255 255 0 45 17
0.098587 0.040910 0.038871 255 255 0 45 17
0.084121 0.042047 0.041865 255 255 0 45 17
0.068658 0.024341 0.005865 255 255 0 45 17
0.134615 -0.043023 0.021865 255 255 0 45 17
0.068636 0.009404 -0.010135 255 255 0 45 17
0.060421 0.010339 -0.018135 255 255 0 45 17
0.097677 -0.058610 0.001865 255 255 0 45 17
0.075391 0.021823 -0.078135 255 255 0 45 17
0.143821 -0.044330 0.037865 255 255 0 45 17
0.075338 0.030385 -0.032135 255 255 0 45 17
0.110073 0.025939 0.045689 255 255 0 45 17
0.098953 0.024757 0.039865 255 255 0 45 17
0.077608 -0.049467 -0.064142 255 255 0 45 17
0.115042 -0.029300 0.038876 255 255 0 45 17
0.072542 -0.045886 0.021865 255 255 0 45 17
0.079237 -0.039400 0.045243 255 255 0 45 17
0.079404 0.026729 -0.022135 255 255 0 45 17
0.057701 -0.016402 0.009865 255 255 0 45 17
0.066074 -0.008855 -0.042135 255 255 0 45 17
0.111084 -0.051308 0.004864 255 255 0 45 17
0.122898 -0.048264 -0.076135 255 255 0 45 17
0.063656 -0.035383 -0.038135 255 255 0 45 17
0.071136 -0.026800 0.025865 255 255 0 45 17
0.129344 -0.045323 -0.062135 255 255 0 45 17
0.108028 -0.059480 -0.008135 255 255 0 45 17
0.082115 0.031117 -0.080135 255 255 0 45 17
0.066626 0.010155 0.039865 255 255 0 45 17
0.149737 -0.038001 0.015865 255 255 0 45 17
0.153656 -0.003167 0.025865 255 255 0 45 17
0.144074 -0.044425 0.011865 255 255 0 45 17
0.085069 -0.018092 0.044976 255 255 0 45 17
0.115158 -0.051832 -0.076135 255 255 0 45 17
0.064969 0.019524 -0.014135 255 255 0 45 17
0.063889 0.016637 -0.062135 255 255 0 45 17
0.063099 -0.035501 0.003865 255 255 0 45 17
0.119046 -0.058554 -0.070135 255 255 0 45 17
0.071227 -0.043691 -0.024135 255 255 0 45 17
0.066829 -0.038321 -0.066135 255 255 0 45 17
0.157723 -0.015364 -0.006135 255 255 0 45 17
0.119505 -0.045915 0.041085 255 255 0 45 17
0.068210 -0.020331 -0.004135 255 255 0 45 17
0.072638 0.005771 0.045004 255 255 0 45 17
0.062609 0.013792 0.013865 255 255 0 45 17
0.114984 -0.058010 -0.012135 255 255 0 45 17
0.062274 0.013917 -0.002135 255 255 0 45 17
0.126484 0.006992 0.045865 255 255 0 45 17
0.147294 0.022698 -0.028986 255 255 0 45 17
0.112874 0.033433 0.045708 255 255 0 45 17
0.094054 0.011651 0.039865 255 255 0 45 17
0.102874 -0.033291 0.045686 255 255 0 45 17
0.092132 0.046487 0.041865 255 255 0 45 17
0.060389 -0.026990 -0.046135 255 255 0 45 17
0.153133 -0.032865 -0.056135 255 255 0 45 17
0.062958 0.015797 0.027865 255 255 0 45 17
0.081567 -0.027460 0.045718 255 255 0 45 17
0.106620 -0.034691 0.038869 255 255 0 45 17
0.147823 -0.024474 0.017865 255 255 0 45 17
0.145795 -0.030121 -0.052135 255 255 0 45 17
0.104357 -0.052165 -0.008135 255 255 0 45 17
0.095023 -0.048577 -0.018135 255 255 0 45 17
0.093166 -0.047833 -0.032135 255 255 0 45 17
0.071411 0.016907 -0.064135 255 255 0 45 17
0.098769 -0.049981 -0.004135 255 255 0 45 17
0.135843 0.003493 0.038880 255 255 0 45 17
0.104713 0.000185 0.040990 255 255 0 45 17
0.148550 -0.022610 -0.010135 255 255 0 45 17
0.091284 -0.047157 0.007865 255 255 0 45 17
0.112207 -0.002617 0.040997 255 255 0 45 17
0.100637 -0.050694 0.005865 255 255 0 45 17
0.087541 -0.045744 0.013865 255 255 0 45 17
0.151313 -0.015103 -0.048135 255 255 0 45 17
0.106309 0.044428 0.040931 255 255 0 45 17
0.152267 -0.006919 -0.006135 255 255 0 45 17
0.153783 0.000078 -0.000135 255 255 0 45 17
0.148746 -0.024819 -0.029126 255 255 0 45 17
0.081424 0.034981 -0.042135 255 255 0 45 17
0.069472 0.014435 -0.072135 255 255 0 45 17
0.080614 0.030547 -0.014135 255 255 0 45 17
0.136366 -0.052218 0.042846 255 255 0 45 17
0.083296 0.031680 -0.002135 255 255 0 45 17
0.157699 -0.006582 -0.020135 255 255 0 45 17
0.143353 -0.016397 0.045413 255 255 0 45 17
0.057737 -0.016952 -0.056135 255 255 0 45 17
0.088571 -0.008726 0.045389 255 255 0 45 17
0.138643 -0.048799 -0.068135 255 255 0 45 17
0.064854 -0.006265 -0.032135 255 255 0 45 17
0.067140 -0.014645 0.033865 255 255 0 45 17
0.134161 -0.052402 0.003865 255 255 0 45 17
0.072850 0.029180 -0.024848 255 255 0 45 17
0.066655 0.006901 0.015865 255 255 0 45 17
0.133892 -0.041703 0.033865 255 255 0 45 17
0.150499 -0.020129 0.031865 255 255 0 45 17
0.069626 -0.025130 0.010862 255 255 0 45 17
0.126666 -0.055319 0.017865 255 255 0 45 17
0.153159 0.009830 -0.063145 255 255 0 45 17
0.093864 0.039698 0.015865 255 255 0 45 17
0.079181 -0.050971 -0.012135 255 255 0 45 17
0.094696 -0.049450 -0.081100 255 255 0 45 17
0.067279 -0.019983 0.020898 255 255 0 45 17
0.091792 -0.057218 -0.074135 255 255 0 45 17
0.150813 0.014977 0.030865 255 255 0 45 17
0.112890 0.016345 0.038880 255 255 0 45 17
0.152525 -0.034773 -0.070135 255 255 0 45 17
0.156205 0.006556 -0.045308 255 255 0 45 17
0.075824 0.031423 -0.052135 255 255 0 45 17
0.157130 -0.015142 -0.070135 255 255 0 45 17
0.147784 0.001163 0.045586 255 255 0 45 17
0.064294 -0.005125 -0.052135 255 255 0 45 17
0.149690 -0.033713 -0.076532 255 255 0 45 17
0.091385 0.038779 -0.020135 255 255 0 45 17
0.149502 0.017180 0.015865 255 255 0 45 17
0.103996 -0.058843 0.005865 255 255 0 45 17
0.096102 -0.058517 -0.034135 255 255 0 45 17
0.081516 0.023805 0.040922 255 255 0 45 17
0.081503 0.029481 0.045865 255 255 0 45 17
0.130662 0.035322 0.046176 255 255 0 45 17
0.157840 -0.006867 -0.062135 255 255 0 45 17
0.133022 -0.053104 0.021865 255 255 0 45 17
0.071509 0.027546 0.031865 255 255 0 45 17
0.057013 -0.013176 -0.050135 255 255 0 45 17
0.158434 -0.010324 0.003865 255 255 0 45 17
0.114772 -0.058573 0.015865 255 255 0 45 17
0.137517 -0.046244 -0.082135 255 255 0 45 17
0.131851 0.015661 0.045412 255 255 0 45 17
0.152309 0.010147 0.003865 255 255 0 45 17
0.131551 -0.036541 0.039865 255 255 0 45 17
0.068629 -0.024758 0.031865 255 255 0 45 17
0.116829 -0.058787 -0.062135 255 255 0 45 17
0.074865 0.023150 -0.064135 255 255 0 45 17
0.153508 0.007565 -0.052135 255 255 0 45 17
0.135221 -0.041114 -0.050135 255 255 0 45 17
0.095786 0.033415 0.040916 255 255 0 45 17
0.098671 -0.044531 0.045076 255 255 0 45 17
0.085719 0.035044 -0.063117 255 255 0 45 17
0.147294 0.022698 0.046066 255 255 0 45 17
0.139737 -0.037490 -0.070135 255 255 0 45 17
0.068308 -0.040076 0.009865 255 255 0 45 17
0.072844 0.020641 -0.034135 255 255 0 45 17
0.067719 0.009746 -0.059196 255 255 0 45 17
0.132613 -0.042274 -0.026135 255 255 0 45 17
0.114602 -0.059028 -0.039343 255 255 0 45 17
0.088068 0.038436 -0.072135 255 255 0 45 17
0.133986 -0.012895 0.038874 255 255 0 45 17
0.078489 0.032841 0.035865 255 255 0 45 17
0.136805 -0.022490 0.038874 255 255 0 45 17
0.068516 0.023297 -0.046135 255 255 0 45 17
0.082039 -0.023365 0.039865 255 255 0 45 17
0.104763 -0.051079 -0.053128 255 255 0 45 17
0.082624 -0.041762 0.039865 255 255 0 45 17
0.151899 -0.016383 -0.028135 255 255 0 45 17
0.140366 0.008207 0.045865 255 255 0 45 17
0.157282 -0.017335 0.031865 255 255 0 45 17
0.142468 -0.033148 -0.018135 255 255 0 45 17
0.104387 -0.052085 0.039865 255 255 0 45 17
0.148746 -0.024819 -0.057136 255 255 0 45 17
0.106971 -0.050886 0.025865 255 255 0 45 17
0.058743 -0.023196 -0.022135 255 255 0 45 17
0.147978 -0.038293 0.025865 255 255 0 45 17
0.153331 0.004579 0.039865 255 255 0 45 17
0.079398 0.035273 -0.035701 255 255 0 45 17
0.147678 -0.027675 0.007865 255 255 0 45 17
0.134605 -0.043019 0.007865 255 255 0 45 17
0.070276 0.028007 0.041126 255 255 0 45 17
0.155002 0.009051 -0.010135 255 255 0 45 17
0.069544 0.026145 -0.014135 255 255 0 45 17
0.131485 -0.053849 -0.048135 255 255 0 45 17
0.104436 -0.059498 0.025865 255 255 0 45 17
0.158350 -0.011328 -0.036135 255 255 0 45 17
0.150529 -0.023351 -0.072135 255 255 0 45 17
0.150813 0.014977 0.047283 255 255 0 45 17
0.069344 -0.043016 -0.004135 255 255 0 45 17
0.084402 -0.054142 -0.074873 255 255 0 45 17
0.128237 0.028835 0.045865 255 255 0 45 17
0.103784 -0.059408 -0.022135 255 255 0 45 17
0.126462 -0.055865 -0.070135 255 255 0 45 17
0.086755 0.037815 -0.008135 255 255 0 45 17
0.146076 -0.040902 -0.048135 255 255 0 45 17
0.064842 -0.006260 -0.066135 255 255 0 45 17
0.064826 -0.006254 0.035865 255 255 0 45 17
0.074638 -0.034568 -0.000135 255 255 0 45 17
0.057345 -0.007728 -0.072135 255 255 0 45 17
0.153687 -0.003179 -0.070135 255 255 0 45 17
0.076402 -0.012717 0.040914 255 255 0 45 17
0.063229 -0.033414 -0.076135 255 255 0 45 17
0.136385 -0.050091 -0.060135 255 255 0 45 17
0.065575 -0.004399 0.009865 255 255 0 45 17
0.154139 0.009463 0.021865 255 255 0 45 17
0.063500 0.015594 -0.076399 255 255 0 45 17
0.125474 -0.047083 -0.054135 255 255 0 45 17
0.077110 -0.036470 0.009865 255 255 0 45 17
0.150757 -0.036571 -0.062135 255 255 0 45 17
0.069962 -0.024229 -0.018135 255 255 0 45 17
0.078856 -0.040417 -0.080135 255 255 0 45 17
0.153283 0.004453 -0.024135 255 255 0 45 17
0.110385 -0.058887 -0.052135 255 255 0 45 17
0.066195 -0.040017 -0.046135 255 255 0 45 17
0.055989 -0.010205 0.031865 255 255 0 45 17
0.056204 -0.009630 -0.024135 255 255 0 45 17
0.137471 0.013560 0.040960 255 255 0 45 17
0.103507 0.036935 0.041069 255 255 0 45 17
0.154457 -0.038097 0.043865 255 255 0 45 17
0.058115 0.001190 -0.030135 255 255 0 45 17
0.066422 -0.016565 -0.076135 255 255 0 45 17
0.060168 -0.027580 -0.060135 255 255 0 45 17
0.119514 0.022638 0.045865 255 255 0 45 17
0.154284 -0.027138 0.023865 255 255 0 45 17
0.056313 -0.003629 -0.058135 255 255 0 45 17
0.103595 -0.020749 0.045865 255 255 0 45 17
0.068015 -0.040862 -0.060135 255 255 0 45 17
0.153665 -0.028793 -0.032348 255 255 0 45 17
0.153354 -0.015866 -0.012135 255 255 0 45 17
0.155836 0.004558 0.013865 255 255 0 45 17
0.153003 -0.005059 0.037865 255 255 0 45 17
0.075022 0.030502 -0.004135 255 255 0 45 17
0.157265 -0.019164 -0.056135 255 255 0 45 17
0.093869 0.039714 -0.060135 255 255 0 45 17
0.066791 -0.006989 -0.074135 255 255 0 45 17
0.085654 -0.045081 -0.056135 255 255 0 45 17
0.125895 -0.057380 0.007865 255 255 0 45 17
0.139736 -0.037494 0.007865 255 255 0 45 17
0.062171 -0.033650 -0.022135 255 255 0 45 17
0.090839 -0.056550 -0.038135 255 255 0 45 17
0.070198 0.021631 0.045865 255 255 0 45 17
0.148463 -0.036996 0.039865 255 255 0 45 17
0.110463 -0.024413 0.039865 255 255 0 45 17
0.072064 0.018798 -0.004135 255 255 0 45 17
0.056818 -0.005395 -0.050135 255 255 0 45 17
0.146498 -0.007984 0.039865 255 255 0 45 17
0.081430 -0.004981 0.039865 255 255 0 45 17
0.126704 0.013314 0.038882 255 255 0 45 17
0.089854 0.000418 0.039865 255 255 0 45 17
0.125125 -0.048016 0.045097 255 255 0 45 17
0.116476 -0.051188 -0.058135 255 255 0 45 17
0.069120 0.013493 -0.039120 255 255 0 45 17
0.157981 -0.004784 -0.048135 255 255 0 45 17
0.070877 0.018192 0.011865 255 255 0 45 17
0.092284 0.024049 0.045532 255 255 0 45 17
0.143584 -0.044242 -0.072135 255 255 0 45 17
0.059893 -0.005473 -0.082135 255 255 0 45 17
0.123688 -0.057570 -0.024135 255 255 0 45 17
0.150493 -0.020144 0.021865 255 255 0 45 17
0.116682 -0.059176 -0.024135 255 255 0 45 17
0.056935 -0.003304 -0.014135 255 255 0 45 17
0.086803 -0.036298 0.045865 255 255 0 45 17
0.124847 -0.003073 0.045502 255 255 0 45 17
0.097759 -0.058393 -0.052135 255 255 0 45 17
0.073993 -0.047715 0.027865 255 255 0 45 17
0.086628 0.034704 -0.022135 255 255 0 45 17
0.155277 -0.001638 0.046150 255 255 0 45 17
0.069447 0.014369 -0.048135 255 255 0 45 17
0.061627 0.012024 -0.036135 255 255 0 45 17
0.059559 -0.023501 -0.076432 255 255 0 45 17
0.148990 -0.035587 0.046611 255 255 0 45 17
0.151563 -0.034413 -0.021136 255 255 0 45 17
0.082437 -0.053685 -0.066135 255 255 0 45 17
0.101906 -0.058721 -0.038135 255 255 0 45 17
0.151292 -0.021500 -0.036135 255 255 0 45 17
0.151302 -0.021505 -0.048135 255 255 0 45 17
0.061937 0.016178 -0.022135 255 255 0 45 17
0.159251 0.003282 0.044035 255 255 0 45 17
0.147678 -0.027674 -0.076135 255 255 0 45 17
0.065923 0.008282 -0.072135 255 255 0 45 17
0.157963 -0.013318 -0.050135 255 255 0 45 17
0.091929 -0.056853 0.007865 255 255 0 45 17
0.156983 -0.017222 0.019865 255 255 0 45 17
0.117387 -0.034447 0.044973 255 255 0 45 17
0.075798 -0.037175 -0.068135 255 255 0 45 17
0.147589 -0.039333 -0.035217 255 255 0 45 17
0.058616 0.004609 0.019865 255 255 0 45 17
0.155065 -0.025047 -0.024060 255 255 0 45 17
0.063169 0.015718 0.037865 255 255 0 45 17
0.078827 0.028035 -0.072135 255 255 0 45 17
0.153626 0.011791 0.041865 255 255 0 45 17
0.102516 -0.051378 -0.078135 255 255 0 45 17
0.068875 0.024261 -0.066729 255 255 0 45 17
0.099923 -0.058313 0.031865 255 255 0 45 17
0.153260 -0.032912 -0.014135 255 255 0 45 17
0.151074 -0.012878 0.045811 255 255 0 45 17
0.057035 0.000929 0.011865 255 255 0 45 17
0.065179 -0.025603 0.045285 255 255 0 45 17
0.099076 0.019374 0.045503 255 255 0 45 17
0.104257 -0.012456 0.045720 255 255 0 45 17
0.075600 -0.049127 -0.078135 255 255 0 45 17
0.060202 0.008286 -0.012135 255 255 0 45 17
0.132830 -0.027409 0.045711 255 255 0 45 17
0.131869 -0.001427 0.045561 255 255 0 45 17
0.122729 0.008395 0.040966 255 255 0 45 17
0.098621 0.006733 0.045468 255 255 0 45 17
0.140535 -0.006803 0.045722 255 255 0 45 17
0.078809 -0.051968 0.007865 255 255 0 45 17
0.083210 -0.043021 -0.046135 255 255 0 45 17
0.143705 -0.032590 -0.030135 255 255 0 45 17
0.086273 -0.054845 0.039865 255 255 0 45 17
0.118071 -0.015486 0.045798 255 255 0 45 17
0.057037 -0.003342 -0.042135 255 255 0 45 17
0.086436 0.019830 0.041074 255 255 0 45 17
0.153550 -0.009534 0.015865 255 255 0 45 17
0.090949 -0.048050 0.045424 255 255 0 45 17
0.065023 0.000078 -0.032135 255 255 0 45 17
0.156895 -0.021460 -0.010135 255 255 0 45 17
0.067245 0.005653 0.031865 255 255 0 45 17
0.148746 -0.024819 0.038901 255 255 0 45 17
0.064233 -0.016709 0.045395 255 255 0 45 17
0.136982 0.035095 0.040952 255 255 0 45 17
0.115236 0.011197 0.045643 255 255 0 45 17
0.075018 -0.033553 0.045152 255 255 0 45 17
0.152828 -0.011398 -0.000135 255 255 0 45 17
0.147109 -0.026342 -0.020135 255 255 0 45 17
0.118439 -0.051921 -0.028135 255 255 0 45 17
0.152789 -0.011384 -0.040135 255 255 0 45 17
0.066979 -0.017735 -0.018135 255 255 0 45 17
0.100642 -0.050681 -0.044135 255 255 0 45 17
0.126589 -0.055524 0.031865 255 255 0 45 17
0.093690 -0.057852 0.043865 255 255 0 45 17
0.144998 -0.023418 0.045392 255 255 0 45 17
0.104379 -0.052108 -0.066135 255 255 0 45 17
0.080738 -0.041098 0.033865 255 255 0 45 17
0.113305 -0.051078 -0.048135 255 255 0 45 17
0.096902 -0.049262 0.023865 255 255 0 45 17
0.110706 -0.052316 -0.070135 255 255 0 45 17
0.089408 -0.046461 0.025865 255 255 0 45 17
0.093147 -0.047885 0.035865 255 255 0 45 17
0.149933 -0.018857 0.001865 255 255 0 45 17
0.089410 -0.046456 -0.078135 255 255 0 45 17
0.157854 -0.004737 -0.008135 255 255 0 45 17
0.057195 -0.016213 -0.044135 255 255 0 45 17
0.082632 -0.041740 -0.034135 255 255 0 45 17
0.157341 -0.013086 -0.064135 255 255 0 45 17
0.057362 -0.016274 -0.032135 255 255 0 45 17
0.072806 0.029063 0.023865 255 255 0 45 17
0.108006 -0.054427 0.045865 255 255 0 45 17
0.059912 -0.025768 -0.066135 255 255 0 45 17
0.118510 0.014243 0.040913 255 255 0 45 17
0.057197 -0.001266 0.046506 255 255 0 45 17
0.059022 -0.023301 -0.002135 255 255 0 45 17
0.121947 -0.056518 -0.002135 255 255 0 45 17
0.095590 -0.007081 0.045604 255 255 0 45 17
0.134514 -0.051460 -0.024135 255 255 0 45 17
0.150760 -0.036249 0.031865 255 255 0 45 17
0.075557 0.024999 -0.042135 255 255 0 45 17
0.069367 0.017670 -0.018135 255 255 0 45 17
0.140605 -0.046591 -0.056135 255 255 0 45 17
0.070049 0.019551 0.037865 255 255 0 45 17
0.134020 -0.047071 0.045420 255 255 0 45 17
0.095796 -0.057930 -0.004135 255 255 0 45 17
0.069761 -0.027316 -0.048135 255 255 0 45 17
0.069259 -0.026113 -0.058135 255 255 0 45 17
0.157798 -0.011122 0.027865 255 255 0 45 17
0.069819 -0.027338 -0.026135 255 255 0 45 17
0.065316 -0.010708 0.023865 255 255 0 45 17
0.065295 -0.010700 -0.022135 255 255 0 45 17
0.141129 -0.036917 -0.002135 255 255 0 45 17
0.113302 -0.051087 -0.036135 255 255 0 45 17
0.083189 -0.043012 0.027865 255 255 0 45 17
0.071577 -0.031334 -0.038135 255 255 0 45 17
0.065161 -0.008515 0.000784 255 255 0 45 17
0.066242 -0.019595 -0.042135 255 255 0 45 17
0.141760 -0.035019 0.015865 255 255 0 45 17
0.121818 -0.016886 0.040969 255 255 0 45 17
0.110711 -0.052304 -0.002135 255 255 0 45 17
0.102511 -0.051391 0.013865 255 255 0 45 17
0.067157 -0.014599 0.001865 255 255 0 45 17
0.056549 -0.011701 0.037865 255 255 0 45 17
0.059789 -0.025723 0.029865 255 255 0 45 17
0.157218 -0.015176 -0.024135 255 255 0 45 17
0.085313 -0.028861 0.040970 255 255 0 45 17
0.150503 -0.020119 0.013865 255 255 0 45 17
0.154066 0.022302 0.041865 255 255 0 45 17
0.105113 -0.050143 -0.014135 255 255 0 45 17
0.084360 -0.011422 0.039865 255 255 0 45 17
0.074052 -0.047556 -0.012135 255 255 0 45 17
0.056608 -0.011723 -0.038135 255 255 0 45 17
0.152591 -0.014531 0.011865 255 255 0 45 17
0.077706 -0.037782 -0.010135 255 255 0 45 17
0.115675 0.040926 0.046469 255 255 0 45 17
0.060102 0.000797 -0.080135 255 255 0 45 17
0.061448 -0.030614 -0.004135 255 255 0 45 17
0.058333 0.002579 0.035865 255 255 0 45 17
0.067152 -0.014615 -0.054135 255 255 0 45 17
0.065966 -0.012075 -0.010135 255 255 0 45 17
0.076058 0.023710 0.015865 255 255 0 45 17
0.103752 0.026167 0.045630 255 255 0 45 17
0.068742 0.024311 -0.028135 255 255 0 45 17
0.145967 -0.040862 -0.012135 255 255 0 45 17
0.069843 0.026034 -0.002135 255 255 0 45 17
0.078289 -0.039045 -0.046135 255 255 0 45 17
0.073608 0.028897 0.005865 255 255 0 45 17
-0.442652 -0.007529 -0.070135 255 125 0 42 18
-0.474616 -0.024492 0.156405 255 125 0 42 18
-0.486295 -0.050019 0.036485 255 125 0 42 18
-0.441204 -0.003657 0.003865 255 125 0 42 18
-0.498195 -0.028488 -0.030135 255 125 0 42 18
-0.449979 -0.020892 0.089865 255 125 0 42 18
-0.444269 -0.050786 -0.030135 255 125 0 42 18
-0.478802 -0.052821 -0.077114 255 125 0 42 18
-0.478980 0.003815 0.047865 255 125 0 42 18
-0.435851 -0.038986 0.041865 255 125 0 42 18
-0.491722 -0.007421 -0.072178 255 125 0 42 18
-0.485871 -0.001068 0.003865 255 125 0 42 18
-0.476965 -0.055643 -0.004135 255 125 0 42 18
-0.486785 -0.028483 0.072189 255 125 0 42 18
-0.478119 -0.033859 0.116962 255 125 0 42 18
-0.451470 0.003152 -0.033055 255 125 0 42 18
-0.439979 -0.045984 -0.072135 255 125 0 42 18
-0.442124 -0.004613 0.055865 255 125 0 42 18
-0.439891 -0.045834 0.005865 255 125 0 42 18
-0.459140 -0.051631 0.066701 255 125 0 42 18
-0.477630 -0.055394 -0.041035 255 125 0 42 18
-0.453327 -0.013235 0.130895 255 125 0 42 18
-0.484250 0.001140 -0.040135 255 125 0 42 18
-0.496653 -0.032033 0.009865 255 125 0 42 18
-0.431788 -0.021288 -0.022135 255 125 0 42 18
-0.496227 -0.020683 0.039865 255 125 0 42 18
-0.457473 -0.056525 0.029865 255 125 0 42 18
-0.495907 -0.035749 -0.058479 255 125 0 42 18
-0.469485 -0.005059 0.074704 255 125 0 42 18
-0.441841 -0.028205 -0.049103 255 125 0 42 18
-0.450363 0.002738 0.029865 255 125 0 42 18
-0.469646 -0.039751 0.089865 255 125 0 42 18
-0.438916 -0.031802 0.067865 255 125 0 42 18
-0.432360 -0.016805 0.025865 255 125 0 42 18
-0.469585 -0.011035 0.105865 255 125 0 42 18
-0.451630 -0.033087 0.147865 255 125 0 42 18
-0.452362 -0.032813 0.113865 255 125 0 42 18
-0.458905 -0.056709 -0.058135 255 125 0 42 18
-0.492217 -0.008749 -0.018135 255 125 0 42 18
-0.482251 -0.050623 0.059865 255 125 0 42 18
-0.490059 -0.031530 -0.080973 255 125 0 42 18
-0.475694 -0.017684 0.133865 255 125 0 42 18
-0.454302 -0.055822 -0.010135 255 125 0 42 18
-0.486104 -0.035144 -0.010135 255 125 0 42 18
-0.487865 -0.002457 0.027865 255 125 0 42 18
-0.478243 -0.045612 0.015865 255 125 0 42 18
-0.431977 -0.025489 -0.000135 255 125 0 42 18
-0.458669 -0.010393 0.151865 255 125 0 42 18
-0.490803 -0.009899 0.059865 255 125 0 42 18
-0.495732 -0.016597 -0.048135 255 125 0 42 18
-0.434505 -0.025716 -0.078135 255 125 0 42 18
-0.468935 -0.037851 0.135865 255 125 0 42 18
-0.438263 -0.007211 -0.048135 255 125 0 42 18
-0.459980 -0.031033 0.071865 255 125 0 42 18
-0.457968 -0.054204 -0.078980 255 125 0 42 18
-0.469439 -0.047780 -0.022135 255 125 0 42 18
-0.480808 -0.022178 0.091865 255 125 0 42 18
-0.444874 -0.033477 0.023865 255 125 0 42 18
-0.445579 -0.035349 -0.016135 255 125 0 42 18
-0.461351 -0.057541 0.009865 255 125 0 42 18
-0.448016 -0.053655 0.049865 255 125 0 42 18
-0.443820 -0.004942 -0.016135 255 125 0 42 18
-0.468168 -0.047222 0.045865 255 125 0 42 18
-0.432350 -0.021079 0.049865 255 125 0 42 18
-0.494501 -0.037700 0.049865 255 125 0 42 18
-0.450052 -0.010190 0.073286 255 125 0 42 18
-0.478234 -0.045589 -0.058135 255 125 0 42 18
-0.441196 -0.047664 -0.052135 255 125 0 42 18
-0.489049 -0.045960 -0.028135 255 125 0 42 18
-0.459613 -0.047184 -0.041137 255 125 0 42 18
-0.487264 -0.032576 0.027865 255 125 0 42 18
-0.490689 -0.018484 -0.002135 255 125 0 42 18
-0.457456 0.004272 0.063865 255 125 0 42 18
-0.495025 -0.014727 0.015865 255 125 0 42 18
-0.434081 -0.035377 -0.034135 255 125 0 42 18
-0.478625 0.004764 -0.057068 255 125 0 42 18
-0.451822 -0.014924 0.111865 255 125 0 42 18
-0.486082 -0.035153 -0.042135 255 125 0 42 18
-0.466870 -0.029524 0.103865 255 125 0 42 18
-0.473794 -0.045136 0.073865 255 125 0 42 18
-0.432274 -0.019751 -0.062135 255 125 0 42 18
-0.462346 -0.008806 0.089865 255 125 0 42 18
-0.481199 0.003591 -0.023491 255 125 0 42 18
-0.437568 -0.008451 0.039865 255 125 0 42 18
-0.453861 -0.036523 0.095865 255 125 0 42 18
-0.440862 -0.011491 -0.032135 255 125 0 42 18
-0.449791 -0.038046 0.056872 255 125 0 42 18
-0.473785 -0.056532 0.027865 255 125 0 42 18
-0.489049 -0.045960 0.001865 255 125 0 42 18
-0.472307 -0.021086 0.077865 255 125 0 42 18
-0.442781 -0.049207 0.029865 255 125 0 42 18
-0.496847 -0.022586 -0.068135 255 125 0 42 18
-0.441107 -0.017804 0.011865 255 125 0 42 18
-0.461713 -0.027182 0.125865 255 125 0 42 18
-0.452297 0.003461 0.013865 255 125 0 42 18
-0.467022 -0.038445 0.151865 255 125 0 42 18
-0.443242 -0.031953 -0.065116 255 125 0 42 18
-0.451470 0.003152 -0.049024 255 125 0 42 18
-0.488471 -0.012907 -0.034135 255 125 0 42 18
-0.453483 -0.045205 0.015865 255 125 0 42 18
-0.497720 -0.023464 0.055865 255 125 0 42 18
-0.490515 -0.044172 -0.070625 255 125 0 42 18
-0.480693 -0.035032 0.058877 255 125 0 42 18
-0.460920 -0.022123 0.141865 255 125 0 42 18
-0.490366 -0.005793 0.043865 255 125 0 42 18
-0.472733 0.003388 0.061865 255 125 0 42 18
-0.441366 -0.024113 0.037865 255 125 0 42 18
-0.437206 -0.017128 0.063865 255 125 0 42 18
-0.432984 -0.031518 0.013865 255 125 0 42 18
-0.451148 0.004011 -0.064135 255 125 0 42 18
-0.439536 -0.004907 0.019865 255 125 0 42 18
-0.458945 -0.056819 -0.028135 255 125 0 42 18
-0.475883 -0.017613 0.117865 255 125 0 42 18
-0.466295 -0.047925 -0.068135 255 125 0 42 18
-0.451470 0.003152 0.044740 255 125 0 42 18
-0.432373 -0.021070 -0.040135 255 125 0 42 18
-0.496682 -0.024784 -0.014135 255 125 0 42 18
-0.488500 -0.006490 -0.056135 255 125 0 42 18
-0.488170 -0.049319 -0.013690 255 125 0 42 18
-0.480325 -0.033034 0.143865 255 125 0 42 18
-0.452245 -0.044610 -0.064135 255 125 0 42 18
-0.446957 -0.039105 -0.040135 255 125 0 42 18
-0.481626 0.002446 -0.076135 255 125 0 42 18
-0.435132 -0.013632 -0.008135 255 125 0 42 18
-0.435168 -0.038909 -0.006135 255 125 0 42 18
-0.453518 -0.045192 -0.000135 255 125 0 42 18
-0.452375 0.003491 -0.002135 255 125 0 42 18
-0.447445 -0.043193 0.070829 255 125 0 42 18
-0.483055 -0.012796 0.072775 255 125 0 42 18
-0.463051 -0.010691 0.119865 255 125 0 42 18
-0.454839 -0.045836 0.039865 255 125 0 42 18
-0.469436 -0.056323 0.056768 255 125 0 42 18
-0.480567 -0.032944 0.101865 255 125 0 42 18
-0.459402 -0.023775 0.156561 255 125 0 42 18
-0.454834 -0.045822 -0.020135 255 125 0 42 18
-0.485098 0.000779 -0.010135 255 125 0 42 18
-0.465174 -0.039213 0.115865 255 125 0 42 18
-0.446761 -0.024232 0.076658 255 125 0 42 18
-0.442653 -0.049255 -0.014135 255 125 0 42 18
-0.487559 -0.047687 -0.048135 255 125 0 42 18
-0.459522 -0.018386 0.099865 255 125 0 42 18
-0.491942 -0.042278 0.017865 255 125 0 42 18
-0.444175 -0.031604 0.001865 255 125 0 42 18
-0.466292 -0.047914 -0.008135 255 125 0 42 18
-0.432628 -0.031650 0.029865 255 125 0 42 18
-0.460467 -0.029783 0.085865 255 125 0 42 18
-0.472800 -0.013924 0.147865 255 125 0 42 18
-0.481870 -0.040997 0.045865 255 125 0 42 18
-0.484339 -0.021940 0.059865 255 125 0 42 18
-0.436263 -0.038833 0.055865 255 125 0 42 18
-0.450233 -0.042150 -0.080135 255 125 0 42 18
-0.491350 -0.039589 0.065865 255 125 0 42 18
-0.497941 -0.029768 -0.046135 255 125 0 42 18
-0.471661 -0.056565 -0.054135 255 125 0 42 18
-0.468980 -0.043682 0.060883 255 125 0 42 18
-0.490699 -0.018480 0.027865 255 125 0 42 18
-0.443946 -0.025283 0.055865 255 125 0 42 18
-0.481586 0.002554 0.015865 255 125 0 42 18
-0.453982 -0.034342 0.133865 255 125 0 42 18
-0.477862 -0.033172 0.081865 255 125 0 42 18
-0.478281 0.005682 0.031865 255 125 0 42 18
-0.487262 -0.032576 -0.024135 255 125 0 42 18
-0.472971 -0.031514 0.068881 255 125 0 42 18
-0.450291 -0.054940 -0.046135 255 125 0 42 18
-0.460085 -0.042736 0.077734 255 125 0 42 18
-0.460110 -0.017105 0.079865 255 125 0 42 18
-0.464444 -0.048683 0.021865 255 125 0 42 18
-0.477351 -0.029876 0.129865 255 125 0 42 18
-0.496455 -0.033409 0.037865 255 125 0 42 18
-0.479254 -0.054030 0.047865 255 125 0 42 18
-0.435080 -0.037139 -0.056135 255 125 0 42 18
-0.470761 -0.048445 0.005865 255 125 0 42 18
-0.433464 -0.034355 -0.020135 255 125 0 42 18
-0.441344 -0.024121 -0.030135 255 125 0 42 18
-0.491476 -0.018189 -0.079052 255 125 0 42 18
-0.479300 -0.054152 -0.028135 255 125 0 42 18
-0.449615 -0.025300 0.103865 255 125 0 42 18
-0.478213 -0.021012 0.105865 255 125 0 42 18
-0.441330 -0.024126 -0.012135 255 125 0 42 18
-0.460910 -0.057375 0.043865 255 125 0 42 18
-0.488314 -0.026865 0.047865 255 125 0 42 18
-0.437747 -0.042548 0.017865 255 125 0 42 18
-0.489381 -0.021108 -0.058135 255 125 0 42 18
-0.496818 -0.032474 -0.004135 255 125 0 42 18
-0.449529 -0.054478 0.007865 255 125 0 42 18
-0.465689 -0.057724 -0.038781 255 125 0 42 18
-0.488900 -0.025558 0.017865 255 125 0 42 18
-0.489955 -0.019829 -0.024135 255 125 0 42 18
-0.451080 -0.022616 0.121865 255 125 0 42 18
-0.452398 0.003499 -0.018135 255 125 0 42 18
-0.465686 -0.057714 -0.016135 255 125 0 42 18
-0.460309 -0.023436 0.113865 255 125 0 42 18
-0.468159 -0.047197 -0.080135 255 125 0 42 18
-0.466301 -0.047939 0.033865 255 125 0 42 18
-0.446273 -0.037225 0.035865 255 125 0 42 18
-0.498479 -0.028382 0.025865 255 125 0 42 18
-0.480738 -0.043556 0.027865 255 125 0 42 18
-0.488186 -0.032230 -0.067121 255 125 0 42 18
-0.444260 -0.037977 -0.028135 255 125 0 42 18
-0.471762 -0.056832 0.015865 255 125 0 42 18
-0.477597 -0.055307 -0.016135 255 125 0 42 18
-0.475376 -0.056237 -0.066135 255 125 0 42 18
-0.459299 -0.046343 0.053865 255 125 0 42 18
-0.452163 -0.055812 -0.068135 255 125 0 42 18
-0.453520 -0.045192 -0.052135 255 125 0 42 18
-0.486670 -0.033888 0.001865 255 125 0 42 18
-0.489966 -0.048647 0.049865 255 125 0 42 18
-0.480120 -0.044923 -0.036135 255 125 0 42 18
-0.443234 -0.003375 -0.058135 255 125 0 42 18
-0.450963 -0.035471 0.079517 255 125 0 42 18
-0.463538 -0.057682 -0.002135 255 125 0 42 18
-0.472370 -0.014656 0.087865 255 125 0 42 18
-0.481598 -0.003190 0.065865 255 125 0 42 18
-0.444737 -0.048475 0.059865 255 125 0 42 18
-0.481283 -0.042322 -0.020135 255 125 0 42 18
-0.482793 -0.040652 -0.081157 255 125 0 42 18
-0.432828 -0.012359 -0.074135 255 125 0 42 18
-0.490140 -0.022959 -0.040135 255 125 0 42 18
-0.453502 -0.045199 0.027865 255 125 0 42 18
-0.443360 -0.009424 0.029865 255 125 0 42 18
-0.441142 -0.017791 -0.054135 255 125 0 42 18
-0.481167 -0.053432 0.007865 255 125 0 42 18
-0.442292 -0.015226 0.049865 255 125 0 42 18
-0.446259 -0.037231 0.011865 255 125 0 42 18
-0.443626 -0.032980 -0.078135 255 125 0 42 18
-0.449525 -0.054467 0.021865 255 125 0 42 18
