ply
format ascii 1.0
element vertex 1106
property float x
property float y
property float z
property uchar red
property uchar green
property uchar blue
property uchar semantic_label
property uchar instance_label
end_header
-0.174686 -0.276057 -0.485927 20 21 24 5 6
-0.179059 -0.261713 -0.469172 16 18 23 5 6
-0.178805 -0.263768 -0.456500 19 20 25 5 6
0.195739 0.193645 -0.763685 18 19 18 14 2
0.199755 0.194007 -0.790997 21 22 24 14 2
0.193464 0.200040 -0.782132 23 25 25 14 2
-0.099194 -0.225489 -0.425123 18 20 19 5 6
-0.078409 -0.225634 -0.436128 18 20 19 5 6
-0.079469 -0.225999 -0.416698 19 21 20 5 6
-0.064037 -0.223552 -0.415544 19 21 20 5 6
0.214555 -0.050609 -0.778662 31 28 28 14 2
-0.295887 -0.237270 -0.815566 33 30 26 2 3
0.493334 -0.151638 -0.811681 24 23 24 14 2
0.509446 -0.163391 -0.828417 21 20 20 14 2
0.509968 -0.148500 -0.808564 64 47 35 14 2
0.514491 -0.142903 -0.819753 29 22 24 14 2
0.503875 -0.147714 -0.822385 25 26 26 14 2
0.508519 -0.150304 -0.830602 25 26 26 14 2
0.516432 -0.146969 -0.827992 21 21 22 14 2
-0.422722 -0.390617 -0.814106 36 34 30 2 3
0.347635 -0.197560 -0.553162 163 122 85 14 2
0.350687 -0.197759 -0.531527 162 118 78 14 2
0.338551 -0.197787 -0.525662 160 117 79 14 2
-0.092417 -0.162163 -0.396211 16 19 20 5 6
-0.099348 -0.156790 -0.392998 17 19 21 5 6
-0.116995 -0.156474 -0.393119 16 19 21 5 6
-0.108890 -0.157303 -0.388963 20 21 22 5 6
-0.170922 -0.007698 -0.819941 24 23 21 2 3
-0.171657 -0.024640 -0.819792 24 24 22 2 3
-0.184250 -0.011476 -0.819740 23 23 21 2 3
0.381385 -0.198228 -0.607473 166 128 92 14 2
-0.361175 0.202204 -0.658473 25 24 23 14 2
-0.342739 0.189237 -0.660252 27 26 27 14 2
-0.364873 0.193462 -0.660425 28 28 27 14 2
-0.355425 0.194968 -0.660415 28 28 28 14 2
-0.353088 0.189617 -0.658214 30 28 29 14 2
-0.352315 0.206607 -0.663045 11 11 11 14 2
-0.124476 -0.025120 -0.803804 16 17 22 2 3
-0.134093 -0.010980 -0.811405 16 17 22 2 3
-0.122857 -0.034506 -0.813705 15 16 21 2 3
-0.111417 -0.149296 -0.808658 22 23 21 2 3
-0.108714 -0.138123 -0.816793 22 23 21 2 3
-0.114784 -0.165827 -0.811439 21 21 20 2 3
-0.092117 -0.138373 -0.819601 28 27 23 2 3
-0.104759 -0.162933 -0.822128 27 26 23 2 3
0.125613 0.143301 -0.802447 25 27 28 2 3
0.117650 0.140484 -0.816227 21 23 25 2 3
0.126860 0.132767 -0.813639 22 23 25 2 3
-0.287153 -0.474145 -0.814771 40 38 33 2 3
0.206538 0.050483 -0.473531 18 17 16 14 2
0.207699 0.039473 -0.457301 15 14 14 14 2
0.207816 0.030452 -0.458848 15 13 12 14 2
-0.368323 0.149906 -0.638497 29 30 36 14 2
-0.350577 0.153216 -0.639208 29 29 36 14 2
-0.354957 0.142670 -0.622059 29 27 32 14 2
-0.346112 0.141656 -0.627091 34 34 38 14 2
-0.332489 0.143124 -0.622420 33 31 36 14 2
0.208755 0.021696 -0.521157 18 15 12 14 2
0.210600 -0.000094 -0.510996 23 17 14 14 2
0.210051 0.000511 -0.485972 24 18 14 14 2
0.145304 -0.169644 -0.739848 16 18 22 5 6
0.141066 -0.151149 -0.755287 17 19 24 5 6
0.165366 -0.143114 -0.743657 15 19 21 2 3
0.172908 -0.157142 -0.732368 18 21 22 2 3
0.155991 -0.144150 -0.737384 15 19 22 5 6
0.163911 -0.156268 -0.774294 19 21 26 5 6
0.161593 -0.156756 -0.768973 19 23 27 5 6
0.014485 -0.504358 -0.819066 45 40 36 2 3
0.215611 -0.087059 -0.660698 41 33 29 14 2
0.214710 -0.093116 -0.644788 55 43 35 14 2
0.194471 0.186395 -0.769178 22 23 24 14 2
0.189796 0.210228 -0.761131 20 22 23 14 2
0.198007 0.194565 -0.748158 18 21 22 14 2
0.196474 0.216018 -0.756095 20 22 23 14 2
0.531836 -0.187197 -0.468192 165 125 84 14 2
0.514302 -0.187992 -0.462517 188 151 114 14 2
-0.328840 -0.372589 -0.815253 39 35 31 2 3
0.069032 -0.283832 -0.481878 18 20 20 5 6
0.079204 -0.258214 -0.470438 17 20 21 5 6
0.066829 -0.273481 -0.460390 20 22 23 5 6
0.071075 -0.266851 -0.447602 18 21 22 5 6
0.080392 -0.255431 -0.458214 21 22 23 5 6
-0.099092 -0.491396 -0.816355 40 36 33 2 3
0.057289 -0.061068 -0.723276 12 15 19 5 6
0.198925 -0.320814 -0.826958 41 37 33 2 3
0.217176 -0.319858 -0.829591 41 37 34 2 3
0.535623 -0.172614 -0.424294 158 126 97 14 2
0.551060 -0.174764 -0.432465 190 148 104 14 2
-0.047054 -0.156860 -0.395072 16 20 21 5 6
-0.055007 -0.159984 -0.398712 17 19 20 5 6
-0.044568 -0.178414 -0.398785 16 20 19 5 6
-0.035349 -0.152152 -0.396044 16 20 19 5 6
-0.020195 -0.148078 -0.395542 16 18 20 5 6
-0.244232 0.004221 -0.774239 21 23 23 5 6
0.212786 -0.030355 -0.473365 27 19 15 14 2
0.211994 -0.020326 -0.456662 26 19 13 14 2
0.166007 -0.173230 -0.769653 18 20 24 5 6
0.159346 -0.168680 -0.756657 21 24 29 5 6
0.166147 -0.186655 -0.752661 23 24 29 5 6
0.159227 -0.177428 -0.742836 17 19 24 5 6
0.066980 -0.139234 -0.394647 26 27 26 5 6
0.067997 -0.160359 -0.400130 21 22 23 5 6
0.074097 -0.136320 -0.396733 21 22 24 5 6
0.078590 -0.120822 -0.395056 21 23 23 5 6
0.405909 -0.194932 -0.667714 80 59 43 14 2
0.404236 -0.196352 -0.660831 80 59 43 14 2
0.205046 0.119859 -0.745561 16 17 18 14 2
0.203908 0.144587 -0.755235 16 20 21 14 2
0.127689 0.021015 -0.365648 30 35 36 5 6
0.119614 0.012467 -0.369185 29 32 34 5 6
-0.270862 -0.207777 -0.816006 33 31 27 2 3
-0.260349 -0.236091 -0.815828 32 29 26 2 3
-0.229915 -0.009065 -0.735290 16 16 22 5 6
-0.229942 -0.016811 -0.730949 16 17 18 5 6
-0.380517 -0.235195 -0.814762 33 31 26 2 3
-0.341398 -0.227609 -0.815039 32 30 26 2 3
0.144163 -0.064824 -0.378041 9 11 10 5 6
0.138972 -0.086198 -0.377662 5 9 7 5 6
0.123315 -0.097184 -0.380508 8 9 7 5 6
0.133166 -0.072262 -0.381672 23 27 35 5 6
0.496210 -0.173768 -0.422553 76 41 12 14 2
0.484603 -0.172494 -0.404662 76 41 12 14 2
0.487159 -0.171449 -0.383206 173 134 89 14 2
0.213931 -0.128035 -0.509162 67 50 37 14 2
0.214290 -0.129083 -0.490662 65 49 34 14 2
0.440548 -0.190418 -0.449130 183 145 107 14 2
0.372891 -0.190268 -0.733358 78 58 43 14 2
-0.229085 0.055959 -0.815540 20 21 21 2 3
-0.198804 0.047516 -0.804470 18 18 17 2 3
-0.203119 0.055475 -0.812333 20 21 20 2 3
-0.210766 0.046053 -0.811230 20 21 21 2 3
-0.190260 0.042239 -0.808137 18 20 19 2 3
-0.177502 0.228939 -0.815804 22 22 21 2 3
-0.184829 0.209022 -0.824079 25 25 25 2 3
-0.173728 0.217339 -0.823482 21 22 21 2 3
-0.193482 0.227781 -0.825730 27 27 27 2 3
-0.188629 0.209274 -0.821366 25 25 25 2 3
-0.188478 0.196472 -0.824421 25 25 25 2 3
-0.201222 0.206336 -0.825487 25 25 25 2 3
0.217780 -0.156516 -0.756531 39 33 31 14 2
0.228311 -0.157880 -0.769953 38 31 26 14 2
0.205583 -0.169122 -0.752824 28 26 26 2 3
0.237141 -0.175313 -0.750352 65 52 45 14 2
0.224002 -0.165099 -0.743242 65 51 43 14 2
0.215154 -0.151385 -0.751798 46 39 33 14 2
0.215941 -0.138635 -0.748057 46 37 34 14 2
0.211882 -0.162254 -0.768189 20 20 23 2 3
0.297171 -0.402657 -0.830172 41 37 37 2 3
0.070864 -0.260508 -0.502557 17 20 23 5 6
0.076625 -0.273748 -0.487569 18 19 23 5 6
-0.128843 -0.518778 -0.815734 42 38 34 2 3
0.436212 -0.197938 -0.645049 136 99 69 14 2
0.426604 -0.199506 -0.657665 133 97 68 14 2
0.076310 -0.202334 -0.415227 14 15 17 5 6
0.099877 -0.195773 -0.419685 9 10 13 5 6
0.207811 0.053448 -0.382121 28 31 34 14 2
0.204086 0.076439 -0.386575 20 23 24 14 2
0.205068 0.068882 -0.396912 20 22 23 14 2
0.206595 0.051201 -0.398992 27 29 35 14 2
0.196005 0.056618 -0.409528 28 31 36 5 6
0.202136 0.070427 -0.404230 25 27 31 5 6
0.058815 -0.277525 -0.438728 21 22 23 5 6
0.048378 -0.275955 -0.419080 20 21 23 5 6
0.067011 -0.168635 -0.401134 24 25 27 5 6
0.064662 -0.159760 -0.394651 23 24 25 5 6
-0.149915 -0.512823 -0.816664 42 39 33 2 3
-0.181714 -0.508295 -0.815605 41 38 34 2 3
-0.153320 -0.495364 -0.817529 41 37 32 2 3
-0.171803 -0.489946 -0.816270 42 38 33 2 3
-0.232623 0.164008 -0.820809 21 22 20 2 3
-0.227127 0.177340 -0.819136 22 23 21 2 3
-0.233138 0.193409 -0.821852 22 22 21 2 3
-0.210261 0.191247 -0.822503 20 21 20 2 3
-0.014198 -0.437236 -0.821773 46 42 36 2 3
-0.037071 -0.440547 -0.819551 39 36 30 2 3
0.317748 -0.188221 -0.836453 29 29 31 2 3
0.293691 -0.206359 -0.834223 31 30 33 2 3
0.386735 -0.197089 -0.517687 162 119 78 14 2
-0.033843 -0.112946 -0.723721 16 18 18 5 6
-0.039967 -0.125586 -0.718586 17 19 19 5 6
-0.041306 -0.113891 -0.730469 17 19 19 5 6
-0.045550 -0.123661 -0.727605 17 19 19 5 6
-0.038671 -0.127858 -0.711214 17 19 18 5 6
-0.023018 -0.115740 -0.713107 18 19 19 5 6
-0.034822 -0.123618 -0.706875 17 19 18 5 6
-0.343919 0.480134 -0.823628 47 41 39 0 0
-0.120112 -0.093212 -0.713883 13 14 15 5 6
-0.242352 -0.137443 -0.816144 30 29 25 2 3
-0.219566 -0.137341 -0.817639 30 29 25 2 3
0.361460 -0.170432 -0.835126 26 26 29 2 3
0.384760 -0.146388 -0.836585 24 25 26 2 3
-0.205159 -0.119430 -0.817991 30 28 26 2 3
-0.192549 -0.169206 -0.819953 29 29 26 2 3
-0.208860 -0.143708 -0.819033 31 30 27 2 3
-0.184102 -0.139897 -0.819683 28 26 24 2 3
-0.395095 -0.362090 -0.815251 36 32 29 2 3
-0.185830 -0.472214 -0.816079 41 38 33 2 3
0.424095 -0.212099 -0.817083 33 32 33 2 3
0.412496 -0.214412 -0.829841 32 32 33 2 3
0.417973 -0.218326 -0.820059 31 31 34 2 3
0.402304 -0.210631 -0.829827 30 31 31 2 3
0.397591 -0.226736 -0.831834 36 34 35 2 3
0.404928 -0.228158 -0.829830 34 34 35 2 3
-0.229566 -0.113804 -0.816379 29 28 24 2 3
-0.213610 -0.106526 -0.816288 28 27 24 2 3
-0.234789 -0.090485 -0.815603 28 27 23 2 3
0.138224 -0.362156 -0.826268 43 39 34 2 3
0.136097 -0.395436 -0.823051 42 38 34 2 3
0.122350 -0.370241 -0.824994 46 39 36 2 3
0.149374 -0.379069 -0.824435 44 39 35 2 3
0.026631 -0.278167 -0.824102 37 36 31 2 3
0.101606 -0.206710 -0.491554 15 16 16 5 6
0.098875 -0.217292 -0.486238 22 21 24 5 6
0.518897 -0.195020 -0.557635 165 122 82 14 2
-0.132196 -0.030835 -0.815257 17 17 24 2 3
-0.149785 -0.049356 -0.818435 17 17 24 2 3
-0.144249 -0.020402 -0.818583 16 17 22 2 3
0.202519 0.159581 -0.534947 17 19 19 14 2
0.353476 -0.191307 -0.460063 166 132 98 14 2
0.328605 -0.190400 -0.468837 195 157 120 14 2
-0.212283 0.168893 -0.819328 29 29 30 2 3
-0.230022 0.135828 -0.823305 27 27 29 2 3
-0.213917 0.151350 -0.824492 25 25 26 2 3
-0.239148 0.138520 -0.819151 21 21 26 2 3
-0.222474 0.149938 -0.821752 26 27 29 2 3
0.215991 -0.094204 -0.704157 32 27 25 14 2
0.304528 -0.195364 -0.490457 161 116 76 14 2
0.130580 -0.164354 -0.415253 9 10 10 5 6
0.114910 -0.181099 -0.414793 10 12 12 5 6
0.013581 -0.071557 -0.692623 15 18 21 5 6
0.040355 -0.059273 -0.700740 10 11 12 5 6
0.045579 -0.060504 -0.711419 15 16 17 5 6
0.024418 -0.087726 -0.699922 15 18 19 5 6
0.023982 -0.068636 -0.687435 15 18 20 5 6
0.039147 -0.065375 -0.688608 20 21 23 5 6
0.033707 -0.074678 -0.681179 12 16 19 5 6
0.028491 -0.074625 -0.694618 12 16 19 5 6
0.035020 -0.074402 -0.701412 14 16 18 5 6
-0.018714 -0.046142 -0.665633 18 20 19 5 6
-0.024869 -0.046909 -0.665786 18 20 19 5 6
-0.026596 -0.044238 -0.653058 19 21 20 5 6
-0.033517 -0.042028 -0.647785 25 27 28 5 6
0.216335 -0.128093 -0.433006 83 66 50 14 2
0.177507 -0.048043 -0.377829 9 9 11 5 6
0.169894 -0.052735 -0.373721 9 8 10 5 6
0.175709 -0.061015 -0.391066 9 8 9 5 6
0.469017 -0.196757 -0.585519 150 114 77 14 2
0.474959 -0.198038 -0.618486 151 112 77 14 2
0.495132 -0.196882 -0.628395 146 109 74 14 2
0.456438 -0.196489 -0.612692 150 112 75 14 2
-0.089800 -0.216948 -0.729601 14 15 19 5 6
-0.086869 -0.204082 -0.732223 15 16 20 5 6
0.085390 -0.085406 -0.380285 21 25 26 5 6
0.196819 0.210917 -0.699248 17 20 20 14 2
0.193861 0.242046 -0.672190 21 22 23 14 2
0.197521 0.222530 -0.683265 19 21 22 14 2
0.200383 0.238547 -0.699040 18 20 19 14 2
0.195150 0.232977 -0.682351 21 22 23 14 2
0.196751 0.231628 -0.699564 17 18 18 14 2
0.196921 0.239728 -0.689534 22 23 24 14 2
0.213905 -0.138097 -0.524162 106 83 58 14 2
0.215910 -0.152416 -0.529662 111 86 64 14 2
0.064452 -0.258696 -0.420090 21 22 23 5 6
0.072729 -0.259354 -0.422611 23 21 25 5 6
0.066029 -0.260188 -0.435449 21 23 24 5 6
0.077822 -0.252908 -0.435590 23 22 25 5 6
-0.218001 -0.466356 -0.815449 40 38 33 2 3
-0.232462 -0.451893 -0.816146 39 36 32 2 3
-0.236912 -0.465761 -0.815539 41 38 32 2 3
-0.041079 -0.097889 -0.823382 21 22 20 2 3
-0.309775 0.481134 -0.765015 13 13 17 0 0
-0.311771 0.497329 -0.763188 26 29 32 0 0
0.049874 -0.313111 -0.822131 40 37 34 2 3
0.052868 -0.347592 -0.824890 40 36 31 2 3
0.030667 -0.316480 -0.822128 38 36 31 2 3
-0.366647 0.198962 -0.628447 45 41 41 14 2
0.213161 -0.042362 -0.793393 29 26 26 14 2
0.214692 -0.027871 -0.783014 28 24 24 14 2
0.229169 -0.194691 -0.492871 165 127 91 14 2
0.223005 -0.184337 -0.504865 154 117 82 14 2
-0.297710 -0.054866 -0.377045 20 20 18 5 6
0.394078 -0.191540 -0.668841 79 57 43 14 2
0.389250 -0.193560 -0.649082 82 61 42 14 2
0.384878 -0.191881 -0.667637 82 61 42 14 2
0.220798 -0.174290 -0.494912 122 94 68 14 2
0.216584 -0.155512 -0.510662 114 88 65 14 2
0.215210 -0.141014 -0.491037 111 85 63 14 2
0.209870 0.006371 -0.713887 35 27 23 14 2
0.207450 0.037259 -0.726177 31 27 22 14 2
0.206791 0.045322 -0.717912 28 22 19 14 2
0.207983 0.031161 -0.705662 30 25 20 14 2
-0.370312 0.027845 -0.817081 16 16 25 2 3
-0.370912 0.049399 -0.819389 17 18 24 2 3
-0.380765 0.045220 -0.818266 19 20 26 2 3
-0.291260 0.138504 -0.612514 22 23 29 14 2
0.543802 -0.204088 -0.710507 100 73 52 14 2
0.200926 0.107025 -0.684587 16 14 13 14 2
0.203477 0.084836 -0.692358 20 17 13 14 2
0.204605 0.116357 -0.801740 22 21 20 14 2
0.205659 0.111441 -0.768662 22 21 21 14 2
-0.062633 -0.304128 -0.819781 32 32 28 2 3
0.205242 -0.158166 -0.747350 22 21 26 2 3
0.197290 -0.160800 -0.741200 19 20 24 2 3
0.184071 -0.141136 -0.747924 22 21 22 2 3
0.204137 -0.144227 -0.751565 23 22 26 2 3
-0.045799 -0.072492 -0.678063 17 20 19 5 6
-0.073339 -0.076649 -0.681928 17 19 18 5 6
0.195402 -0.050873 -0.839349 15 16 15 14 2
-0.244846 -0.152877 -0.439978 22 23 32 5 6
-0.232969 -0.185207 -0.425830 23 24 27 5 6
-0.238322 -0.166229 -0.440447 20 19 23 5 6
-0.283934 0.042798 -0.811947 19 21 21 2 3
-0.272527 0.038904 -0.810661 19 21 21 2 3
-0.268906 0.065860 -0.823023 19 20 20 2 3
-0.278394 0.053498 -0.819179 19 21 21 2 3
-0.096901 -0.111967 -0.699179 14 16 21 5 6
-0.088593 -0.107158 -0.694660 16 18 19 5 6
-0.105819 -0.115110 -0.698890 14 16 20 5 6
0.138895 -0.273311 -0.823560 36 35 31 2 3
-0.245395 -0.031569 -0.731957 24 26 25 5 6
-0.242322 -0.055424 -0.729625 19 21 20 5 6
-0.258543 -0.049784 -0.725746 24 26 25 5 6
-0.232389 -0.048943 -0.718201 25 27 26 5 6
-0.238443 -0.040602 -0.722699 21 23 22 5 6
-0.242786 -0.056002 -0.719317 26 28 27 5 6
-0.161408 -0.296209 -0.488414 20 23 30 5 6
-0.144058 -0.299156 -0.488610 22 24 31 5 6
0.119780 -0.087586 -0.382035 24 30 37 5 6
0.101555 -0.090430 -0.385091 33 40 49 5 6
0.091457 -0.080415 -0.383074 22 24 26 5 6
0.096875 -0.058731 -0.383954 19 23 27 5 6
0.085279 -0.102320 -0.388295 27 31 36 5 6
0.085575 -0.069782 -0.378443 23 25 27 5 6
0.574643 -0.192710 -0.552662 148 107 68 14 2
0.137132 0.010743 -0.370169 37 41 45 5 6
0.174502 -0.189501 -0.783179 15 17 22 5 6
0.178331 -0.197947 -0.786797 16 17 23 5 6
0.182305 -0.190940 -0.770103 17 18 23 5 6
0.200950 -0.189014 -0.778378 17 16 22 2 3
-0.195254 -0.250384 -0.488730 16 17 22 5 6
-0.200905 -0.222829 -0.511324 16 18 22 5 6
-0.194958 -0.247447 -0.503863 17 18 23 5 6
-0.206204 -0.229441 -0.495918 8 9 11 5 6
-0.209775 -0.224356 -0.500539 12 13 16 5 6
-0.200448 -0.235395 -0.505183 16 17 22 5 6
-0.197178 -0.236506 -0.492301 14 16 20 5 6
-0.201390 -0.226626 -0.499413 13 15 19 5 6
-0.202482 -0.223594 -0.493467 12 12 12 5 6
0.171688 0.205816 -0.609575 19 22 21 14 2
0.011735 -0.084958 -0.694842 13 17 20 5 6
0.004001 -0.081924 -0.686621 14 15 23 5 6
0.004204 -0.070651 -0.681926 17 19 19 5 6
-0.007984 -0.074293 -0.687860 17 19 18 5 6
0.004142 -0.059776 -0.679173 17 19 19 5 6
0.012442 -0.061863 -0.683355 16 17 18 5 6
0.016918 -0.061397 -0.677576 16 17 18 5 6
0.023626 -0.059697 -0.680448 15 18 19 5 6
-0.003321 -0.060486 -0.684350 17 19 19 5 6
0.000974 -0.055807 -0.673915 17 19 18 5 6
-0.326275 0.487642 -0.830305 51 47 43 0 0
-0.320678 0.478701 -0.829250 31 29 28 0 0
-0.328646 0.494226 -0.819116 85 74 62 0 0
-0.315730 0.488713 -0.826090 75 65 57 0 0
-0.317223 0.489477 -0.817025 32 31 30 0 0
-0.310501 0.478509 -0.807872 37 33 31 0 0
-0.307259 0.493320 -0.811208 26 25 24 0 0
-0.350335 -0.038962 -0.767287 20 20 21 2 3
-0.335761 -0.035966 -0.738823 23 23 25 5 6
-0.348272 -0.034156 -0.746168 10 10 10 2 3
-0.353873 -0.028530 -0.766386 16 16 16 2 3
0.585126 -0.193998 -0.580106 160 121 81 14 2
-0.076404 -0.215495 -0.408968 18 20 19 5 6
-0.050076 -0.216847 -0.407838 18 20 19 5 6
-0.346583 0.151642 -0.584867 46 39 35 14 2
-0.350545 0.180718 -0.601677 77 68 62 14 2
0.226901 -0.174060 -0.594581 133 105 79 14 2
0.231501 -0.184982 -0.592242 103 77 55 14 2
0.235742 -0.188523 -0.587625 158 121 87 14 2
-0.084523 -0.196668 -0.820674 24 25 21 2 3
-0.068530 -0.196703 -0.820402 24 25 20 2 3
-0.053175 -0.181228 -0.821039 23 24 18 2 3
0.354149 -0.190449 -0.679571 80 60 45 14 2
0.348975 -0.189747 -0.655309 86 61 46 14 2
0.360714 -0.190243 -0.658958 81 60 46 14 2
0.031943 -0.203418 -0.825497 33 32 29 2 3
-0.099386 -0.298965 -0.748558 18 19 20 2 3
-0.101371 -0.295782 -0.761309 18 20 21 2 3
0.386510 -0.223042 -0.830049 36 35 35 2 3
0.374148 -0.239841 -0.834656 38 35 36 2 3
0.383151 -0.239976 -0.831232 41 37 38 2 3
-0.125353 -0.294717 -0.440587 20 21 21 5 6
-0.117147 -0.279093 -0.436963 17 19 18 5 6
-0.131730 -0.296663 -0.436820 25 26 26 5 6
-0.120052 -0.289257 -0.430652 17 19 19 5 6
-0.120385 -0.288611 -0.442513 16 19 18 5 6
0.430116 -0.182645 -0.818142 28 29 31 2 3
0.427125 -0.190572 -0.819946 30 30 31 2 3
0.414667 -0.199850 -0.828389 32 31 33 2 3
0.410828 -0.180955 -0.832483 29 29 31 2 3
0.420691 -0.179472 -0.831741 30 29 32 2 3
0.410713 -0.163932 -0.827874 28 28 30 2 3
0.215082 -0.064877 -0.681884 31 26 24 14 2
0.210635 -0.033555 -0.636912 33 25 21 14 2
0.128429 -0.003730 -0.841499 13 15 19 2 3
0.121662 0.012153 -0.841711 13 15 19 2 3
0.109651 0.014979 -0.844790 13 16 20 2 3
0.096047 0.027322 -0.839180 13 16 20 2 3
0.112306 0.022559 -0.832892 13 16 20 2 3
-0.278849 0.176428 -0.814954 23 24 22 2 3
-0.284521 0.145971 -0.820436 24 24 22 2 3
0.106403 -0.135193 -0.731760 13 17 20 5 6
0.106039 -0.133197 -0.742090 13 17 20 5 6
0.090819 -0.127218 -0.726908 13 16 20 5 6
0.088701 -0.124464 -0.735439 13 17 20 5 6
0.105221 -0.128800 -0.726132 14 17 20 5 6
-0.076262 -0.063168 -0.670323 18 20 19 5 6
-0.042483 -0.053056 -0.659591 18 20 19 5 6
-0.061376 -0.045147 -0.645823 26 27 28 5 6
-0.052726 -0.061872 -0.666101 18 20 19 5 6
-0.071890 -0.057141 -0.654159 18 20 19 5 6
0.017885 -0.005786 -0.813816 19 20 20 2 3
0.030337 -0.014918 -0.812302 18 20 19 2 3
0.002520 -0.016446 -0.820457 17 19 19 2 3
0.011741 0.000487 -0.810825 20 22 22 2 3
0.004551 0.002104 -0.815001 20 21 22 2 3
-0.342980 0.134608 -0.820905 21 22 22 2 3
-0.316489 0.109881 -0.820997 21 22 22 2 3
-0.307478 0.140019 -0.821430 22 22 22 2 3
-0.229652 -0.175001 -0.403315 23 22 21 5 6
-0.219116 -0.192552 -0.420017 23 23 23 5 6
-0.238757 -0.178405 -0.413514 26 25 25 5 6
-0.209678 -0.173117 -0.396639 22 22 24 5 6
-0.232629 -0.161491 -0.395878 22 22 25 5 6
-0.105658 -0.063046 -0.670436 21 22 24 5 6
-0.093426 -0.066077 -0.672365 19 20 21 5 6
-0.080183 -0.049167 -0.655580 17 19 18 5 6
-0.085884 -0.040745 -0.662887 18 20 19 5 6
-0.099547 -0.075051 -0.674732 18 21 22 5 6
-0.087716 -0.060399 -0.661868 21 22 26 5 6
0.174879 0.165808 -0.811534 21 22 24 2 3
-0.367264 -0.070119 -0.799713 24 24 24 2 3
-0.375360 -0.057595 -0.802764 26 26 26 2 3
-0.355187 -0.056004 -0.775391 22 22 22 2 3
0.208915 0.011602 -0.698287 31 25 21 14 2
0.210385 -0.013736 -0.692162 35 27 23 14 2
0.009401 -0.048313 -0.680875 17 19 21 5 6
0.005080 -0.032601 -0.683770 16 17 17 5 6
-0.104900 -0.260485 -0.766892 19 20 23 2 3
-0.100638 -0.277506 -0.743680 19 20 20 2 3
-0.109099 -0.261324 -0.777428 19 19 18 2 3
-0.101200 -0.271002 -0.758466 16 18 21 2 3
0.176433 0.207766 -0.623380 24 25 22 14 2
0.172527 0.172648 -0.792538 24 25 26 2 3
0.167763 0.161437 -0.787747 24 26 26 2 3
0.160320 0.150254 -0.789626 23 24 26 2 3
0.166323 0.164334 -0.781316 16 17 17 2 3
0.431961 -0.227195 -0.831229 18 18 18 2 3
-0.165759 -0.235143 -0.427974 24 27 34 5 6
-0.291605 -0.427385 -0.815073 40 36 32 2 3
-0.272229 -0.430481 -0.814524 40 37 32 2 3
-0.285333 -0.404667 -0.814863 40 37 33 2 3
0.289513 -0.191632 -0.464254 184 146 107 14 2
0.305475 -0.193145 -0.448945 192 153 117 14 2
0.261236 -0.195322 -0.485956 172 130 87 14 2
0.280413 -0.197248 -0.493415 171 128 87 14 2
0.272329 -0.192270 -0.473665 172 130 88 14 2
0.107244 -0.091012 -0.755055 15 18 20 5 6
0.090013 -0.089920 -0.738837 13 15 19 5 6
0.100062 -0.091446 -0.747094 14 16 20 5 6
0.086251 -0.078888 -0.748081 14 15 20 5 6
-0.155123 -0.472476 -0.816692 42 37 32 2 3
-0.139372 -0.493647 -0.817242 45 39 35 2 3
0.226400 -0.175081 -0.630662 92 69 50 14 2
-0.164002 0.035815 -0.815338 22 23 24 2 3
-0.164632 0.049049 -0.808734 19 19 21 2 3
-0.166868 0.043898 -0.809296 19 21 20 2 3
-0.178608 0.041644 -0.809526 19 21 20 2 3
0.241226 -0.188051 -0.598870 100 75 53 14 2
0.081180 -0.440552 -0.820183 46 41 38 2 3
0.058058 -0.425853 -0.821735 45 38 35 2 3
0.294521 -0.173463 -0.367662 173 132 92 14 2
0.313138 -0.173309 -0.363675 172 132 91 14 2
0.313100 -0.195746 -0.547376 174 132 92 14 2
-0.010036 -0.084903 -0.823120 19 20 19 2 3
-0.032005 -0.078941 -0.821725 18 20 19 2 3
0.021417 -0.011918 -0.804671 19 21 20 2 3
0.306719 -0.191617 -0.591826 151 111 76 14 2
0.459094 -0.196336 -0.737462 68 50 36 14 2
0.484656 -0.187740 -0.745785 69 51 38 14 2
0.476946 -0.199211 -0.713677 64 47 32 14 2
0.458580 -0.199925 -0.719249 70 53 40 14 2
0.455209 -0.198135 -0.705876 71 54 40 14 2
0.484997 -0.200746 -0.720478 49 38 28 14 2
0.468969 -0.194099 -0.731798 69 54 40 14 2
0.487695 -0.194738 -0.735404 67 50 36 14 2
0.473040 -0.196604 -0.723082 69 52 40 14 2
0.213676 -0.113915 -0.496662 42 31 24 14 2
0.232944 -0.187526 -0.662122 90 67 50 14 2
0.238910 -0.190773 -0.667897 91 67 49 14 2
0.261915 -0.190199 -0.668802 90 68 48 14 2
-0.289427 0.280146 -0.820460 27 27 35 2 3
-0.290629 0.286828 -0.812217 30 29 38 2 3
0.115864 0.086997 -0.820019 19 20 23 2 3
0.102200 0.060032 -0.823688 14 18 21 2 3
0.121506 0.054391 -0.824355 16 19 21 2 3
0.124674 0.095579 -0.820373 20 21 24 2 3
0.133465 0.075458 -0.823076 20 21 24 2 3
-0.214373 -0.047110 -0.739837 16 19 22 5 6
-0.211282 -0.037913 -0.744288 17 19 22 5 6
-0.221677 -0.032924 -0.749740 16 19 21 5 6
0.397073 -0.196371 -0.653464 135 99 69 14 2
0.533485 -0.193204 -0.500605 151 114 78 14 2
0.554759 -0.193634 -0.519243 152 111 71 14 2
0.523462 -0.190970 -0.483736 158 115 74 14 2
0.256018 -0.152366 -0.830795 23 22 24 2 3
0.251315 -0.135662 -0.824432 40 33 27 2 3
0.272126 -0.138003 -0.829955 50 41 32 2 3
0.270716 -0.117492 -0.817999 66 50 38 14 2
0.260540 -0.119998 -0.810235 82 62 46 14 2
0.247281 -0.127446 -0.806182 50 39 31 2 3
0.240912 -0.139277 -0.813438 36 31 27 2 3
0.256716 -0.129944 -0.820660 58 47 38 2 3
0.257614 -0.122094 -0.819932 58 44 34 2 3
0.073616 -0.237098 -0.418223 18 19 21 5 6
0.067483 -0.255736 -0.408578 18 19 21 5 6
0.070384 -0.222761 -0.417626 17 19 21 5 6
-0.136353 -0.316171 -0.469534 16 16 24 5 6
-0.125917 -0.304904 -0.460458 24 23 25 5 6
-0.307099 -0.159846 -0.814924 31 30 26 2 3
-0.323915 -0.170336 -0.815412 30 29 25 2 3
0.404426 -0.192730 -0.739850 72 56 40 14 2
-0.081814 -0.240055 -0.820090 23 23 21 2 3
-0.071496 -0.257177 -0.820051 24 25 22 2 3
-0.091605 -0.236726 -0.817125 23 23 21 2 3
-0.081562 -0.266308 -0.815045 22 22 22 2 3
0.419000 -0.198768 -0.645969 142 104 71 14 2
0.410915 -0.197999 -0.626096 143 106 74 14 2
0.392286 -0.198934 -0.609926 152 114 78 14 2
-0.296861 -0.041701 -0.817782 27 26 25 2 3
-0.265983 -0.057756 -0.817298 27 27 24 2 3
-0.290404 -0.072255 -0.379877 21 24 30 5 6
-0.277478 -0.088245 -0.382939 22 22 22 5 6
-0.297768 -0.062133 -0.389684 22 21 24 5 6
-0.275772 -0.076359 -0.378434 19 21 28 5 6
-0.290415 -0.057364 -0.377498 21 23 30 5 6
0.206106 0.074359 -0.637380 22 17 13 14 2
0.202914 0.066206 -0.672647 22 20 16 14 2
0.205199 0.065195 -0.646662 21 18 15 14 2
-0.130686 -0.317982 -0.803442 28 27 24 5 6
-0.126839 -0.327425 -0.810165 33 33 29 5 6
0.119404 -0.165141 -0.443538 9 10 13 5 6
0.131293 -0.148431 -0.441314 14 13 19 5 6
0.118232 -0.158210 -0.449911 10 11 15 5 6
0.195864 0.054642 -0.429100 14 17 17 5 6
0.192648 0.045374 -0.421701 14 17 17 5 6
-0.134140 -0.277639 -0.384749 23 25 25 5 6
-0.134827 -0.283422 -0.407074 22 25 24 5 6
-0.152923 -0.270792 -0.412198 22 24 31 5 6
-0.158829 -0.262581 -0.410490 20 22 26 5 6
-0.144100 -0.275971 -0.396415 22 24 27 5 6
-0.145989 -0.266321 -0.388563 24 26 33 5 6
0.052010 -0.293428 -0.481081 17 20 21 5 6
0.069045 -0.276141 -0.494015 18 20 19 5 6
0.204437 0.073476 -0.453919 18 22 22 14 2
0.204298 0.053374 -0.446634 17 21 22 14 2
0.201696 0.063442 -0.433976 14 19 20 14 2
-0.245527 -0.168456 -0.422264 33 29 28 5 6
0.008600 -0.271358 -0.494625 17 18 18 5 6
0.006159 -0.282643 -0.484169 17 18 20 5 6
0.016468 -0.281643 -0.484683 19 20 20 5 6
-0.352362 0.114120 -0.820176 20 21 25 2 3
-0.360852 0.089000 -0.822431 20 21 25 2 3
-0.371158 0.101432 -0.821510 20 21 25 2 3
0.207451 0.087875 -0.796329 18 21 23 14 2
0.204184 0.098048 -0.784716 27 24 24 14 2
0.300191 -0.176099 -0.416306 206 168 127 14 2
0.312754 -0.177746 -0.426392 211 173 132 14 2
0.205748 0.042453 -0.662662 26 21 18 14 2
0.207941 0.015045 -0.651099 26 21 18 14 2
0.208627 0.010455 -0.667662 30 22 20 14 2
0.186216 -0.423509 -0.821897 43 40 35 2 3
0.202893 -0.397963 -0.825133 45 41 34 2 3
0.187120 -0.391045 -0.825666 41 38 32 2 3
0.192388 -0.369146 -0.827524 44 41 35 2 3
0.199121 0.113599 -0.819374 16 20 21 2 3
0.180697 0.084556 -0.822819 15 19 21 2 3
0.195691 0.092252 -0.824014 15 19 20 2 3
0.167800 0.105457 -0.823777 16 19 22 2 3
0.174772 0.126006 -0.823031 18 19 21 2 3
0.190975 0.109155 -0.823684 15 19 20 2 3
0.335904 -0.174301 -0.373962 169 132 94 14 2
0.251423 -0.188562 -0.726807 80 60 45 14 2
0.273159 -0.186982 -0.723190 78 57 42 14 2
0.189448 -0.134768 -0.765146 13 14 16 2 3
0.180365 -0.130198 -0.759849 17 20 21 2 3
0.212042 -0.111290 -0.766609 31 25 26 14 2
0.196841 -0.141186 -0.756969 24 23 26 2 3
0.201174 -0.131496 -0.770108 18 19 21 14 2
-0.327040 0.052220 -0.820758 16 18 23 2 3
-0.323162 0.023657 -0.801889 15 16 19 2 3
0.101256 0.169060 -0.823612 23 26 27 2 3
0.078253 0.146131 -0.823322 20 21 23 2 3
0.100061 0.145429 -0.824192 20 22 23 2 3
-0.224294 -0.083293 -0.815384 27 26 22 2 3
-0.278540 -0.455876 -0.814094 34 32 27 2 3
-0.300091 -0.448818 -0.814015 39 35 30 2 3
-0.290805 -0.462170 -0.813164 36 35 30 2 3
0.188210 0.022023 -0.404322 14 17 19 5 6
0.192010 0.042081 -0.404518 15 19 21 5 6
0.189256 0.032851 -0.396133 14 18 18 5 6
0.187829 0.030671 -0.419464 8 10 11 5 6
-0.016798 -0.272344 -0.821797 35 32 28 2 3
-0.249287 -0.120032 -0.383457 21 21 19 5 6
0.216546 -0.105404 -0.397850 49 37 27 14 2
-0.336506 0.141149 -0.628998 31 30 37 14 2
-0.313494 0.146320 -0.620108 24 25 27 14 2
-0.314587 0.143212 -0.606591 24 25 27 14 2
0.207595 0.044760 -0.605037 22 18 16 14 2
0.111791 -0.183354 -0.426148 8 9 13 5 6
0.111052 -0.178950 -0.439107 8 9 13 5 6
0.127651 -0.163267 -0.430360 9 10 11 5 6
0.038742 -0.298632 -0.463616 22 23 26 5 6
0.051274 -0.297450 -0.467133 19 21 21 5 6
0.031998 -0.283407 -0.481486 18 19 24 5 6
0.043397 -0.299176 -0.471978 16 19 23 5 6
0.055551 -0.290598 -0.460788 20 21 22 5 6
0.035818 -0.289902 -0.452698 23 24 26 5 6
-0.030374 -0.145168 -0.822853 23 24 19 2 3
-0.055845 -0.150577 -0.822587 23 24 19 2 3
0.189022 -0.204239 -0.788602 19 19 26 2 3
0.013654 -0.477685 -0.818332 43 40 36 2 3
0.036232 -0.496822 -0.818923 43 40 35 2 3
0.026402 -0.485384 -0.819276 46 42 39 2 3
-0.128855 -0.012181 -0.798218 17 18 23 2 3
0.210635 -0.049337 -0.609912 38 26 22 14 2
-0.003785 -0.481662 -0.818562 44 41 35 2 3
-0.033038 -0.486209 -0.816818 44 39 36 2 3
-0.017472 -0.498877 -0.818541 42 39 34 2 3
0.190862 0.212848 -0.776825 17 19 19 14 2
0.093239 -0.150779 -0.392120 10 12 18 5 6
0.102242 -0.140598 -0.387869 8 10 10 5 6
-0.429917 -0.361701 -0.814149 34 32 28 2 3
0.214475 -0.067696 -0.800268 29 26 26 14 2
-0.341348 -0.087726 -0.808269 28 27 24 2 3
-0.354076 -0.088410 -0.808274 28 27 24 2 3
-0.361376 -0.101514 -0.813796 28 28 25 2 3
-0.334174 -0.098193 -0.813684 30 29 25 2 3
-0.354720 -0.096303 -0.811918 28 28 24 2 3
0.052429 -0.266540 -0.408108 20 21 21 5 6
0.035917 -0.268223 -0.387168 20 22 24 5 6
0.040119 -0.275146 -0.404825 20 21 23 5 6
0.042614 -0.283408 -0.421604 19 21 23 5 6
0.059915 -0.257255 -0.409948 20 21 21 5 6
0.053011 -0.259748 -0.388600 19 21 23 5 6
0.577520 -0.196124 -0.604852 160 120 83 14 2
0.577400 -0.195872 -0.593408 164 125 87 14 2
-0.027799 -0.079110 -0.685438 17 18 18 5 6
-0.018800 -0.066856 -0.681738 16 18 18 5 6
-0.029898 -0.057816 -0.670573 17 19 18 5 6
-0.015348 -0.053310 -0.674452 18 20 19 5 6
0.200635 0.218196 -0.740806 18 19 19 14 2
0.197770 0.225593 -0.709144 17 20 20 14 2
0.201396 0.230217 -0.729645 20 23 23 14 2
0.199078 0.240354 -0.719339 21 22 21 14 2
-0.117809 -0.286212 -0.457534 17 19 18 5 6
-0.119162 -0.300754 -0.475796 21 21 23 5 6
-0.112310 -0.285550 -0.469554 18 21 20 5 6
-0.105519 -0.273947 -0.466299 21 26 24 5 6
0.176302 -0.012072 -0.833267 15 19 22 2 3
0.182996 0.011882 -0.827158 18 18 22 2 3
0.105107 -0.124257 -0.826701 32 32 28 2 3
0.136847 -0.104111 -0.821830 20 21 25 2 3
0.123087 -0.101169 -0.824919 24 25 26 2 3
0.092684 -0.206906 -0.479336 17 19 18 5 6
0.138564 -0.190209 -0.827514 33 32 29 2 3
0.462169 -0.162835 -0.200674 189 147 97 14 2
0.438958 -0.163526 -0.217412 185 142 93 14 2
0.336527 0.402829 0.341414 159 154 143 15 5
0.323020 0.409323 0.339385 155 150 140 15 5
0.308828 0.406077 0.341189 222 221 216 15 5
0.116672 0.442800 0.042708 224 221 212 15 5
0.254236 -0.161052 -0.103603 161 117 75 14 2
0.239910 -0.156793 -0.124117 180 139 94 14 2
0.264316 -0.156585 -0.123661 181 139 95 14 2
-0.089864 -0.218806 -0.171585 24 26 25 5 6
-0.075427 -0.225971 -0.141118 24 26 25 5 6
-0.259723 -0.237588 -0.060219 29 32 38 5 6
-0.254048 -0.245512 -0.057121 38 42 58 5 6
-0.054799 0.347819 0.021304 127 118 108 15 5
-0.037664 0.356242 0.018824 129 121 110 15 5
-0.034778 0.365969 0.020240 124 117 107 15 5
-0.067100 0.376184 0.020141 123 116 108 15 5
-0.030771 0.342157 0.023596 131 123 112 15 5
0.297108 0.396923 0.040577 238 234 228 15 5
0.300703 0.362010 0.038712 239 236 229 15 5
-0.017057 -0.212539 -0.264848 52 54 66 5 6
0.012797 -0.215020 -0.276035 50 53 65 5 6
-0.319509 -0.178331 -0.062012 141 110 69 14 2
-0.295716 -0.182151 -0.064083 137 108 73 14 2
0.153379 0.376563 -0.060526 179 169 148 14 2
0.060093 0.355084 0.354008 239 239 234 15 5
0.045659 0.345228 0.350381 237 238 232 15 5
0.285183 -0.061298 -0.058675 221 215 197 14 2
0.269994 -0.024907 -0.058222 220 215 196 14 2
0.251512 0.383479 0.040328 236 233 226 15 5
-0.174317 0.332138 0.029507 117 111 101 15 5
-0.151821 0.333031 0.029389 121 114 103 15 5
-0.179702 0.347655 0.020536 114 107 98 15 5
-0.327413 0.426687 0.043449 199 195 184 15 5
0.127967 0.387466 0.342325 235 234 229 15 5
0.130941 0.400225 0.344050 220 220 215 15 5
0.134941 0.417064 0.340436 160 158 149 15 5
0.115392 0.416597 0.340492 199 198 191 15 5
0.125391 0.417468 0.341689 200 198 190 15 5
0.305417 0.368858 0.018841 163 154 144 15 5
0.298897 0.398917 0.020617 156 149 139 15 5
0.315434 0.379650 0.022040 238 234 227 15 5
0.315071 0.393161 0.021571 228 225 217 15 5
0.321221 0.358314 0.014156 146 135 121 15 5
0.122679 0.417747 -0.064717 149 139 120 14 2
-0.294376 0.352320 -0.057147 145 138 119 14 2
-0.321500 0.347694 -0.058314 147 139 121 14 2
-0.090972 0.176438 -0.057155 200 193 174 14 2
-0.229091 0.414685 0.360215 197 196 187 15 5
-0.242988 0.407664 0.363022 197 194 184 15 5
-0.224826 0.397378 0.362748 188 186 177 15 5
-0.173105 0.370014 0.363975 172 170 162 15 5
-0.154058 0.380943 0.361636 189 187 179 15 5
0.033380 -0.236250 -0.064225 17 22 24 5 6
0.045650 -0.238680 -0.063414 22 23 28 5 6
0.060329 -0.232509 -0.041031 20 24 23 5 6
0.064795 -0.238525 -0.065050 20 21 25 5 6
0.058790 -0.255135 -0.036887 21 21 25 5 6
0.059516 -0.242846 -0.031055 20 23 22 5 6
0.049562 -0.232748 -0.053860 17 22 24 5 6
0.058746 -0.231546 -0.053226 17 21 24 5 6
0.047200 -0.233051 -0.045320 17 21 23 5 6
-0.375176 -0.182435 -0.152043 49 37 26 14 2
-0.345873 -0.183792 -0.150242 47 34 21 14 2
-0.351675 -0.170727 -0.160822 63 49 30 14 2
-0.356462 -0.185415 -0.146570 137 112 77 14 2
-0.376833 -0.178331 -0.132045 151 120 81 14 2
0.369719 0.342214 0.454233 252 253 247 15 5
0.369917 0.344107 0.483315 253 254 249 15 5
0.365954 0.345822 0.445808 254 255 250 15 5
0.373764 0.343588 0.463961 251 251 246 15 5
0.379319 0.349611 0.454578 250 251 246 15 5
-0.211611 -0.132642 -0.057435 218 219 212 14 2
-0.176638 -0.122081 -0.058777 216 217 207 14 2
0.086527 0.370606 0.019870 128 121 111 15 5
0.070014 0.379117 0.022432 217 213 206 15 5
0.086037 0.395938 0.023258 214 212 205 15 5
0.104750 0.389707 0.021383 157 152 144 15 5
0.183231 -0.164191 -0.079728 87 67 42 14 2
0.195832 -0.162053 -0.094689 38 28 20 14 2
0.187135 -0.164094 -0.072330 73 45 23 14 2
0.000431 0.389265 0.359039 224 224 218 15 5
0.024529 0.387269 0.358854 223 222 217 15 5
-0.137412 -0.079217 -0.057757 217 217 205 14 2
-0.166855 -0.072510 -0.057280 214 214 205 14 2
0.044239 -0.237235 -0.076026 25 25 28 5 6
0.074985 -0.233041 -0.080297 23 24 27 5 6
0.061903 -0.231076 -0.088310 26 25 30 5 6
-0.028702 0.410279 0.341497 194 193 187 15 5
0.366406 0.348124 0.480938 254 255 250 15 5
0.376954 0.346532 0.484069 252 253 248 15 5
0.378487 0.348023 0.512184 251 252 246 15 5
0.363375 0.354736 0.513338 254 255 250 15 5
0.435086 -0.171880 -0.356077 163 125 80 14 2
0.492122 -0.164319 -0.276093 172 130 82 14 2
0.509100 -0.163128 -0.273249 170 126 79 14 2
0.531401 -0.160279 -0.294304 187 142 93 14 2
-0.275986 -0.035006 -0.055958 149 138 111 14 2
0.361161 0.372515 0.612382 254 254 246 15 5
0.360748 0.409802 0.627338 255 254 246 15 5
0.361934 0.420487 0.619338 254 255 246 15 5
-0.391867 -0.081553 -0.136034 22 22 22 14 2
-0.371623 -0.054444 -0.131073 26 24 25 14 2
-0.389376 -0.063582 -0.133305 22 21 20 14 2
-0.398884 -0.056134 -0.132778 23 23 21 14 2
-0.363246 -0.064404 -0.131149 26 23 21 14 2
-0.124199 0.182944 -0.057054 195 188 169 14 2
-0.334716 0.482574 0.345691 204 203 195 15 5
0.031524 0.290392 -0.059253 184 176 155 14 2
0.031070 -0.227480 0.011136 28 30 33 5 6
0.023985 -0.235698 0.018968 23 24 27 5 6
-0.323138 0.337779 0.349537 209 208 201 15 5
-0.321298 0.366915 0.335441 208 204 194 15 5
-0.332080 0.356006 0.335101 207 203 196 15 5
-0.343924 0.349293 0.337051 206 203 196 15 5
-0.162201 -0.124165 -0.061369 39 40 49 14 2
-0.149557 -0.103214 -0.059811 41 42 51 14 2
-0.174207 -0.104697 -0.057690 47 46 50 14 2
0.506950 -0.167778 -0.338429 167 126 83 14 2
0.513946 -0.167424 -0.323998 167 128 83 14 2
-0.243342 0.420992 0.044941 208 204 196 15 5
-0.215269 0.415242 0.044045 209 207 198 15 5
-0.147390 -0.266936 -0.342388 20 23 31 5 6
-0.154338 -0.261593 -0.336457 22 22 29 5 6
-0.138113 -0.263842 -0.335193 21 22 24 5 6
-0.144460 -0.266855 -0.354179 22 25 24 5 6
-0.134018 -0.264946 -0.346251 22 24 23 5 6
0.529611 -0.150998 -0.064546 169 125 74 14 2
-0.132231 0.396305 0.043532 210 208 201 15 5
-0.274098 0.350849 -0.058330 148 141 120 14 2
0.310053 -0.152335 -0.062415 187 141 94 14 2
0.450388 0.377446 -0.062943 190 181 163 14 2
-0.137194 0.383337 0.363752 209 206 200 15 5
-0.135704 0.363644 0.362300 224 223 219 15 5
0.053877 -0.271607 -0.031564 21 22 25 5 6
0.039377 -0.256021 -0.033323 22 23 24 5 6
0.461517 -0.105417 -0.059853 211 189 152 14 2
0.492490 -0.087811 -0.059925 231 229 210 14 2
0.149838 0.400819 -0.062209 158 148 129 14 2
0.252476 0.387020 0.341681 240 238 234 15 5
0.264269 0.397248 0.341473 234 232 228 15 5
0.232161 0.380557 0.338499 230 227 219 15 5
0.266615 0.378394 0.339372 234 234 226 15 5
0.046915 -0.211029 -0.263884 65 70 92 5 6
-0.154478 0.413217 0.043932 209 209 200 15 5
-0.123946 0.438074 0.044240 211 208 199 15 5
-0.003714 0.331636 0.029131 131 123 111 15 5
0.018343 0.341790 0.022473 133 124 112 15 5
0.017058 0.358608 0.016834 134 124 114 15 5
-0.159055 0.338052 0.025097 119 112 102 15 5
-0.153690 0.348732 0.020652 119 111 101 15 5
-0.133800 0.339640 0.025499 121 114 103 15 5
-0.117162 0.438324 0.349798 211 209 204 15 5
-0.270221 0.152237 -0.056793 156 146 124 14 2
-0.027664 -0.216844 -0.183717 25 27 29 5 6
-0.050434 -0.218193 -0.184531 25 26 29 5 6
-0.035547 -0.213617 -0.269073 36 36 43 5 6
-0.035031 -0.217638 -0.282405 33 37 41 5 6
-0.290961 -0.104730 -0.055811 183 178 162 14 2
-0.267515 -0.121725 -0.055455 219 220 214 14 2
-0.278482 -0.076746 -0.055180 217 218 210 14 2
0.217608 -0.088195 -0.345662 58 42 29 14 2
-0.137699 -0.244461 -0.305225 33 35 38 5 6
-0.146934 -0.248420 -0.308499 29 33 35 5 6
-0.161130 -0.257122 -0.317055 22 23 24 5 6
-0.156789 -0.240431 -0.289613 19 20 21 5 6
-0.153879 -0.261329 -0.317854 26 27 28 5 6
-0.149022 -0.263644 -0.331106 29 30 32 5 6
0.376200 0.386690 0.049627 229 226 218 15 5
0.377989 0.367440 0.040217 232 226 218 15 5
0.380813 0.355063 0.048808 227 222 214 15 5
0.373581 0.383042 0.035061 229 226 219 15 5
0.380485 0.354516 0.026669 223 214 205 15 5
0.377482 0.361091 0.027519 235 229 221 15 5
-0.160745 -0.232608 -0.342897 27 28 30 5 6
-0.157583 -0.222984 -0.355341 24 26 28 5 6
-0.166764 -0.236501 -0.320045 19 21 20 5 6
0.198524 -0.140172 -0.059069 181 146 109 14 2
0.017496 0.424882 0.342044 109 108 106 15 5
0.041085 0.432450 0.342279 170 168 162 15 5
0.030044 0.451740 0.347287 230 230 225 15 5
0.025167 0.440193 0.347322 214 214 209 15 5
0.019696 0.423715 0.348716 214 214 209 15 5
0.012057 0.429883 0.348125 220 220 214 15 5
0.026008 0.435024 0.341043 123 118 113 15 5
0.358287 0.390952 0.097338 246 245 239 15 5
0.358981 0.369241 0.109338 246 245 240 15 5
0.359257 0.359649 0.090838 244 243 238 15 5
0.358408 0.377862 0.121338 245 245 239 15 5
0.120568 -0.118860 -0.062326 29 27 28 14 2
0.108746 -0.112869 -0.064825 27 27 29 14 2
0.124164 -0.090879 -0.059036 32 29 29 14 2
0.141019 -0.112732 -0.059935 73 67 63 14 2
0.140577 -0.130319 -0.063183 25 25 25 14 2
-0.011868 0.422953 0.351096 207 204 198 15 5
0.003898 0.420194 0.349682 221 219 213 15 5
-0.140298 -0.212758 -0.253882 25 26 27 5 6
-0.153076 -0.216493 -0.253960 22 24 23 5 6
-0.076379 0.462871 0.348172 225 223 218 15 5
-0.264709 0.409450 -0.064047 131 123 105 14 2
0.378431 0.368744 0.068060 235 233 224 15 5
0.381774 0.354408 0.067517 235 233 224 15 5
0.379097 0.371959 0.079688 235 232 223 15 5
0.377561 0.376707 0.100785 241 241 232 15 5
0.375768 0.386059 0.082777 202 197 188 15 5
-0.213285 0.371433 0.365463 181 177 168 15 5
-0.192542 0.379302 0.364532 171 167 160 15 5
-0.195996 0.364354 0.365360 153 148 142 15 5
-0.216204 0.361706 0.362193 209 209 203 15 5
-0.203334 0.377177 0.367264 143 139 131 15 5
0.259283 0.168738 -0.059204 211 205 185 14 2
-0.180013 -0.224251 -0.153871 25 26 26 5 6
-0.162777 -0.225201 -0.148536 25 26 26 5 6
0.223875 0.363050 0.353165 241 240 235 15 5
0.210659 0.372774 0.357898 239 239 234 15 5
0.232671 0.353963 0.352544 239 238 234 15 5
0.359164 0.390608 0.257338 247 245 236 15 5
0.342261 0.344660 0.018449 150 139 123 15 5
0.336533 0.333400 0.025610 151 141 125 15 5
0.354147 0.353293 0.016377 155 142 126 15 5
0.330439 0.331594 0.029331 151 141 125 15 5
0.378355 0.395337 0.344456 166 160 151 15 5
0.379101 0.389342 0.336635 176 169 160 15 5
0.376626 0.399418 0.321129 164 157 148 15 5
0.385967 0.414947 0.322885 164 158 150 15 5
0.385717 0.409708 0.335571 161 155 145 15 5
0.354400 -0.173517 -0.365162 168 127 85 14 2
0.344449 -0.172418 -0.336912 170 130 84 14 2
0.345522 -0.171025 -0.316158 176 136 92 14 2
-0.285740 0.383603 0.043835 208 205 197 15 5
-0.140178 -0.238811 -0.089367 25 26 26 5 6
-0.121419 -0.246178 -0.066979 25 25 27 5 6
-0.082057 -0.236352 -0.065845 20 21 26 5 6
-0.042716 0.383517 -0.058812 148 140 122 14 2
0.008410 -0.213037 -0.209946 28 28 32 5 6
0.208555 0.051492 -0.364325 26 26 27 14 2
0.581736 -0.072937 -0.060780 226 222 201 14 2
-0.132971 -0.254582 -0.053960 25 25 26 5 6
-0.124039 -0.249757 -0.058584 25 25 28 5 6
-0.124824 -0.249689 -0.046759 22 24 28 5 6
-0.115300 -0.256463 -0.040923 23 25 26 5 6
-0.094731 -0.239911 -0.060694 21 23 27 5 6
-0.109882 -0.244729 -0.050273 23 24 26 5 6
-0.094676 -0.247200 -0.050035 22 23 25 5 6
-0.113815 -0.264195 -0.040815 24 25 30 5 6
-0.055474 -0.073196 -0.061330 32 33 37 14 2
-0.090531 -0.046239 -0.058053 60 58 55 14 2
-0.045269 -0.041594 -0.058445 129 127 122 14 2
-0.117411 -0.225159 -0.150861 24 26 25 5 6
-0.096348 -0.224384 -0.146098 24 26 25 5 6
-0.124658 -0.227862 -0.133669 24 26 25 5 6
0.310158 -0.031810 -0.058667 216 213 193 14 2
0.336009 0.360527 0.331474 243 239 227 15 5
0.345418 0.381525 0.326234 227 222 213 15 5
0.344958 0.389795 0.334405 221 216 205 15 5
0.346678 0.368337 0.326465 242 239 227 15 5
0.356555 0.360394 0.321114 238 234 222 15 5
0.322450 0.334466 -0.061554 184 178 156 14 2
0.347672 0.325031 -0.061220 185 178 157 14 2
0.361271 0.308593 -0.061690 186 177 156 14 2
0.576854 0.180198 -0.061773 218 211 190 14 2
0.593217 0.184593 -0.060539 218 210 189 14 2
0.196359 0.047646 -0.058019 224 218 196 14 2
-0.091700 0.323148 -0.058936 161 153 133 14 2
-0.093298 0.352993 -0.059108 165 157 138 14 2
0.224035 -0.161569 -0.132350 139 104 70 14 2
0.209757 -0.162566 -0.116124 111 79 50 14 2
0.226099 -0.159764 -0.107553 140 103 66 14 2
0.207750 -0.025451 -0.289480 33 35 36 14 2
0.211331 -0.033775 -0.277719 23 25 25 14 2
-0.189899 -0.224697 -0.141716 25 26 26 5 6
-0.165610 -0.228021 -0.129878 25 26 26 5 6
-0.186895 -0.228557 -0.124870 26 26 26 5 6
0.525770 0.003232 -0.059730 232 239 247 14 2
0.093303 -0.234702 -0.000776 23 22 23 5 6
0.073639 -0.229695 0.004216 19 19 19 5 6
0.208876 -0.056402 -0.272537 24 27 29 14 2
0.208350 -0.040951 -0.286426 29 31 31 14 2
0.213270 -0.059485 -0.288120 26 31 33 14 2
0.209168 -0.062494 -0.265952 27 30 31 14 2
0.241597 -0.165373 -0.198662 170 131 87 14 2
0.259563 -0.166148 -0.196099 179 138 94 14 2
0.236577 -0.163829 -0.198662 174 135 91 14 2
0.335368 0.423735 0.041401 237 236 228 15 5
0.342959 0.404694 0.041824 237 236 228 15 5
0.009675 -0.071273 -0.062290 33 32 36 14 2
0.124623 -0.242308 -0.022953 26 26 23 5 6
0.343108 0.345045 0.340976 243 240 231 15 5
0.340043 0.346270 0.337285 243 241 229 15 5
0.349690 0.350039 0.331803 244 240 231 15 5
0.335819 0.348542 0.345562 245 245 238 15 5
0.354782 0.343861 0.346877 245 245 237 15 5
0.343769 0.355807 0.348931 245 245 237 15 5
-0.416320 -0.185866 -0.117388 149 120 79 14 2
-0.398300 -0.179809 -0.121929 116 89 66 14 2
-0.410385 -0.165656 -0.107287 42 30 22 14 2
0.357610 0.384707 0.077338 243 242 236 15 5
0.410771 -0.166073 -0.276034 199 157 109 14 2
0.394684 -0.166469 -0.273252 178 135 89 14 2
0.208644 0.006803 -0.319006 36 34 37 14 2
0.209099 -0.004056 -0.328648 30 33 36 14 2
0.384059 0.406513 0.375207 174 168 160 15 5
0.385609 0.416673 0.378370 158 152 144 15 5
0.160258 -0.139189 -0.059093 52 45 40 14 2
0.158368 -0.156616 -0.061667 91 85 75 14 2
0.149562 -0.155642 -0.063206 21 20 20 14 2
0.003260 0.395987 0.342983 229 228 223 15 5
0.006294 0.379774 0.339064 216 213 208 15 5
-0.011025 0.380271 0.337766 207 202 193 15 5
-0.188043 0.287255 -0.057867 174 166 147 14 2
0.235287 0.176756 -0.058990 211 203 180 14 2
0.226363 0.199314 -0.059575 210 204 181 14 2
-0.323821 0.051169 -0.056361 140 126 96 14 2
-0.347771 0.050354 -0.056704 137 123 93 14 2
0.025504 0.418055 0.042882 221 216 205 15 5
0.059701 0.464231 0.042800 221 217 206 15 5
0.234696 -0.052213 -0.058421 221 220 203 14 2
-0.320053 0.373520 -0.055693 138 129 113 14 2
-0.325299 0.387589 -0.058033 130 122 105 14 2
-0.339986 0.395022 -0.061503 130 122 106 14 2
-0.005848 -0.218858 -0.162203 26 27 31 5 6
-0.015953 -0.221331 -0.151216 27 28 31 5 6
-0.310684 0.434308 0.351482 173 173 170 15 5
-0.298734 0.439785 0.351292 159 159 155 15 5
0.146455 0.415469 0.355710 226 225 218 15 5
0.125255 0.416738 0.354252 224 223 217 15 5
0.134164 0.426611 0.349828 211 207 203 15 5
0.140057 0.443772 0.349567 226 224 217 15 5
0.381919 0.363579 0.255742 236 233 226 15 5
0.379129 0.379167 0.215431 235 232 226 15 5
0.381349 0.365604 0.233001 238 235 228 15 5
0.377948 0.376600 0.233430 241 241 234 15 5
-0.290254 0.148820 -0.056668 135 124 94 14 2
0.607083 0.269638 -0.068097 210 202 181 14 2
0.098029 -0.204412 -0.208153 62 68 93 5 6
0.085172 -0.207459 -0.223518 71 75 104 5 6
0.080459 -0.207278 -0.205600 30 30 40 5 6
-0.038113 -0.311278 -0.027898 23 24 29 5 6
0.505366 0.375240 -0.062783 196 190 169 14 2
-0.123909 -0.257113 -0.348715 16 20 20 5 6
-0.111678 -0.242626 -0.345568 15 17 24 5 6
-0.107525 -0.260726 -0.327513 14 16 20 5 6
-0.119990 -0.242131 -0.352344 16 19 20 5 6
-0.116765 -0.252913 -0.340438 15 18 20 5 6
-0.103153 -0.243635 -0.343606 14 17 20 5 6
-0.117194 -0.263676 -0.327472 15 18 21 5 6
-0.129924 -0.264083 -0.352523 17 19 19 5 6
0.001843 0.338472 -0.059370 174 166 144 14 2
-0.244441 0.424372 -0.070725 135 128 110 14 2
-0.281089 0.416003 -0.067071 138 130 111 14 2
0.390374 0.394851 0.554908 221 218 215 15 5
0.395959 0.408124 0.560396 215 209 207 15 5
0.395957 0.415640 0.541205 212 208 204 15 5
-0.174882 0.402933 0.339246 125 121 117 15 5
-0.166356 0.404722 0.342420 146 143 135 15 5
-0.169197 0.391557 0.340984 169 164 157 15 5
0.108415 -0.223824 -0.260819 8 9 9 5 6
-0.348302 0.415461 0.350519 218 217 212 15 5
0.225788 -0.156360 -0.190875 105 76 58 14 2
0.228405 -0.160319 -0.162601 96 72 53 14 2
0.213728 -0.149631 -0.179484 42 34 30 14 2
0.215486 -0.158022 -0.161632 44 31 23 14 2
0.210247 -0.151573 -0.167951 35 29 30 14 2
0.056202 0.355324 0.018531 131 122 110 15 5
0.047053 0.374587 0.020885 145 139 130 15 5
0.056779 0.386975 0.021901 160 153 145 15 5
0.180232 0.182351 -0.058589 210 203 181 14 2
0.064464 -0.223164 -0.269425 65 72 103 5 6
-0.089801 -0.242950 -0.075011 24 25 26 5 6
-0.200836 -0.223592 -0.154768 25 26 26 5 6
-0.188714 -0.217170 -0.183389 25 26 25 5 6
-0.212691 -0.216189 -0.180559 25 25 25 5 6
-0.186211 0.475971 0.042956 208 205 194 15 5
-0.216906 0.482414 0.042962 208 204 194 15 5
0.037221 0.361308 0.334446 220 215 203 15 5
-0.001628 0.341520 0.341129 219 212 202 15 5
0.006781 0.348658 0.337376 219 212 202 15 5
0.034172 0.341306 0.341308 220 215 202 15 5
0.024235 0.339125 0.345337 228 224 216 15 5
0.271582 -0.168087 -0.273009 176 133 88 14 2
0.063108 -0.266705 0.011344 28 30 29 5 6
0.079743 -0.261072 0.008034 29 29 29 5 6
-0.308833 0.400230 -0.062293 132 125 107 14 2
-0.275654 0.403706 -0.061534 135 127 109 14 2
0.058081 -0.253612 -0.321747 21 19 21 5 6
0.043674 -0.229927 -0.290059 49 53 65 5 6
0.053186 -0.227921 -0.284015 57 59 75 5 6
0.058545 -0.251256 -0.311389 29 29 34 5 6
0.067403 -0.243102 -0.304336 20 20 25 5 6
-0.211155 -0.218429 -0.199942 25 26 25 5 6
-0.199258 -0.215745 -0.196490 24 25 25 5 6
-0.189425 -0.216642 -0.214233 24 25 25 5 6
-0.243707 0.362738 0.018605 131 124 117 15 5
-0.214832 0.376761 0.021702 119 111 104 15 5
-0.227363 0.386944 0.021230 155 148 131 15 5
-0.387908 -0.185578 -0.078705 28 24 25 14 2
-0.390089 -0.185642 -0.069138 149 120 81 14 2
-0.423199 -0.184538 -0.067954 147 114 77 14 2
-0.413222 -0.166048 -0.098043 25 23 21 14 2
-0.398457 -0.182366 -0.082060 24 22 19 14 2
-0.385985 -0.174210 -0.087362 28 23 21 14 2
-0.277552 0.342921 0.352002 235 236 231 15 5
-0.268523 0.340149 0.351440 235 236 232 15 5
-0.276505 0.359768 0.360798 198 196 189 15 5
-0.258286 0.345326 0.354312 232 232 228 15 5
-0.252619 0.362436 0.365736 228 228 225 15 5
-0.270206 -0.244065 -0.118355 29 30 40 5 6
-0.277595 -0.226575 -0.127261 28 30 39 5 6
-0.274406 -0.226992 -0.113404 30 32 42 5 6
-0.275121 -0.212357 -0.125959 29 33 42 5 6
-0.262313 -0.246980 -0.099138 33 34 45 5 6
-0.281687 -0.232349 -0.136928 27 30 37 5 6
-0.220935 -0.253912 -0.075392 22 23 25 5 6
0.570268 0.371295 -0.063162 202 195 172 14 2
0.568448 0.335940 -0.063244 201 193 171 14 2
-0.300399 0.417360 -0.069441 133 126 109 14 2
-0.283430 0.435110 -0.076134 131 124 106 14 2
-0.274932 0.425156 -0.070839 130 123 106 14 2
0.213256 -0.048675 -0.303318 28 33 35 14 2
0.341253 -0.086266 -0.059025 224 222 203 14 2
0.051329 0.429242 0.350529 222 221 217 15 5
-0.247000 -0.045519 -0.056230 213 212 201 14 2
0.012771 0.363956 0.334722 218 213 202 15 5
-0.020574 0.359370 0.335340 218 212 202 15 5
-0.031141 0.343288 0.341490 215 211 203 15 5
0.007832 0.341483 0.348601 219 213 204 15 5
-0.010445 0.347518 0.337115 218 212 202 15 5
0.543769 -0.083840 -0.060373 229 225 202 14 2
0.561487 -0.096175 -0.060282 228 224 204 14 2
-0.355924 0.346054 0.354084 237 235 231 15 5
-0.087587 -0.245591 0.027424 35 35 41 5 6
