ply
format ascii 1.0
element vertex 1101
property float x
property float y
property float z
property uchar red
property uchar green
property uchar blue
property uchar semantic_label
property uchar instance_label
end_header
0.693178 0.632047 0.616899 237 240 239 1 7
0.693179 0.631862 0.629752 236 240 240 1 7
0.704006 0.632809 0.627559 235 240 240 1 7
0.367459 0.618722 0.328287 213 204 190 15 6
0.387217 0.613278 0.337562 203 196 185 15 6
0.349419 0.257594 -0.046049 209 221 214 14 2
0.847665 0.583275 -0.311286 111 95 72 1 7
0.861626 0.580223 -0.306382 121 110 95 1 7
0.875213 0.567273 -0.285556 107 94 78 1 7
0.491456 0.606574 0.089354 227 245 248 15 6
0.514624 0.528760 0.641198 192 181 161 15 6
0.540525 0.535960 0.170550 221 215 203 1 7
0.536767 0.525111 0.165764 222 216 203 1 7
0.541287 0.543603 0.192526 219 214 201 1 7
0.536749 0.526295 0.184372 221 215 202 1 7
0.542747 0.551476 0.111284 221 212 198 1 7
0.542535 0.555481 0.125275 212 205 194 1 7
0.448437 0.503749 0.355534 203 190 165 15 6
0.630875 0.422089 0.076342 162 142 118 4 5
0.631918 0.403402 0.086086 171 151 128 4 5
0.485517 0.534897 0.351020 189 179 163 15 6
0.494063 0.523388 0.349817 205 192 164 15 6
0.504640 0.526200 0.342638 206 191 165 15 6
0.508574 0.520802 0.338917 205 192 165 15 6
0.509917 0.541369 0.330884 208 196 169 15 6
0.494947 0.535906 0.348900 205 192 165 15 6
0.487680 0.611270 0.212567 235 245 247 15 6
0.482851 0.612419 0.199050 236 246 247 15 6
0.460723 0.611263 0.220828 241 250 250 15 6
0.472849 0.612253 0.188803 239 250 254 15 6
0.675892 0.241110 0.224842 41 57 67 4 5
0.859706 0.621090 0.334068 226 245 251 1 7
0.841650 0.621705 0.351842 233 250 253 1 7
0.550466 0.566040 0.053872 197 193 180 1 7
0.542762 0.544671 0.064852 214 206 189 1 7
0.541966 0.554709 0.033220 215 206 190 1 7
0.557391 0.235492 -0.041863 205 211 202 14 2
0.494537 0.613467 -0.051308 162 171 167 1 7
0.513365 0.613209 -0.051557 169 175 170 1 7
0.510432 0.611265 -0.055860 168 175 166 1 7
0.496699 0.615262 -0.037439 170 181 191 1 7
0.621865 0.631810 0.549219 250 249 246 1 7
0.639371 0.632618 0.576274 246 248 245 1 7
0.622366 0.633094 0.572449 250 250 246 1 7
0.586873 0.623321 0.309364 220 225 222 1 7
0.600541 0.626611 0.323912 215 221 218 1 7
0.331211 0.612826 0.149150 249 255 254 15 6
0.618833 0.627011 0.382988 222 228 226 1 7
0.592782 0.626531 0.414299 254 255 252 1 7
0.591337 0.628780 0.390821 254 254 251 1 7
0.609093 0.624440 0.421231 227 230 229 1 7
0.446210 0.624935 0.653477 235 233 223 15 6
0.433905 0.627802 0.614338 244 244 235 15 6
0.444843 0.627576 0.608944 246 246 237 15 6
0.411747 0.611307 0.379748 241 241 229 15 6
0.416345 0.595776 0.375728 242 241 229 15 6
0.412991 0.573107 0.371116 237 235 223 15 6
0.424309 0.573991 0.370335 244 241 230 15 6
0.403196 0.594833 0.374242 242 241 229 15 6
0.768966 0.526292 -0.232310 152 148 129 1 7
0.729099 0.606964 -0.090940 98 92 89 1 7
0.744280 0.606668 -0.093669 94 83 80 1 7
0.720612 0.607835 -0.079205 97 94 93 1 7
0.717870 0.606969 -0.070748 95 89 85 1 7
0.730569 0.612040 -0.078902 96 86 80 1 7
0.740777 0.608458 -0.085329 95 84 79 1 7
0.717289 0.627631 0.465342 225 229 225 1 7
0.728995 0.625838 0.471018 224 227 226 1 7
0.723460 0.627721 0.487111 227 228 227 1 7
0.740055 0.626224 0.473755 226 230 228 1 7
0.280351 0.601692 0.071969 243 253 252 15 6
0.274519 0.591069 0.068827 243 253 252 15 6
0.279724 0.607984 0.076257 243 253 252 15 6
0.509376 0.572482 0.219592 222 235 238 15 6
0.961196 0.561998 -0.283743 72 58 55 1 7
0.953882 0.585823 -0.321411 69 64 64 1 7
0.942196 0.584642 -0.316851 69 64 64 1 7
0.965682 0.572557 -0.301352 68 60 56 1 7
0.936830 0.564547 -0.287128 78 66 59 1 7
0.875410 0.530969 -0.220099 94 83 72 1 7
0.903231 0.534461 -0.241187 98 91 78 1 7
0.554056 0.611845 0.000985 189 200 209 1 7
0.519999 0.608771 0.002615 184 196 206 1 7
0.533791 0.612892 -0.005858 189 202 211 1 7
0.536506 0.605789 0.003527 189 203 212 1 7
0.313184 0.628772 0.612255 252 250 242 15 6
0.292635 0.626339 0.603077 252 250 243 15 6
0.335482 0.628829 0.614025 252 252 244 15 6
0.315185 0.625498 0.586656 252 252 244 15 6
0.776785 0.622092 0.372693 247 251 251 1 7
0.751116 0.623425 0.366342 243 247 247 1 7
0.512620 0.503014 0.431092 240 232 210 15 6
0.512333 0.535683 0.453006 239 229 208 15 6
0.640702 0.390613 0.003809 81 76 69 4 5
0.640432 0.415271 0.002872 81 76 69 4 5
0.645599 0.406551 0.001954 81 73 65 4 5
0.651557 0.265339 0.102692 175 154 123 4 5
0.626674 0.535946 -0.023620 140 124 100 4 5
0.629479 0.528912 -0.010494 126 101 70 4 5
0.622514 0.535448 -0.009532 130 104 71 4 5
0.642272 0.523924 -0.020616 122 110 95 4 5
0.626166 0.521282 0.005010 120 96 64 4 5
0.638447 0.517480 -0.011093 101 84 61 4 5
0.632794 0.507432 0.001731 100 84 62 4 5
0.456210 0.605132 -0.061583 170 174 166 14 2
0.434626 0.593057 -0.064888 178 184 176 14 2
0.456079 0.591856 -0.064123 178 183 177 14 2
0.510114 0.538600 0.119967 226 240 245 15 6
0.290084 0.357837 -0.046850 196 205 197 14 2
0.302863 0.377781 -0.046871 197 205 198 14 2
0.931391 0.383281 0.280492 64 81 100 4 5
0.944001 0.380542 0.280712 71 86 111 4 5
0.923747 0.371353 0.280946 67 93 118 4 5
0.293551 0.620634 0.310237 225 216 200 15 6
0.546837 0.578667 0.246329 224 218 207 1 7
0.542077 0.573939 0.258052 230 225 216 1 7
0.304285 0.313533 -0.046782 204 216 213 14 2
0.292761 0.323518 -0.047254 205 212 208 14 2
0.761674 0.624272 0.419342 220 224 220 1 7
0.743071 0.624222 0.437493 220 225 219 1 7
0.512556 0.491835 0.402369 252 248 236 15 6
0.513512 0.481141 0.407574 252 248 236 15 6
0.508392 0.509451 0.392284 254 252 244 15 6
0.510804 0.506022 0.396447 254 251 242 15 6
0.547954 0.563913 0.068271 205 197 187 1 7
0.557375 0.582672 0.049057 186 182 167 1 7
0.398585 0.622515 0.428342 250 250 241 15 6
0.415831 0.621990 0.442842 250 250 241 15 6
0.399155 0.620518 0.448728 250 250 241 15 6
0.310074 0.514720 0.027886 204 203 196 15 6
0.320055 0.511024 0.031194 175 176 172 15 6
0.291817 0.498375 0.031803 159 168 171 15 6
0.303867 0.492194 0.031959 161 166 169 15 6
0.388884 0.284566 -0.044746 205 216 209 14 2
0.674396 0.618566 0.196340 195 208 218 1 7
0.677064 0.618537 0.209487 199 211 222 1 7
0.641537 0.619856 0.198515 210 227 237 1 7
0.675428 0.620510 0.222200 209 224 235 1 7
0.660727 0.620450 0.204709 200 216 227 1 7
0.661281 0.620561 0.217904 215 232 243 1 7
0.864121 0.327622 0.279494 65 82 102 4 5
0.868733 0.347572 0.279622 64 81 102 4 5
0.882373 0.356344 0.279946 65 84 104 4 5
0.896004 0.354183 0.280515 66 83 106 4 5
0.895363 0.530444 -0.227024 73 58 50 1 7
0.880446 0.531386 -0.205052 74 58 49 1 7
0.890372 0.527791 -0.209675 60 47 35 1 7
0.869531 0.530766 -0.201462 94 83 70 1 7
0.875093 0.534847 -0.194188 61 48 37 1 7
0.898475 0.522840 -0.215536 68 54 45 1 7
0.467547 0.561410 -0.064273 178 181 171 14 2
0.362049 0.246948 -0.045581 210 222 218 14 2
0.441008 0.500509 0.070292 242 254 254 15 6
0.428207 0.474344 0.070108 240 253 254 15 6
0.510404 0.386846 -0.043472 203 213 208 14 2
0.612900 0.558718 0.030342 155 140 125 4 5
0.483337 0.472708 0.040690 174 180 187 15 6
0.660254 0.628645 0.456649 224 226 225 1 7
0.672945 0.628527 0.477333 228 230 227 1 7
0.549658 0.595093 0.565740 244 243 237 1 7
0.550517 0.596368 0.547901 246 245 240 1 7
0.498891 0.604827 0.232587 231 240 241 15 6
0.494833 0.607735 0.259715 229 238 238 15 6
0.490105 0.611269 0.226327 232 239 240 15 6
0.613960 0.558687 0.083258 168 159 155 4 5
0.613515 0.595479 0.125539 174 174 171 4 5
0.608953 0.595241 0.110736 177 181 185 4 5
0.729286 0.609397 -0.151166 131 134 127 1 7
0.711376 0.609452 -0.125348 139 143 134 1 7
0.740260 0.606402 -0.148581 130 134 128 1 7
0.730097 0.606890 -0.135908 105 108 102 1 7
0.721754 0.608929 -0.142319 123 126 120 1 7
0.424718 0.615843 0.230854 244 253 250 15 6
0.396478 0.618416 0.228797 244 253 250 15 6
0.393140 0.618075 0.270868 244 249 244 15 6
0.711304 0.593770 0.153791 126 126 130 1 7
0.507299 0.461361 -0.045250 202 210 205 14 2
0.532435 0.463298 -0.044705 201 209 204 14 2
0.524634 0.448185 -0.043675 202 213 206 14 2
0.385788 0.515723 -0.055674 183 186 180 14 2
0.830857 0.537438 -0.207090 112 100 94 1 7
0.861333 0.532243 -0.224647 95 84 76 1 7
0.843967 0.534394 -0.205558 104 93 83 1 7
0.855608 0.533365 -0.190350 93 87 80 1 7
0.894835 0.620084 0.318503 219 237 248 1 7
0.546705 0.587380 0.489516 244 243 238 1 7
0.558252 0.606328 0.497729 245 243 237 1 7
0.560229 0.608516 0.334066 230 226 218 1 7
0.584814 0.628153 0.353872 254 253 254 1 7
0.559641 0.609219 0.356029 238 234 227 1 7
0.566151 0.616817 0.350994 241 237 229 1 7
0.573596 0.622400 0.338920 225 221 215 1 7
0.823829 0.613950 0.250378 60 70 79 1 7
0.817516 0.611651 0.239198 56 67 77 1 7
0.819683 0.609290 0.234084 73 79 86 1 7
0.837608 0.609488 0.232071 70 78 84 1 7
0.594937 0.622051 0.190569 229 245 252 1 7
0.618031 0.620579 0.155043 215 228 240 1 7
0.582148 0.621361 0.191672 230 247 252 1 7
0.592430 0.623118 0.177715 223 241 249 1 7
0.595223 0.623357 0.167888 224 241 249 1 7
0.313849 0.436827 0.368509 203 198 178 15 6
0.338618 0.435021 0.372539 211 205 186 15 6
0.353031 0.433299 0.372387 207 202 183 15 6
0.350079 0.447743 0.363925 206 199 181 15 6
0.326336 0.446656 0.364838 205 199 180 15 6
0.318827 0.434953 0.373411 219 214 196 15 6
0.340277 0.437255 0.368391 205 198 180 15 6
0.354723 0.436005 0.368538 206 199 182 15 6
0.328252 0.448056 0.380333 227 223 207 15 6
0.342989 0.454573 0.381841 228 225 209 15 6
0.351838 0.444035 0.380541 227 224 208 15 6
0.593474 0.621451 0.277750 244 250 250 1 7
0.596301 0.623117 0.295771 231 236 233 1 7
0.616501 0.621291 0.288178 240 249 249 1 7
0.523301 0.442331 0.518743 237 229 208 15 6
0.526958 0.440092 0.512193 247 243 228 15 6
0.531349 0.442366 0.545943 243 239 226 15 6
0.523277 0.441150 0.539957 236 227 208 15 6
0.527060 0.438223 0.543675 245 239 226 15 6
0.558806 0.589984 0.070900 206 199 189 1 7
0.559295 0.595994 0.087782 208 203 191 1 7
0.554852 0.586566 0.093562 209 204 195 1 7
0.631238 0.342568 0.012072 91 91 87 4 5
0.484453 0.625994 0.599797 219 209 188 15 6
0.462150 0.627198 0.613566 241 234 224 15 6
0.468580 0.626307 0.588813 224 214 195 15 6
0.681287 0.593252 -0.087041 140 145 137 0 0
0.668280 0.565587 -0.070882 146 151 144 0 0
0.667798 0.565388 -0.088615 171 168 155 0 0
0.394921 0.615636 -0.010089 156 164 170 1 7
0.404507 0.618578 -0.025149 156 164 170 1 7
0.423597 0.614273 -0.011200 158 166 170 1 7
0.398719 0.615879 -0.001072 155 159 161 1 7
0.407741 0.613732 0.000154 156 164 165 1 7
0.420373 0.613127 0.000478 155 158 163 1 7
0.497869 0.438702 0.371830 202 189 162 15 6
0.473908 0.438339 0.376279 201 186 162 15 6
0.500903 0.437813 0.376459 199 185 161 15 6
0.490533 0.443010 0.368043 201 186 158 15 6
0.507286 0.441966 0.365268 211 197 170 15 6
0.490920 0.451539 0.363785 205 189 163 15 6
0.495895 0.446250 0.380980 219 211 193 15 6
0.840356 0.282348 0.278724 67 87 106 4 5
0.463642 0.456467 0.044090 170 173 178 15 6
0.433762 0.482538 0.037706 159 160 162 15 6
0.451537 0.467350 0.040956 160 162 165 15 6
0.465639 0.472667 0.039577 159 161 164 15 6
0.423567 0.622162 0.528703 252 250 241 15 6
0.428592 0.622991 0.545870 251 251 241 15 6
0.440523 0.620243 0.516342 250 246 239 15 6
0.662064 0.632967 0.584939 248 249 246 1 7
0.680617 0.632413 0.599037 239 242 243 1 7
0.646196 0.631297 0.598722 250 250 248 1 7
0.512608 0.507271 0.476842 230 219 199 15 6
0.395201 0.469001 0.359881 206 199 182 15 6
0.394455 0.449993 0.364414 204 198 180 15 6
0.378559 0.459600 0.381839 234 231 218 15 6
0.419067 0.485431 0.380713 238 235 223 15 6
0.813745 0.595157 -0.171643 102 99 96 1 7
0.547318 0.583821 0.385928 242 239 232 1 7
0.545295 0.579175 0.372336 242 238 227 1 7
0.554093 0.596188 0.352970 236 233 224 1 7
0.550370 0.594029 0.369952 238 235 225 1 7
0.427007 0.625576 0.580960 249 249 239 15 6
0.443140 0.625029 0.572436 251 248 240 15 6
0.443092 0.623677 0.545101 249 247 239 15 6
0.508023 0.595133 0.466342 238 227 205 15 6
0.511161 0.578759 0.486092 237 226 204 15 6
0.649158 0.621001 0.318819 217 220 216 1 7
0.644250 0.623458 0.338504 217 220 217 1 7
0.629102 0.625739 0.353337 219 221 218 1 7
0.642863 0.623673 0.352486 219 221 219 1 7
0.611555 0.625862 0.315683 217 221 216 1 7
0.632694 0.623762 0.340473 215 220 216 1 7
0.480453 0.233892 -0.043033 218 227 223 14 2
0.497420 0.280599 -0.042718 218 227 224 14 2
0.691421 0.623978 0.392010 219 224 219 1 7
0.675453 0.624688 0.382467 219 224 219 1 7
0.709682 0.623749 0.401550 220 222 219 1 7
0.691000 0.625173 0.405314 220 222 221 1 7
0.712120 0.625204 0.428597 220 223 219 1 7
0.512980 0.469497 0.225084 226 237 243 15 6
0.682708 0.348943 0.266396 49 68 86 4 5
0.422273 0.519202 0.069249 242 255 254 15 6
0.384564 0.504030 0.032157 157 160 161 15 6
0.358425 0.502150 0.032850 157 162 163 15 6
0.366802 0.499746 0.034566 157 162 163 15 6
0.300021 0.584951 0.372689 242 239 228 15 6
0.309646 0.596011 0.373137 241 239 227 15 6
0.295117 0.611005 0.380309 243 242 229 15 6
0.320653 0.608854 0.377067 242 242 229 15 6
0.318865 0.589599 0.372146 232 231 220 15 6
0.912657 0.566213 -0.286724 107 88 72 1 7
0.456903 0.505264 0.034835 159 160 162 15 6
0.581928 0.620321 0.149478 236 245 247 1 7
0.571288 0.610966 0.151590 238 245 246 1 7
0.581281 0.622197 0.160760 238 245 249 1 7
0.687344 0.377016 0.272321 51 74 91 4 5
0.691381 0.348013 0.272600 51 72 91 4 5
0.695678 0.372331 0.275677 52 73 94 4 5
0.360544 0.512862 0.068728 242 254 252 15 6
0.639039 0.283981 0.004253 89 90 88 4 5
0.646536 0.305843 0.001421 97 88 83 4 5
0.484273 0.586519 0.074243 233 250 253 15 6
0.497947 0.583236 0.079823 234 249 254 15 6
0.497910 0.601596 0.092123 226 242 246 15 6
0.693959 0.621290 0.270259 235 251 253 1 7
0.517934 0.434793 0.057228 189 199 208 15 6
0.532246 0.508603 0.112576 212 204 188 1 7
0.539303 0.541374 0.128278 207 200 188 1 7
0.537672 0.528452 0.091442 213 206 190 1 7
0.537501 0.532548 0.114186 206 198 185 1 7
0.532584 0.510150 0.133948 208 201 189 1 7
0.510524 0.563081 0.188342 227 239 243 15 6
0.486590 0.618142 0.415187 243 237 215 15 6
0.457544 0.620904 0.435195 247 241 227 15 6
0.475427 0.618897 0.411013 249 241 227 15 6
0.486039 0.618606 0.430344 241 235 214 15 6
0.465142 0.620389 0.443388 239 232 213 15 6
0.727702 0.578648 -0.182550 128 117 97 1 7
0.733507 0.570894 -0.182372 152 151 140 1 7
0.720299 0.592063 -0.185798 114 100 85 1 7
0.724698 0.563876 -0.187084 121 107 91 1 7
0.708598 0.591833 -0.175094 114 105 86 1 7
0.725979 0.590409 -0.180937 133 123 101 1 7
0.734048 0.598623 -0.176283 149 153 141 1 7
0.716999 0.596653 -0.182220 102 90 75 1 7
0.426143 0.281362 -0.044124 209 222 214 14 2
0.613307 0.490250 -0.043392 194 198 186 14 2
0.585969 0.493508 -0.047140 198 202 194 14 2
0.574402 0.471112 -0.044750 199 206 194 14 2
0.440050 0.620303 0.393574 252 248 241 15 6
0.455412 0.617850 0.388419 249 246 237 15 6
0.431036 0.622771 0.410844 252 252 243 15 6
0.796372 0.536351 -0.191621 107 104 99 1 7
0.780972 0.533584 -0.213944 142 143 138 1 7
0.801144 0.534452 -0.215427 134 134 130 1 7
0.788481 0.531610 -0.209508 129 129 124 1 7
0.777618 0.532186 -0.193913 138 139 133 1 7
0.773037 0.535169 -0.202503 112 114 108 1 7
0.560151 0.593776 0.159227 213 213 203 1 7
0.559096 0.595240 0.138557 224 224 218 1 7
0.569686 0.611123 0.128915 224 224 218 1 7
0.297554 0.266321 -0.046664 211 224 220 14 2
0.829840 0.621013 0.364917 244 255 254 1 7
0.850678 0.621010 0.369265 242 254 252 1 7
0.896854 0.622492 0.355889 230 246 253 1 7
0.868118 0.620453 0.355413 231 247 252 1 7
0.896367 0.621963 0.367532 228 245 252 1 7
0.855091 0.624332 0.453526 224 226 224 1 7
0.422715 0.617196 -0.021493 155 165 171 1 7
0.409000 0.615148 -0.051783 153 162 166 1 7
0.428193 0.615076 -0.050307 154 163 166 1 7
0.356986 0.611192 0.159147 249 255 254 15 6
0.372669 0.611152 0.136556 249 255 254 15 6
0.393940 0.611263 0.146683 249 255 254 15 6
0.373801 0.611899 0.159531 248 255 254 15 6
0.535872 0.499154 0.629621 191 183 175 15 6
0.539052 0.488361 0.621730 237 234 227 15 6
0.514529 0.483602 0.634413 200 190 171 15 6
0.542125 0.480935 0.632313 244 239 230 15 6
0.536669 0.502801 0.638349 191 183 175 15 6
0.631003 0.416098 0.045093 158 138 117 4 5
0.630861 0.421339 0.059217 160 140 116 4 5
0.632305 0.428555 0.029575 138 116 95 4 5
0.381952 0.588846 -0.067358 180 183 177 14 2
0.387878 0.604866 -0.063378 178 181 175 14 2
0.394131 0.592779 -0.065743 175 180 172 14 2
0.363349 0.604302 -0.064451 173 177 169 14 2
0.369506 0.591390 -0.066787 176 181 174 14 2
0.530744 0.615377 -0.023645 179 188 198 1 7
0.526206 0.614329 -0.046656 179 187 186 1 7
0.547889 0.614875 -0.041658 179 191 200 1 7
0.552460 0.613982 -0.053643 183 189 186 1 7
0.533327 0.517534 0.305653 230 225 212 1 7
0.535192 0.527895 0.320869 220 218 205 1 7
0.536307 0.533273 0.302653 228 221 209 1 7
0.628729 0.630794 0.525769 253 252 250 1 7
0.615131 0.631283 0.537297 250 249 246 1 7
0.480026 0.511253 0.354524 205 192 165 15 6
0.488990 0.493690 0.354404 206 192 165 15 6
0.504780 0.492554 0.348505 205 190 164 15 6
0.442148 0.307309 -0.044307 204 214 206 14 2
0.469757 0.337328 -0.043823 203 213 204 14 2
0.380698 0.610092 0.080151 243 254 253 15 6
0.387568 0.589052 0.070002 242 254 252 15 6
0.410060 0.610758 0.080228 242 254 252 15 6
0.364352 0.466099 -0.048433 188 197 191 14 2
0.647676 0.619501 0.188551 202 217 228 1 7
0.627750 0.621841 0.185108 210 227 237 1 7
0.609280 0.621737 0.178296 216 233 246 1 7
0.318709 0.616698 0.224751 243 246 241 15 6
0.449315 0.219564 -0.043718 218 229 222 14 2
0.685352 0.508702 0.209521 133 141 149 4 5
0.467234 0.617919 0.320208 220 207 183 15 6
0.483263 0.619268 0.326523 216 203 177 15 6
0.483536 0.617303 0.310172 210 196 171 15 6
0.533212 0.534023 0.034581 166 162 156 15 6
0.533631 0.524651 0.041208 209 199 186 1 7
0.540297 0.539006 0.052871 202 193 180 1 7
0.533365 0.504319 0.063299 202 193 181 15 6
0.669264 0.469381 0.099883 176 158 133 4 5
0.657657 0.467534 0.095185 181 163 139 4 5
0.646145 0.454804 0.095810 176 158 136 4 5
0.657112 0.441007 0.098218 180 162 139 4 5
0.666393 0.399858 0.138668 78 81 74 4 5
0.664839 0.391745 0.158592 62 63 65 4 5
0.835985 0.540312 -0.185948 85 76 65 1 7
0.854546 0.536608 -0.182738 78 66 53 1 7
0.849239 0.543480 -0.179710 63 50 39 1 7
0.371179 0.613597 0.167209 246 255 253 15 6
0.380112 0.613563 0.176668 246 255 253 15 6
0.547007 0.578964 0.262808 229 226 217 1 7
0.539072 0.543478 0.292304 222 219 208 1 7
0.538160 0.556913 0.265512 222 221 212 1 7
0.540680 0.558711 0.272939 220 217 208 1 7
0.540682 0.556763 0.282960 225 221 211 1 7
0.497597 0.527563 0.383442 238 233 221 15 6
0.490172 0.543063 0.379753 237 233 221 15 6
0.512634 0.576283 0.574543 205 195 176 15 6
0.507970 0.605823 0.553653 219 208 187 15 6
0.510815 0.590598 0.550005 216 204 183 15 6
0.924068 0.617950 0.258841 189 209 225 1 7
0.926334 0.620555 0.273944 197 216 231 1 7
0.906588 0.621419 0.275680 204 222 237 1 7
0.486071 0.623714 0.556241 224 214 193 15 6
0.487327 0.622609 0.574641 222 212 192 15 6
0.456748 0.623892 0.562210 238 231 219 15 6
0.473682 0.622312 0.567482 230 223 208 15 6
0.643901 0.452644 -0.000347 84 68 54 4 5
0.564918 0.611413 0.006018 193 205 215 1 7
0.570132 0.615391 -0.000910 191 201 210 1 7
0.486783 0.607305 -0.060419 176 183 175 14 2
0.504022 0.598141 -0.061890 177 183 175 14 2
0.513443 0.606209 -0.059708 177 184 177 14 2
0.786591 0.621212 0.360619 249 254 254 1 7
0.807571 0.621934 0.383932 249 254 254 1 7
0.785549 0.620466 0.369133 250 254 254 1 7
0.687499 0.518947 0.234701 157 174 186 4 5
0.692593 0.512147 0.243910 130 141 149 4 5
0.686595 0.507603 0.240286 159 176 188 4 5
0.787921 0.618962 0.268446 88 111 140 1 7
0.799855 0.620341 0.277675 214 240 251 1 7
0.807043 0.568321 -0.283254 133 112 80 1 7
0.817757 0.566199 -0.284220 137 118 90 1 7
0.829669 0.566795 -0.283662 153 146 132 1 7
0.836520 0.577389 -0.307023 111 92 67 1 7
0.809866 0.576678 -0.305284 137 118 88 1 7
0.841908 0.574747 -0.295757 110 95 73 1 7
0.819745 0.577550 -0.302905 135 109 72 1 7
0.558679 0.598283 0.225219 223 224 216 1 7
0.568493 0.612397 0.213607 221 218 209 1 7
0.370833 0.449277 0.363775 208 200 185 15 6
0.381544 0.438081 0.368580 205 198 180 15 6
0.391281 0.440439 0.376638 219 213 196 15 6
0.381334 0.435516 0.372363 213 206 190 15 6
0.350786 0.437658 0.376723 217 213 195 15 6
0.378436 0.446895 0.380306 227 222 208 15 6
0.512905 0.479892 0.330523 220 208 186 15 6
0.515841 0.458187 0.334616 220 209 187 15 6
0.519690 0.446483 0.338226 221 209 190 15 6
0.537590 0.472606 0.325142 245 241 229 15 6
0.512354 0.480183 0.337026 218 207 185 15 6
0.536145 0.459874 0.313124 251 247 236 15 6
0.534949 0.454070 0.343790 245 241 227 15 6
0.537941 0.468493 0.344951 250 248 238 15 6
0.510938 0.478380 0.343840 213 204 182 15 6
0.515082 0.456026 0.345599 214 205 183 15 6
0.783805 0.213456 0.278237 68 86 112 4 5
0.325443 0.612833 0.091476 244 254 254 15 6
0.294090 0.611819 0.102377 248 255 255 15 6
0.312699 0.612211 0.089951 247 255 255 15 6
0.317253 0.609138 0.076296 243 254 253 15 6
0.317263 0.602942 0.071959 243 254 253 15 6
0.336856 0.608445 0.078731 244 254 253 15 6
0.682438 0.502602 0.159907 109 98 88 4 5
0.678370 0.491592 0.156610 115 107 100 4 5
0.677824 0.497263 0.138579 84 71 64 4 5
0.439769 0.532418 0.368170 237 237 226 15 6
0.444357 0.515773 0.370340 237 236 226 15 6
0.446520 0.537264 0.369989 235 234 222 15 6
0.422689 0.500863 0.371292 243 241 235 15 6
0.426021 0.532107 0.367988 241 240 233 15 6
0.425284 0.520324 0.367933 239 239 230 15 6
0.632622 0.502990 -0.047431 169 171 162 14 2
0.625639 0.498081 -0.044938 176 175 168 14 2
0.339648 0.518624 0.352430 203 194 181 15 6
0.357243 0.332850 -0.046109 203 214 206 14 2
0.382814 0.329351 -0.045559 205 215 209 14 2
0.439493 0.428615 -0.044226 192 204 195 14 2
0.423537 0.448978 -0.046171 192 200 190 14 2
0.413737 0.424394 -0.045356 193 201 190 14 2
0.552483 0.576689 0.161406 225 221 207 1 7
0.306894 0.623181 0.540685 253 253 245 15 6
0.327051 0.623153 0.545572 252 252 244 15 6
0.300138 0.621349 0.520110 253 253 245 15 6
0.550117 0.577750 0.140688 221 215 204 1 7
0.553555 0.600768 0.513096 245 245 240 1 7
0.384630 0.626600 0.632093 244 244 236 15 6
0.337527 0.612861 0.380930 240 241 227 15 6
0.354532 0.605407 0.376781 240 239 225 15 6
0.337167 0.602965 0.376049 241 240 228 15 6
0.530619 0.500234 0.396812 213 208 195 15 6
0.530942 0.500259 0.428750 210 203 185 15 6
0.532417 0.485332 0.430677 241 234 219 15 6
0.531960 0.488882 0.402926 246 242 233 15 6
0.533578 0.481220 0.393177 250 247 240 15 6
0.715471 0.628379 0.519518 231 233 232 1 7
0.739521 0.629497 0.520790 230 232 232 1 7
0.732792 0.629994 0.529083 231 234 234 1 7
0.720587 0.628884 0.547666 231 234 234 1 7
0.355802 0.403272 -0.046200 193 203 195 14 2
0.979194 0.408878 0.272507 61 68 76 4 5
0.957206 0.405335 0.267117 59 67 78 4 5
0.960482 0.406195 0.271634 57 66 76 4 5
0.969543 0.405108 0.276608 63 82 105 4 5
0.993767 0.403296 0.276425 57 64 74 4 5
0.584545 0.632866 0.553195 250 251 248 1 7
0.611625 0.630846 0.554240 247 249 246 1 7
0.591705 0.630735 0.570522 250 250 246 1 7
0.585349 0.630704 0.579114 252 253 250 1 7
0.282639 0.273110 -0.047137 209 219 213 14 2
0.539241 0.538372 0.213268 222 215 200 1 7
0.546074 0.567139 0.224015 231 227 214 1 7
0.452914 0.526008 0.353143 205 198 181 15 6
0.432429 0.536934 0.352575 201 196 184 15 6
0.422113 0.532506 0.351443 184 177 166 15 6
0.441012 0.533837 0.351177 182 175 160 15 6
0.681604 0.493456 0.205210 136 147 155 4 5
0.683590 0.505235 0.222000 142 151 158 4 5
0.681494 0.497815 0.233213 155 167 175 4 5
0.678197 0.484212 0.228644 153 164 171 4 5
0.674118 0.473670 0.213815 125 134 138 4 5
0.564940 0.598020 0.039406 205 215 221 1 7
0.572263 0.606773 0.040231 203 216 221 1 7
0.584141 0.615999 0.022975 196 208 216 1 7
0.570875 0.611876 0.014443 195 206 214 1 7
0.663223 0.584890 0.135678 154 126 88 4 5
0.606604 0.626288 0.441443 239 242 239 1 7
0.586555 0.627273 0.429714 254 255 253 1 7
0.597943 0.625745 0.427877 255 255 252 1 7
0.328397 0.612181 0.142342 250 255 254 15 6
0.350259 0.611982 0.111816 251 255 254 15 6
0.358239 0.612185 0.125842 250 255 254 15 6
0.668912 0.394289 0.248843 54 73 91 4 5
0.394304 0.541099 -0.061141 180 180 170 14 2
0.634391 0.270372 0.042411 134 120 102 4 5
0.636090 0.255901 0.055342 165 146 126 4 5
0.835983 0.531943 -0.224987 131 128 124 1 7
0.830516 0.529839 -0.237390 137 137 133 1 7
0.817616 0.531582 -0.213959 123 123 120 1 7
0.819884 0.532518 -0.232363 137 138 134 1 7
0.815907 0.533207 -0.244274 131 132 128 1 7
0.802735 0.537463 -0.246805 153 155 150 1 7
0.724636 0.624504 0.382842 218 222 217 1 7
0.739625 0.623902 0.377842 234 239 238 1 7
0.715358 0.624209 0.360153 218 223 219 1 7
0.754296 0.623532 0.394651 219 220 221 1 7
0.407492 0.624691 0.548861 250 250 240 15 6
0.392888 0.625703 0.568108 250 250 240 15 6
0.402371 0.625171 0.585142 250 250 240 15 6
0.399410 0.624578 0.560409 250 250 240 15 6
0.429015 0.623148 0.562902 250 250 240 15 6
0.847145 0.556240 -0.274808 138 132 118 1 7
0.871081 0.553533 -0.268143 159 148 132 1 7
0.859298 0.564330 -0.283565 117 110 95 1 7
0.576562 0.617938 0.121496 230 245 250 1 7
0.571840 0.614326 0.109427 226 238 245 1 7
0.584436 0.621244 0.110527 223 238 246 1 7
0.370367 0.618727 0.272738 240 241 235 15 6
0.383617 0.616753 0.260548 242 242 235 15 6
0.382671 0.617989 0.277017 233 226 214 15 6
0.511780 0.486592 0.223060 226 237 242 15 6
0.511848 0.482402 0.200342 224 238 243 15 6
0.511487 0.516671 0.204385 227 238 242 15 6
0.567631 0.557405 -0.061350 197 207 200 14 2
0.349761 0.497802 0.035577 159 161 160 15 6
0.345123 0.471383 0.038307 156 162 166 15 6
0.312109 0.462828 0.067503 233 242 246 15 6
0.330070 0.457796 0.040964 159 160 162 15 6
0.414977 0.613048 0.332078 209 202 187 15 6
0.406911 0.615614 0.337058 185 179 167 15 6
0.395752 0.617442 0.325205 213 205 190 15 6
0.415222 0.616435 0.322946 212 205 188 15 6
0.413349 0.622251 0.338348 205 198 183 15 6
0.418738 0.614591 0.336762 202 196 183 15 6
0.373125 0.366002 -0.045748 198 208 200 14 2
0.468268 0.615197 -0.023486 159 169 176 1 7
0.494261 0.614351 -0.011724 163 171 179 1 7
0.470056 0.612770 -0.004445 155 162 164 1 7
0.483366 0.612369 -0.002955 162 167 175 1 7
0.468478 0.615090 0.003651 155 161 161 1 7
0.603261 0.630536 0.519118 254 252 252 1 7
0.600227 0.631641 0.538919 252 252 251 1 7
0.584960 0.629475 0.524768 253 252 252 1 7
0.729576 0.609892 -0.115511 105 103 102 1 7
0.735121 0.606287 -0.105291 104 103 105 1 7
0.932016 0.525887 -0.241314 64 50 39 1 7
0.948354 0.533208 -0.249822 54 41 34 1 7
0.941446 0.519506 -0.241031 61 51 42 1 7
0.347863 0.485989 -0.051575 184 190 186 14 2
0.380838 0.489300 -0.051298 184 190 183 14 2
0.669651 0.627878 0.424762 222 224 222 1 7
0.358537 0.539539 0.370038 243 243 237 15 6
0.358157 0.517633 0.370647 243 243 237 15 6
0.380526 0.533810 0.368682 242 242 236 15 6
0.600412 0.536052 -0.049172 193 196 187 14 2
0.581598 0.517963 -0.051926 197 204 196 14 2
0.584811 0.545461 -0.056931 197 204 196 14 2
0.602404 0.511216 -0.046291 194 195 186 14 2
0.616086 0.532459 -0.040296 189 191 185 14 2
0.631300 0.277623 0.016230 94 88 85 4 5
0.635098 0.309963 0.008084 90 91 89 4 5
0.635288 0.282661 0.008288 90 91 88 4 5
0.480837 0.524372 0.031961 155 156 157 15 6
0.479421 0.518539 0.033703 137 126 114 15 6
0.677980 0.510493 0.107041 149 136 113 4 5
0.486735 0.532703 0.030145 137 126 114 15 6
0.673826 0.535337 0.115408 121 106 83 4 5
0.677470 0.515553 0.122402 137 124 103 4 5
0.680812 0.526073 0.127310 85 71 60 4 5
0.345661 0.622581 0.467226 250 250 242 15 6
0.356612 0.622937 0.493701 250 250 242 15 6
0.302940 0.624515 0.443359 252 252 244 15 6
0.526496 0.434955 0.363898 245 240 226 15 6
0.526039 0.434010 0.383186 247 245 236 15 6
0.521349 0.432779 0.368009 210 197 172 15 6
0.517405 0.441996 0.355908 214 201 177 15 6
0.634579 0.395644 -0.061172 169 167 154 14 2
0.631779 0.367706 -0.043341 168 173 161 14 2
0.618192 0.390454 -0.040030 178 181 171 14 2
0.622600 0.376454 -0.039639 179 182 173 14 2
0.627344 0.388951 -0.041541 178 181 171 14 2
0.632000 0.412757 -0.046104 172 175 165 14 2
0.549470 0.591409 0.585951 244 245 243 1 7
0.642487 0.216116 -0.060152 169 157 135 14 2
0.327812 0.623125 0.457975 251 251 243 15 6
0.327625 0.621844 0.474655 250 250 242 15 6
0.309856 0.624022 0.458549 250 250 242 15 6
0.481854 0.613706 0.260421 233 242 246 15 6
0.476392 0.612907 0.241641 233 242 244 15 6
0.369854 0.541668 -0.062118 183 186 180 14 2
0.356295 0.526805 -0.059499 184 190 181 14 2
0.656238 0.626673 0.490982 228 231 229 1 7
0.670134 0.628684 0.511262 228 231 231 1 7
0.437155 0.561583 0.351345 201 194 180 15 6
0.451559 0.551090 0.350363 202 195 180 15 6
0.423175 0.553168 0.350026 204 200 188 15 6
0.422340 0.574187 0.348014 189 185 173 15 6
0.431082 0.575784 0.347378 190 185 173 15 6
0.501827 0.615889 0.523510 223 215 191 15 6
0.503003 0.613383 0.536803 224 215 192 15 6
0.543999 0.558947 0.200095 223 219 207 1 7
0.544139 0.557335 0.186652 227 221 209 1 7
0.288289 0.556299 0.351786 160 157 151 15 6
0.442746 0.610363 0.090671 250 255 255 15 6
0.531324 0.442613 0.305916 243 248 247 15 6
0.519226 0.439904 0.282731 232 238 236 15 6
0.526970 0.436082 0.299007 241 246 244 15 6
0.531658 0.445546 0.319927 242 236 223 15 6
0.527103 0.439009 0.321832 234 226 210 15 6
0.519381 0.443486 0.315342 233 233 226 15 6
0.522874 0.438816 0.313234 233 234 226 15 6
0.531836 0.512756 0.341910 213 206 190 1 7
0.535622 0.529441 0.346681 229 224 214 1 7
0.385193 0.618075 0.230962 243 249 246 15 6
0.368567 0.616733 0.254297 242 243 236 15 6
0.821455 0.585166 -0.318908 108 88 63 1 7
0.826648 0.591685 -0.338233 96 77 57 1 7
0.838281 0.588128 -0.323046 115 92 69 1 7
0.718884 0.634422 0.625486 237 239 240 1 7
0.276215 0.426275 0.053392 158 161 165 15 6
0.557267 0.603435 0.317379 235 232 222 1 7
0.555685 0.602092 0.302935 237 233 225 1 7
0.617358 0.541258 0.047842 174 144 109 4 5
0.763078 0.529653 -0.213019 150 152 136 1 7
0.759543 0.528058 -0.217903 150 152 136 1 7
0.748700 0.530190 -0.210936 148 147 127 1 7
0.744222 0.530037 -0.199413 148 147 127 1 7
0.760002 0.535565 -0.199991 147 151 134 1 7
0.756945 0.541090 -0.190888 114 117 105 1 7
0.353572 0.612620 -0.005425 159 166 171 1 7
0.335230 0.614138 0.001358 162 164 162 1 7
0.345957 0.614165 0.000629 158 164 166 1 7
0.600122 0.607742 0.033342 176 183 185 4 5
0.588040 0.616918 0.055734 204 216 223 1 7
0.674988 0.258650 0.113972 149 132 106 4 5
0.672024 0.296266 0.108363 147 130 104 4 5
0.671212 0.274738 0.103309 174 156 122 4 5
0.692133 0.625998 0.456337 223 226 224 1 7
0.691517 0.626492 0.439618 223 226 224 1 7
0.433030 0.611321 0.166564 246 255 253 15 6
0.454269 0.612241 0.183362 244 254 253 15 6
0.430287 0.610994 0.176429 245 255 252 15 6
0.434537 0.611713 0.186402 246 255 254 15 6
0.423170 0.612958 0.184801 246 255 254 15 6
0.511906 0.494415 0.271342 218 225 219 15 6
0.540454 0.587662 -0.062140 194 200 197 14 2
0.548935 0.606193 -0.059776 184 195 188 14 2
0.536377 0.458243 0.103490 232 247 252 15 6
0.535965 0.457364 0.123692 234 249 254 15 6
0.537545 0.468368 0.108161 225 240 245 15 6
0.512334 0.456257 0.112462 226 240 244 15 6
0.658432 0.544969 -0.061414 149 152 148 0 0
0.653152 0.536557 -0.044346 142 143 138 0 0
0.663821 0.550208 -0.052909 118 119 111 0 0
0.675849 0.538792 -0.028807 83 72 64 0 0
0.671648 0.548425 -0.040827 88 85 78 0 0
0.662393 0.534872 -0.036193 89 80 75 0 0
0.497192 0.509678 0.075941 240 252 254 15 6
0.495431 0.471914 0.075108 240 253 254 15 6
0.481897 0.614999 -0.049943 159 168 161 1 7
0.484170 0.616578 -0.026795 164 173 182 1 7
0.467423 0.614329 -0.049735 156 163 159 1 7
0.792468 0.371766 0.277247 70 89 115 4 5
0.762749 0.392319 0.273065 66 77 94 4 5
0.777164 0.396689 0.262382 61 69 77 4 5
0.785020 0.388030 0.260195 66 72 80 4 5
0.473724 0.612624 -0.055477 165 172 163 1 7
0.532134 0.482963 0.259308 233 241 240 15 6
0.537253 0.471656 0.255883 225 217 205 15 6
0.537957 0.472116 0.281896 231 226 218 15 6
0.531957 0.486922 0.279902 226 218 201 15 6
0.597128 0.631814 0.588665 247 249 245 1 7
0.586062 0.630474 0.593065 250 250 247 1 7
0.607141 0.633837 0.589842 248 249 245 1 7
0.728703 0.622103 0.322485 249 253 253 1 7
0.919437 0.281668 0.278931 63 76 94 4 5
0.936916 0.309875 0.280078 62 77 93 4 5
0.511706 0.604326 0.007648 184 194 204 15 6
0.532549 0.577877 0.017496 188 200 209 15 6
0.549455 0.580069 0.023402 162 154 146 15 6
0.527967 0.594673 0.010570 182 193 202 15 6
0.671589 0.289949 0.131795 51 51 46 4 5
0.670522 0.308811 0.149717 37 49 59 4 5
0.673012 0.262290 0.171842 37 53 60 4 5
0.336620 0.436134 -0.047183 191 201 194 14 2
0.360248 0.449897 -0.047311 190 197 191 14 2
0.692509 0.620652 0.305953 243 254 254 1 7
0.292467 0.573477 0.066969 243 254 253 15 6
0.297848 0.587200 0.068212 243 254 252 15 6
0.314698 0.579102 0.067550 243 254 253 15 6
0.335305 0.584079 0.068889 244 253 253 15 6
0.299768 0.533071 0.066649 243 255 253 15 6
0.313453 0.564898 0.066753 243 254 253 15 6
0.801798 0.620268 0.360888 246 254 254 1 7
0.791109 0.622835 0.312262 246 254 253 1 7
0.794403 0.620581 0.339837 246 255 253 1 7
0.811830 0.620159 0.346975 246 254 254 1 7
0.796541 0.599345 -0.164287 97 95 90 1 7
0.801261 0.594330 -0.174220 96 92 88 1 7
0.785010 0.603207 -0.165663 113 114 111 1 7
0.806395 0.598945 -0.163820 87 86 83 1 7
0.792500 0.593238 -0.177158 107 105 99 1 7
0.772025 0.597436 -0.171243 109 108 102 1 7
0.668472 0.334001 0.172342 41 52 61 4 5
0.570496 0.425254 -0.041679 200 208 195 14 2
0.588630 0.422551 -0.041681 199 204 193 14 2
0.587796 0.449632 -0.042496 194 198 187 14 2
0.672329 0.303037 0.113228 141 126 99 4 5
0.669401 0.327443 0.126342 100 92 74 4 5
0.667736 0.341629 0.108611 161 144 114 4 5
0.668186 0.311439 0.104232 169 151 121 4 5
0.865144 0.217348 0.278343 68 77 95 4 5
0.421071 0.617863 0.385084 245 243 232 15 6
0.459695 0.613991 0.384212 246 244 232 15 6
0.624092 0.466913 -0.045859 174 177 164 14 2
0.639294 0.461101 -0.056004 172 173 164 0 0
0.637035 0.456355 -0.063776 170 170 161 0 0
0.614465 0.427666 -0.042025 185 187 173 14 2
0.616834 0.465163 -0.043835 182 183 170 14 2
0.633215 0.474553 -0.050008 166 169 161 14 2
0.636458 0.446337 -0.051366 168 171 163 14 2
0.282230 0.461140 0.066470 230 240 244 15 6
0.316800 0.470660 0.037438 159 166 173 15 6
0.599026 0.612401 0.067772 200 211 218 4 5
0.594037 0.619560 0.102663 215 230 238 1 7
0.599365 0.614354 0.080676 188 196 204 4 5
0.582380 0.620996 0.085148 215 230 239 1 7
0.591616 0.618887 0.076659 210 225 231 1 7
0.516363 0.462338 0.498342 241 232 211 15 6
0.519685 0.450126 0.497842 240 231 211 15 6
0.539771 0.471190 0.491279 255 254 250 15 6
0.539341 0.466659 0.509180 252 248 239 15 6
0.536437 0.455416 0.513266 255 254 249 15 6
0.536441 0.454855 0.487516 255 254 249 15 6
0.516173 0.461838 0.477954 240 231 212 15 6
0.586402 0.604371 -0.058435 189 196 190 14 2
0.594065 0.610882 -0.044644 166 174 179 4 5
0.585355 0.614728 -0.045093 169 182 188 1 7
0.599619 0.604091 -0.041380 159 166 171 4 5
0.595642 0.604657 -0.051530 185 191 182 4 5
0.617769 0.543593 -0.029129 149 129 107 4 5
0.613568 0.553946 -0.009358 140 111 78 4 5
0.667134 0.363451 0.120669 154 138 109 4 5
0.664692 0.380150 0.108909 173 156 124 4 5
0.663126 0.334397 0.103802 174 157 124 4 5
0.695335 0.606623 0.167961 160 172 179 1 7
0.709842 0.599748 0.174954 136 146 154 1 7
0.706463 0.607478 0.192950 139 150 158 1 7
0.691153 0.613012 0.189810 176 186 196 1 7
0.697902 0.605066 0.196267 172 185 191 1 7
0.697754 0.605831 0.180830 163 175 184 1 7
0.539686 0.555845 0.374311 225 219 207 1 7
0.534873 0.524068 0.360047 239 236 228 1 7
0.534986 0.533683 0.380234 228 223 211 1 7
0.531570 0.514481 0.378747 235 230 221 1 7
0.405411 0.475769 0.069859 239 250 252 15 6
0.406742 0.460498 0.069385 231 240 244 15 6
0.448451 0.610914 0.105266 247 255 254 15 6
0.434661 0.613084 0.124424 249 255 254 15 6
0.670715 0.464923 0.145774 81 75 59 4 5
0.664715 0.444349 0.163028 79 74 59 4 5
0.671901 0.471717 0.160340 79 75 62 4 5
0.824993 0.624969 0.433107 246 251 251 1 7
0.806719 0.625037 0.432246 235 239 238 1 7
0.510081 0.581093 0.400264 236 226 204 15 6
0.506197 0.577769 0.389460 249 243 231 15 6
0.507164 0.591946 0.393859 245 239 224 15 6
0.507942 0.595196 0.401857 238 228 206 15 6
0.907464 0.310711 0.279602 65 76 98 4 5
0.924771 0.325259 0.280390 62 78 91 4 5
0.468868 0.619967 0.394686 244 240 225 15 6
0.474331 0.617911 0.389650 240 234 217 15 6
0.448002 0.620902 0.411953 250 245 232 15 6
0.487019 0.620123 0.395893 241 234 213 15 6
0.513757 0.566417 0.604342 201 189 168 15 6
0.513402 0.569719 0.613642 198 185 163 15 6
0.876572 0.621685 0.378592 236 251 252 1 7
0.871674 0.622598 0.403853 237 252 253 1 7
0.850236 0.622127 0.379960 243 254 254 1 7
0.668061 0.524200 0.095243 171 155 134 4 5
0.640624 0.511970 0.096337 172 149 123 4 5
0.646805 0.526752 0.101061 175 154 129 4 5
0.648652 0.513721 0.096797 176 154 131 4 5
0.914507 0.580292 -0.308298 72 69 69 1 7
0.917767 0.574867 -0.300810 86 76 68 1 7
0.932492 0.574367 -0.300593 85 74 67 1 7
0.927697 0.585427 -0.319833 72 65 65 1 7
0.906841 0.571776 -0.292944 90 80 72 1 7
0.692424 0.601383 -0.154701 74 67 52 1 7
0.685723 0.601820 -0.128656 135 123 100 0 0
0.698183 0.610179 -0.136817 129 118 97 1 7
0.702515 0.604854 -0.146364 136 125 102 1 7
0.707377 0.608395 -0.140215 146 146 135 1 7
0.689108 0.603549 -0.116089 130 119 97 0 0
0.696048 0.611931 -0.128136 122 111 91 0 0
0.509228 0.474087 0.096915 226 241 247 15 6
0.551499 0.594384 0.596302 238 235 232 1 7
0.543846 0.570776 0.597712 242 240 236 1 7
0.547104 0.587533 0.613073 244 244 238 1 7
0.708915 0.591530 0.131727 107 93 83 4 5
0.550190 0.576198 0.192269 227 221 208 1 7
0.556012 0.589395 0.176016 227 222 210 1 7
0.516666 0.457577 0.407632 245 239 224 15 6
0.519345 0.449581 0.405691 242 234 213 15 6
0.535735 0.456156 0.404112 254 254 249 15 6
0.538862 0.468263 0.397316 251 250 239 15 6
0.539151 0.476779 0.406882 251 247 238 15 6
0.538605 0.464281 0.423225 255 254 249 15 6
0.514425 0.457081 0.397366 254 253 246 15 6
0.486699 0.603879 0.380669 245 239 226 15 6
0.489803 0.593873 0.379746 244 240 227 15 6
0.501125 0.591311 0.385647 247 242 230 15 6
0.499712 0.565442 0.383078 242 237 225 15 6
0.514170 0.558476 0.640647 191 181 157 15 6
0.513214 0.528751 0.615394 197 186 165 15 6
0.513731 0.573834 0.631655 189 177 155 15 6
0.446606 0.609609 -0.059573 166 171 162 14 2
0.527373 0.442843 0.609073 214 206 193 15 6
0.527064 0.442003 0.629097 242 237 227 15 6
0.419356 0.572234 -0.066658 178 179 170 14 2
0.401587 0.578054 -0.066840 175 179 169 14 2
0.278430 0.442739 0.364311 213 206 191 15 6
0.311338 0.446892 0.363753 194 187 172 15 6
0.306513 0.437005 0.372315 211 206 187 15 6
0.286759 0.443631 0.377366 216 209 195 15 6
0.309169 0.443126 0.377811 221 214 199 15 6
0.279228 0.436744 0.372274 207 200 185 15 6
0.302174 0.450203 0.380390 230 225 210 15 6
0.511547 0.613869 -0.008417 173 184 191 1 7
0.512479 0.615122 -0.022257 172 187 195 1 7
0.498404 0.610872 -0.001078 171 180 186 1 7
0.510985 0.611146 0.003968 181 189 197 1 7
0.837678 0.399446 0.255747 36 37 39 4 5
0.456310 0.493988 0.037126 158 160 159 15 6
0.469932 0.503132 0.036050 150 146 141 15 6
0.467718 0.496941 0.037477 143 129 116 15 6
0.479657 0.497093 0.040413 145 134 121 15 6
0.632212 0.625188 0.369950 218 223 218 1 7
0.640560 0.623508 0.362817 220 223 220 1 7
0.402608 0.518813 -0.056798 185 192 182 14 2
0.396898 0.489515 -0.051362 185 193 183 14 2
0.417976 0.495725 -0.051658 184 192 182 14 2
0.642925 0.277207 -0.054590 170 175 164 14 2
0.640710 0.273610 -0.059724 169 171 158 14 2
0.637101 0.257125 -0.046013 166 172 161 14 2
0.332536 0.611628 0.335826 191 186 175 15 6
0.343537 0.603469 0.339476 203 195 182 15 6
0.352763 0.613851 0.331242 205 198 184 15 6
0.359477 0.613299 0.337701 207 201 187 15 6
0.473344 0.415325 -0.043798 196 204 197 14 2
0.483882 0.444438 -0.044721 193 205 198 14 2
0.526546 0.340156 -0.042508 212 221 216 14 2
0.559396 0.356741 -0.042094 205 212 203 14 2
0.666309 0.376422 0.136092 79 81 69 4 5
0.626630 0.216757 -0.039879 166 172 160 14 2
0.643318 0.195690 -0.049329 165 173 157 14 2
0.645575 0.190188 -0.059468 172 172 153 14 2
0.538136 0.553289 0.536381 241 239 231 1 7
0.534527 0.544816 0.513705 218 213 203 1 7
0.537667 0.557569 0.522736 238 233 224 1 7
0.779085 0.410513 0.263784 63 72 80 4 5
0.783140 0.412551 0.268488 56 66 75 4 5
0.786241 0.401114 0.272701 58 68 76 4 5
0.790262 0.406625 0.264159 71 76 85 4 5
0.296798 0.566753 0.349897 159 155 150 15 6
0.311575 0.557465 0.349414 165 162 153 15 6
0.320248 0.568438 0.349490 205 202 192 15 6
0.299594 0.584653 0.345948 158 154 145 15 6
0.306343 0.568819 0.346749 187 182 172 15 6
0.319903 0.558127 0.353346 117 117 115 15 6
0.663745 0.426520 0.216964 91 105 117 4 5
0.342010 0.611475 0.089747 245 254 254 15 6
0.366235 0.612394 0.082619 243 255 253 15 6
0.350131 0.587613 0.068379 243 254 253 15 6
0.357852 0.606995 0.075727 243 254 253 15 6
0.335421 0.600176 0.072667 243 254 253 15 6
0.547369 0.582268 0.632213 238 237 234 1 7
0.544103 0.577015 0.626647 241 240 232 1 7
0.531437 0.442593 0.215533 241 252 255 15 6
0.518834 0.442113 0.189735 235 248 252 15 6
0.522823 0.435847 0.226792 240 251 255 15 6
0.518680 0.442173 0.214831 235 248 253 15 6
0.527090 0.436566 0.214108 239 251 254 15 6
0.531713 0.442833 0.235316 243 253 255 15 6
0.526676 0.435715 0.234802 243 252 255 15 6
0.782267 0.623253 0.303517 229 250 254 1 7
0.810880 0.621843 0.295750 227 249 254 1 7
0.295460 0.527262 0.350120 204 197 184 15 6
0.640164 0.438875 0.005335 83 72 62 4 5
0.635373 0.431717 0.017484 83 68 57 4 5
0.693435 0.493507 0.247749 86 86 85 4 5
0.695572 0.476668 0.249011 84 94 102 4 5
0.684825 0.493727 0.246952 148 165 182 4 5
0.687290 0.484483 0.251554 126 142 158 4 5
0.677448 0.486313 0.240926 142 156 168 4 5
0.612374 0.621297 0.236473 237 252 253 1 7
0.598590 0.623212 0.248496 244 253 254 1 7
0.674223 0.476224 0.105449 174 155 129 4 5
0.515587 0.447450 0.153187 232 246 252 15 6
0.522825 0.433520 0.132791 234 249 254 15 6
0.521048 0.436972 0.155044 234 249 253 15 6
0.526744 0.434381 0.134273 236 251 255 15 6
0.526850 0.435659 0.163589 238 252 255 15 6
0.517411 0.439766 0.129916 233 248 253 15 6
0.509356 0.572128 0.157455 229 240 244 15 6
0.510276 0.558338 0.142530 227 240 243 15 6
0.511073 0.540803 0.172655 227 239 243 15 6
0.458015 0.489441 -0.050449 185 193 186 14 2
0.446455 0.529792 -0.058570 184 190 185 14 2
0.510153 0.564476 0.244842 224 235 240 15 6
0.510246 0.566601 0.256342 224 233 236 15 6
0.507092 0.584067 0.235565 225 236 238 15 6
0.317830 0.495021 0.032578 171 172 166 15 6
0.706883 0.594355 -0.167788 124 111 91 1 7
0.407081 0.612347 0.085638 244 254 253 15 6
0.531062 0.494966 0.534920 186 179 163 1 7
0.531619 0.491559 0.555425 186 180 167 15 6
0.533366 0.483823 0.537377 225 219 208 15 6
0.539930 0.476619 0.540551 249 246 240 15 6
0.638044 0.346784 -0.061758 165 157 138 14 2
0.298415 0.616984 0.385990 243 243 232 15 6
0.278170 0.620813 0.393542 243 243 232 15 6
0.320466 0.622291 0.424342 255 255 248 15 6
0.316451 0.621739 0.396338 253 253 245 15 6
0.334843 0.618662 0.388533 243 242 232 15 6
0.494172 0.501196 0.035350 171 172 178 15 6
0.501485 0.514851 0.033021 182 189 195 15 6
0.640591 0.301628 -0.051781 169 172 160 14 2
0.638953 0.318080 -0.059601 169 165 152 14 2
0.669526 0.627081 0.414492 221 223 220 1 7
0.652592 0.627576 0.399390 221 223 221 1 7
0.508544 0.605516 0.588592 207 194 172 15 6
0.485902 0.623379 0.588216 217 206 185 15 6
0.498560 0.619333 0.586163 214 203 181 15 6
0.504760 0.617586 0.611696 207 194 171 15 6
0.495338 0.622325 0.596118 211 202 180 15 6
0.504398 0.613675 0.586368 209 198 177 15 6
0.345673 0.620743 0.402947 248 248 238 15 6
0.325452 0.621886 0.415342 253 253 245 15 6
0.912253 0.588767 -0.335431 75 71 75 1 7
0.930476 0.590646 -0.339470 73 68 73 1 7
0.672851 0.283284 0.208186 40 57 69 4 5
0.853910 0.556150 -0.271965 133 131 124 1 7
0.866906 0.536850 -0.250098 124 120 113 1 7
0.824049 0.620733 0.302352 225 247 253 1 7
0.840256 0.618886 0.295744 215 238 250 1 7
0.951239 0.161967 0.278510 59 72 82 4 5
0.447766 0.628564 0.594214 249 248 238 15 6
0.640709 0.333495 -0.055878 166 168 158 14 2
0.638813 0.374620 -0.056100 166 156 139 14 2
0.639304 0.336389 -0.051059 169 174 164 14 2
0.717215 0.606916 -0.170498 129 119 98 1 7
0.725540 0.605702 -0.160903 145 154 142 1 7
0.722144 0.602960 -0.179708 135 124 102 1 7
0.741886 0.605136 -0.168569 136 139 129 1 7
0.740751 0.240184 0.278368 59 78 105 4 5
0.735282 0.282765 0.277914 60 81 107 4 5
0.402823 0.611916 -0.059949 168 172 165 14 2
0.412787 0.591008 -0.066040 174 179 171 14 2
0.426162 0.602341 -0.063544 173 178 170 14 2
0.301712 0.417310 -0.046895 194 202 193 14 2
0.499724 0.614987 0.507318 229 219 198 15 6
0.494313 0.619362 0.481172 231 223 203 15 6
0.491837 0.620539 0.510997 230 222 203 15 6
0.673212 0.312262 0.238232 49 65 84 4 5
0.672796 0.304240 0.228092 48 64 82 4 5
0.678826 0.286937 0.253233 48 65 82 4 5
0.683154 0.308215 0.262308 50 65 84 4 5
0.709313 0.627965 0.462062 225 229 226 1 7
0.690964 0.627954 0.474855 224 228 226 1 7
0.435851 0.501901 0.033673 156 159 163 15 6
0.432551 0.512924 0.030334 154 160 160 15 6
0.512718 0.464875 0.184594 230 243 247 15 6
0.535584 0.454145 0.156678 238 252 254 15 6
0.538719 0.475701 0.160321 238 252 254 15 6
0.503653 0.594814 0.225972 226 239 241 15 6
0.503473 0.597638 0.267187 224 235 234 15 6
0.507595 0.586624 0.251439 225 235 237 15 6
0.318441 0.545608 0.352365 190 184 173 15 6
0.317735 0.528583 0.351301 190 184 172 15 6
0.297700 0.552243 0.354162 189 185 176 15 6
0.291846 0.544756 0.350786 202 196 186 15 6
0.300316 0.551749 0.347916 209 203 192 15 6
0.308931 0.541329 0.348916 205 200 189 15 6
0.508045 0.475591 -0.046711 188 199 192 14 2
0.481128 0.482656 -0.048520 195 203 194 14 2
0.528148 0.507353 -0.051520 191 201 192 14 2
0.488528 0.504437 -0.052049 187 195 187 14 2
0.931586 0.210765 0.278715 60 75 92 4 5
0.623834 0.518653 0.024019 141 114 78 4 5
0.627033 0.505184 0.021382 139 113 80 4 5
0.995370 0.277131 0.279421 59 71 85 4 5
1.007922 0.288173 0.280040 60 70 85 4 5
0.559423 0.596707 0.111889 214 212 200 1 7
0.550872 0.575619 0.104986 212 208 195 1 7
0.550852 0.576962 0.129873 225 219 206 1 7
0.553357 0.584668 0.120666 224 218 205 1 7
0.769700 0.574012 -0.344935 93 61 33 1 7
0.444712 0.495593 0.036856 156 157 153 15 6
0.335397 0.544831 -0.062880 183 188 180 14 2
0.356053 0.546251 -0.063854 183 189 179 14 2
0.328148 0.486890 0.376634 233 230 216 15 6
0.329534 0.522107 0.368494 241 241 233 15 6
0.324438 0.495600 0.370739 228 224 209 15 6
0.338673 0.507352 0.369488 244 244 238 15 6
0.327673 0.506769 0.370319 237 236 226 15 6
0.335425 0.497811 0.372037 239 238 228 15 6
0.334040 0.620428 0.312505 225 214 201 15 6
0.673533 0.245615 0.190342 40 56 69 4 5
0.672863 0.266429 0.152842 39 54 65 4 5
0.444637 0.608109 0.081284 242 254 252 15 6
0.433134 0.593889 0.072342 242 253 252 15 6
0.423098 0.611070 0.081879 243 254 253 15 6
0.409510 0.606825 0.075957 242 255 253 15 6
0.407393 0.599511 0.072538 242 254 252 15 6
0.799798 0.610166 0.225555 72 75 81 1 7
0.650858 0.621122 0.239842 232 251 252 1 7
0.633320 0.621480 0.249513 232 251 252 1 7
0.371712 0.553698 0.350765 206 201 192 15 6
0.364862 0.540932 0.352110 197 192 183 15 6
0.409402 0.498776 0.354965 206 198 183 15 6
0.393237 0.493506 0.356454 209 201 185 15 6
0.405507 0.517132 0.354372 202 196 182 15 6
0.535001 0.541172 0.505559 223 219 209 1 7
0.531951 0.523157 0.500342 201 193 175 1 7
0.409059 0.618269 0.252298 241 240 234 15 6
0.407861 0.617920 0.289089 229 220 209 15 6
0.415528 0.619499 0.273357 228 221 209 15 6
0.820690 0.610853 0.225322 70 74 82 1 7
0.635028 0.630056 0.614426 250 251 248 1 7
0.633679 0.630279 0.628721 251 251 249 1 7
0.510367 0.474228 0.394056 254 251 243 15 6
0.506434 0.456193 0.387385 253 249 241 15 6
0.624630 0.622442 0.307504 240 245 243 1 7
0.643904 0.620751 0.304049 241 246 244 1 7
0.511524 0.540498 0.238342 222 233 235 15 6
0.532102 0.485667 0.291478 230 221 205 15 6
0.531480 0.495564 0.314225 218 213 199 1 7
0.536482 0.478741 0.313694 237 229 216 15 6
0.687403 0.324622 0.268202 51 67 89 4 5
0.693901 0.622793 0.348795 233 238 236 1 7
0.711131 0.622281 0.331090 242 246 245 1 7
0.670376 0.295849 0.180342 41 56 65 4 5
0.672661 0.260222 0.180342 40 55 64 4 5
0.711672 0.628365 0.499028 228 231 230 1 7
0.556512 0.603252 0.629096 233 234 230 1 7
0.639143 0.445987 0.094169 177 159 136 4 5
0.635786 0.411805 0.094153 176 157 135 4 5
