ply
format ascii 1.0
element vertex 1086
property float x
property float y
property float z
property uchar red
property uchar green
property uchar blue
property uchar semantic_label
property uchar instance_label
end_header
1.087467 0.287181 -0.100774 75 94 55 40 15
1.090487 0.276669 -0.112793 90 111 67 40 15
1.208062 0.259184 -0.416391 75 96 55 40 15
1.191209 0.276904 -0.408350 59 83 44 40 15
1.195135 0.269492 -0.420816 71 90 50 40 15
1.200380 0.272218 -0.416837 67 88 48 40 15
1.199146 0.265988 -0.424422 64 84 44 40 15
1.129736 0.186899 -0.583554 63 64 68 40 15
1.120223 0.196064 -0.591789 60 61 65 40 15
1.113513 0.198309 -0.573188 60 61 64 40 15
0.466046 -0.231413 -0.147964 203 205 211 14 6
0.453483 -0.221109 -0.153787 97 90 84 14 6
0.449331 -0.214079 -0.156336 96 89 82 14 6
0.538986 -0.228576 -0.125519 219 201 193 14 6
0.535357 -0.236204 -0.128391 155 140 131 14 6
0.567121 -0.244045 -0.130242 154 139 130 14 6
1.217396 0.180180 -0.408685 69 98 66 40 15
1.229263 0.174119 -0.403446 73 100 70 40 15
1.230458 0.163109 -0.422286 89 118 68 40 15
1.220529 0.172172 -0.419911 68 96 56 40 15
1.229036 0.166810 -0.412565 63 91 50 40 15
1.205134 0.189053 -0.418162 80 107 76 40 15
1.222428 0.173486 -0.398209 48 75 37 40 15
1.033788 0.168722 0.028034 90 122 74 40 15
1.046512 0.172951 0.030911 102 137 84 40 15
1.044455 0.182038 0.038697 123 146 109 40 15
1.028840 0.193925 0.038538 115 139 97 40 15
1.020559 0.175128 0.042088 118 144 103 40 15
1.032657 0.171273 0.038201 110 137 95 40 15
1.038021 0.163232 0.020870 73 104 54 40 15
1.246959 0.273477 -0.188156 58 72 38 40 15
1.251669 0.257452 -0.171764 48 59 35 40 15
1.240713 0.276544 -0.196258 68 83 45 40 15
1.259752 0.264278 -0.184331 53 62 37 40 15
1.264579 0.264685 -0.190798 56 67 38 40 15
1.242726 0.272140 -0.179461 58 70 40 40 15
1.239684 0.275732 -0.169395 44 56 32 40 15
1.253259 0.264059 -0.195424 93 108 72 40 15
0.911511 0.215040 -0.324244 84 97 67 14 6
0.913847 0.220391 -0.311870 85 94 68 14 6
0.910753 0.205178 -0.314235 85 94 68 14 6
0.906239 0.228798 -0.328139 85 104 64 14 6
0.914363 0.203345 -0.332677 77 84 71 14 6
0.913418 0.223946 -0.301719 93 104 76 14 6
0.923311 0.204759 -0.293962 94 102 79 14 6
0.919973 0.200819 -0.302641 77 82 69 14 6
0.922275 0.157240 -0.063121 161 172 151 40 15
0.900704 -0.025807 0.008916 135 139 119 40 14
0.905607 -0.038538 0.019229 136 141 120 40 14
0.886707 -0.024129 -0.007717 147 149 127 40 14
0.897486 -0.045559 -0.005033 146 147 124 40 14
0.900600 -0.033067 -0.002357 139 142 121 40 14
0.885823 -0.013236 0.016633 138 141 122 40 14
0.887080 -0.013310 0.003343 140 143 121 40 14
0.903151 -0.041735 0.014754 134 139 118 40 14
0.881811 -0.012907 0.017957 138 141 122 40 14
1.155736 0.242682 -0.102577 89 105 66 40 15
1.163756 0.233731 -0.074926 64 79 43 40 15
1.154240 0.253632 -0.078109 61 76 46 40 15
1.149854 0.243766 -0.104506 73 88 50 40 15
1.152047 0.245581 -0.074462 76 91 61 40 15
1.143884 0.249914 -0.091478 85 103 64 40 15
1.152365 0.252733 -0.097562 43 61 28 40 15
1.161538 0.234342 -0.089124 80 99 62 40 15
1.153744 0.222223 -0.090108 92 113 68 40 15
1.139991 0.251335 -0.098163 57 74 38 40 15
1.142691 0.230167 -0.082904 80 100 59 40 15
1.150741 0.238768 -0.085772 80 97 58 40 15
1.136031 0.241214 -0.090158 80 99 66 40 15
1.140823 0.248920 -0.109778 78 96 57 40 15
1.159604 0.251609 -0.105436 70 89 49 40 15
0.664865 0.015513 -0.129368 243 241 239 14 6
0.655548 -0.005124 -0.129190 238 226 217 14 6
0.649120 0.019440 -0.128640 245 241 238 14 6
1.167090 0.227507 -0.421966 34 47 30 40 15
1.168085 0.213796 -0.413204 30 47 26 40 15
1.178371 0.208592 -0.421328 71 93 64 40 15
1.183847 0.207130 -0.397438 49 64 42 40 15
1.177017 0.232627 -0.410759 34 47 30 40 15
1.169482 0.228191 -0.414068 22 36 20 40 15
1.171166 0.212395 -0.404568 47 67 42 40 15
1.165059 0.204136 -0.426785 108 123 89 40 15
1.182929 0.206337 -0.402002 59 82 53 40 15
1.174550 0.205627 -0.407775 47 71 42 40 15
0.793899 0.096946 0.265919 19 22 29 40 14
0.794960 0.090800 0.256205 19 22 29 40 14
0.780836 0.111679 0.275227 22 24 31 40 14
0.787715 0.097404 0.254966 21 23 31 40 14
0.748927 0.027446 -0.009838 143 144 127 40 14
0.753183 0.053288 0.005802 151 151 135 40 14
0.737813 0.041560 -0.003381 145 145 129 40 14
0.745959 0.044427 0.003279 150 151 134 40 14
0.751906 0.049546 -0.007152 153 152 137 40 14
0.733695 0.036882 -0.009175 146 145 130 40 14
0.877634 0.047418 0.200907 187 192 186 40 14
0.887492 0.032175 0.194175 184 189 181 40 14
0.898617 0.022224 0.203259 184 189 181 40 14
1.284495 0.204130 -0.213439 54 77 41 40 15
1.311668 0.205544 -0.212499 71 93 52 40 15
1.300495 0.201133 -0.207251 54 78 41 40 15
1.288886 0.197987 -0.210346 39 66 28 40 15
1.299551 0.212637 -0.217185 118 130 86 40 15
0.962106 0.212269 0.000805 113 131 97 40 15
0.750057 0.126169 0.189534 180 184 179 40 14
0.849679 -0.053797 -0.144560 203 183 159 14 6
0.841980 -0.058851 -0.149947 203 181 157 14 6
0.849885 -0.043097 -0.145579 212 194 173 14 6
0.850283 -0.026453 -0.149324 205 185 161 14 6
1.223902 -0.313654 -0.433713 235 226 208 7 4
1.186917 -0.328439 -0.434417 233 225 206 7 4
0.886485 0.153234 -0.421347 84 86 84 14 6
0.879900 0.159767 -0.393569 84 84 83 14 6
0.872646 0.163493 -0.392838 84 83 83 14 6
0.932843 0.208753 -0.513761 83 86 86 14 6
0.929094 0.240761 -0.499441 100 105 101 14 6
0.935381 0.228727 -0.524432 103 108 105 14 6
1.255849 0.102348 -0.170630 98 143 75 40 15
1.263961 0.095824 -0.164328 100 146 78 40 15
1.285096 0.084718 -0.197448 86 130 64 40 15
1.264843 0.098596 -0.189600 99 128 69 40 15
1.254046 0.102903 -0.181149 79 121 57 40 15
1.276314 0.093029 -0.195697 80 120 58 40 15
1.030514 -0.181360 -0.434954 242 237 221 7 4
1.247673 -0.037212 -0.436913 218 214 188 7 4
1.248469 0.300126 -0.067307 59 73 43 40 15
0.843234 0.157960 -0.215396 125 127 131 14 6
0.823152 0.152158 -0.211701 55 56 55 14 6
0.835896 0.154094 -0.210257 118 119 125 14 6
0.826750 0.163789 -0.212375 102 103 106 14 6
0.827003 0.139667 -0.204034 36 40 35 14 6
0.835067 0.176141 -0.214638 98 98 102 14 6
1.186600 0.120333 -0.133744 136 172 105 40 15
1.210666 0.114824 -0.132329 156 185 123 40 15
1.184126 0.127194 -0.125274 105 122 67 40 15
1.200040 0.109692 -0.127099 129 166 98 40 15
1.198300 0.134547 -0.134792 86 107 52 40 15
1.192397 0.108588 -0.111602 141 176 108 40 15
1.177418 0.123346 -0.119606 109 128 73 40 15
1.195039 0.112879 -0.119258 114 144 78 40 15
1.184634 0.117307 -0.110092 62 76 46 40 15
1.171752 0.116382 -0.099643 94 115 73 40 15
0.922382 -0.225850 -0.487444 113 115 110 7 4
0.905945 -0.214030 -0.467203 116 118 113 7 4
0.930345 -0.233287 -0.471892 138 140 126 7 4
0.732855 0.063736 -0.018338 159 156 140 40 14
0.726297 0.053654 -0.013057 150 149 132 40 14
0.740027 0.073053 -0.012249 159 157 141 40 14
0.733158 0.085911 -0.012879 164 161 145 40 14
0.743513 0.070250 -0.018310 160 157 141 40 14
0.745106 0.057027 -0.017594 156 154 138 40 14
1.178636 0.316044 -0.355676 52 67 43 40 15
1.203467 0.296501 -0.344209 35 51 26 40 15
1.087845 0.247371 -0.181874 73 81 52 40 15
1.090915 0.232957 -0.178073 55 67 37 40 15
1.103453 0.234571 -0.184335 59 74 38 40 15
0.737591 0.119158 0.076824 21 23 30 40 14
1.224267 -0.148232 -0.435368 231 227 207 7 4
0.930162 0.234694 -0.583569 158 152 140 14 6
0.924873 0.231312 -0.573186 73 79 79 14 6
0.745240 0.074803 -0.002242 158 156 142 40 14
0.723129 0.051357 0.003539 154 152 135 40 14
0.728512 0.073675 0.009200 159 156 142 40 14
0.726150 0.059705 0.008531 156 154 140 40 14
0.747268 0.064415 -0.012887 158 156 140 40 14
0.744880 0.071486 0.005713 159 156 143 40 14
0.752659 0.065951 0.001586 158 155 142 40 14
0.738349 0.059703 0.008527 152 152 136 40 14
0.915414 -0.227837 -0.554891 77 79 84 7 4
0.899691 -0.224491 -0.567641 79 82 87 7 4
0.894072 -0.220653 -0.562444 78 81 87 7 4
0.907744 -0.196273 -0.557730 72 73 75 7 4
0.894588 -0.203003 -0.562273 74 78 84 7 4
0.892650 -0.206295 -0.554932 77 79 84 7 4
0.896943 -0.202858 -0.582810 70 69 75 7 4
0.893693 -0.215123 -0.580077 78 80 87 7 4
1.190187 0.256017 -0.039097 63 81 49 40 15
1.191090 0.257916 -0.030964 43 47 25 40 15
1.196703 0.264406 -0.034098 43 47 25 40 15
1.188907 0.262308 -0.038625 43 50 25 40 15
1.200248 0.244848 -0.019746 52 70 40 40 15
1.190599 0.271406 -0.027629 50 53 33 40 15
1.184438 0.258813 -0.024585 62 73 48 40 15
1.184044 0.253256 -0.012005 49 69 38 40 15
1.167723 0.270919 -0.024026 50 59 34 40 15
1.173242 0.259198 -0.017743 49 68 39 40 15
0.974571 0.199778 -0.134125 75 86 64 40 15
1.224694 0.217268 -0.167989 82 85 45 40 15
1.221536 0.215402 -0.151399 82 88 46 40 15
1.200008 0.305812 -0.370903 73 87 63 40 15
1.203220 0.301884 -0.383179 69 84 57 40 15
0.804448 0.054229 0.083704 136 137 124 40 14
0.900033 0.009038 0.162574 172 177 168 40 14
0.883602 -0.018547 0.173656 172 177 168 40 14
1.200831 0.225735 0.058977 109 143 65 40 15
1.207119 0.239760 0.065687 69 100 34 40 15
1.207146 0.231219 0.066990 90 121 52 40 15
1.189318 0.231249 0.056250 113 147 67 40 15
1.200088 0.237907 0.056184 113 147 67 40 15
1.196084 0.260152 0.083802 97 133 63 40 15
1.201972 0.237043 0.078673 110 145 76 40 15
1.197182 0.240335 0.083411 115 153 82 40 15
0.891802 0.042692 -0.137538 204 192 168 14 6
0.889633 0.066041 -0.141345 195 181 158 14 6
0.888933 0.044105 -0.141306 196 183 160 14 6
0.538420 0.003166 -0.135192 190 182 176 14 6
1.123982 0.309132 -0.425743 49 56 41 40 15
1.135122 0.316613 -0.453095 38 39 27 40 15
1.134498 0.316730 -0.443667 47 56 39 40 15
1.286611 0.231412 -0.179431 58 71 39 40 15
1.292398 0.201511 -0.196119 66 94 53 40 15
1.288031 0.221226 -0.170843 61 70 45 40 15
1.300891 0.209827 -0.175317 81 95 53 40 15
1.285143 0.219890 -0.191166 81 100 54 40 15
1.282193 0.213018 -0.194937 72 94 54 40 15
1.273323 0.213491 -0.191809 54 75 40 40 15
1.310295 0.200866 -0.197731 57 79 43 40 15
0.753178 0.128528 0.221063 18 19 24 40 14
1.107554 0.049943 -0.563382 42 50 36 40 15
1.124117 0.301529 -0.446632 44 49 31 40 15
1.119203 0.289329 -0.442795 50 58 39 40 15
1.125633 0.304129 -0.435992 45 54 33 40 15
1.153826 0.243959 -0.115267 95 114 69 40 15
1.150210 0.224763 -0.120404 64 77 41 40 15
1.155274 0.227001 -0.113633 72 86 41 40 15
1.159660 0.243932 -0.110077 70 85 49 40 15
1.152587 0.231295 -0.123800 51 63 33 40 15
1.170459 0.233110 -0.105095 87 107 67 40 15
0.864300 0.056247 0.159057 158 160 154 40 14
0.872442 0.045916 0.152180 145 150 140 40 14
1.246234 0.259777 -0.266932 68 94 45 40 15
1.233406 0.264833 -0.245670 61 80 36 40 15
1.232815 0.262967 -0.240607 66 85 41 40 15
1.233509 0.277401 -0.249299 79 109 56 40 15
1.254206 0.065482 -0.436610 200 199 173 7 4
1.271880 0.033520 -0.436880 205 206 182 7 4
0.821619 0.075471 0.327876 26 27 36 40 14
0.811615 0.080264 0.309641 25 27 34 40 14
0.808057 0.088153 0.316806 20 23 30 40 14
0.553277 -0.040140 -0.113709 240 242 245 14 6
0.578337 -0.054186 -0.123629 137 135 137 14 6
0.560062 -0.055104 -0.118737 183 186 190 14 6
1.075068 0.169020 -0.380781 68 83 62 40 15
1.068647 0.199310 -0.389806 80 88 71 40 15
1.014965 0.121242 -0.032780 153 165 144 40 15
0.716180 0.056737 -0.209577 124 121 122 14 6
0.722565 0.038035 -0.213102 123 119 117 14 6
0.723407 0.035951 -0.205752 87 84 82 14 6
1.084727 0.126732 -0.070312 98 119 59 40 15
1.069761 0.113338 -0.072324 115 136 76 40 15
1.065664 0.120608 -0.074024 98 124 65 40 15
1.078342 0.161956 -0.173043 41 58 24 40 15
1.070171 0.172456 -0.157811 44 62 28 40 15
1.098586 0.159462 -0.168160 42 54 28 40 15
0.873718 -0.009311 0.088624 147 154 138 40 14
0.871717 -0.006252 0.070337 141 148 131 40 14
0.856675 0.008305 0.075670 145 150 134 40 14
0.862217 0.003957 0.067090 142 146 131 40 14
1.183306 0.341495 -0.385409 37 50 32 40 15
1.208825 0.327736 -0.385210 40 55 36 40 15
1.189946 0.347471 -0.395291 59 72 56 40 15
1.213050 0.145221 -0.129463 130 165 109 40 15
1.224889 0.143926 -0.127793 71 98 51 40 15
1.217807 0.125089 -0.124782 107 140 83 40 15
1.203828 0.123072 -0.128973 75 106 52 40 15
1.231854 0.133844 -0.118290 124 161 101 40 15
1.206119 0.116962 -0.127596 140 171 108 40 15
1.229921 0.115842 -0.117002 133 165 105 40 15
1.241389 0.232626 0.072227 64 93 32 40 15
1.238673 0.211537 0.065091 106 138 66 40 15
0.912863 0.219934 -0.366429 66 77 67 14 6
0.916753 0.222346 -0.384494 78 91 71 14 6
0.917155 0.208522 -0.378520 70 81 69 14 6
0.912057 0.190788 -0.395018 67 78 74 14 6
0.485176 -0.139356 -0.124669 239 223 214 14 6
0.461988 -0.148644 -0.126309 247 232 222 14 6
0.500358 -0.164635 -0.126413 246 232 222 14 6
0.823003 0.087109 -0.176735 101 94 75 14 6
0.843110 0.103753 -0.169692 85 82 63 14 6
0.530528 -0.050215 -0.115282 244 247 251 14 6
0.473664 -0.049564 -0.116620 238 239 243 14 6
0.533858 -0.059498 -0.114793 241 242 245 14 6
0.493765 -0.039625 -0.114912 239 242 248 14 6
1.087599 0.219908 -0.382224 68 78 68 40 15
1.089953 0.215319 -0.389210 74 81 70 40 15
1.069620 0.204536 -0.383321 81 89 74 40 15
0.947350 -0.063995 0.270746 197 190 187 40 14
1.237498 0.279481 -0.183584 57 69 38 40 15
1.229445 0.294182 -0.167928 56 70 44 40 15
1.230066 0.284124 -0.190686 65 80 44 40 15
1.236284 0.284111 -0.194531 62 76 42 40 15
1.264539 0.135182 -0.409901 68 99 49 7 4
1.239878 0.120989 -0.409713 120 137 93 40 15
1.258450 0.121025 -0.424720 97 126 63 40 15
1.258034 0.126595 -0.411878 160 186 124 40 15
1.268439 0.145616 -0.424268 75 103 45 7 4
1.270739 0.129964 -0.427858 72 99 42 7 4
0.820875 0.129628 0.238374 89 91 96 40 14
0.811468 0.133862 0.216768 176 181 176 40 14
0.803875 0.142061 0.211317 166 170 166 40 14
0.818828 0.132240 0.248138 89 91 96 40 14
1.175950 0.165095 -0.559769 44 45 44 40 15
1.165511 0.167943 -0.535183 54 55 55 40 15
1.168256 0.166144 -0.551381 52 53 52 40 15
1.135723 0.177742 -0.516334 66 69 71 40 15
1.149216 0.175526 -0.553207 59 60 61 40 15
1.111730 0.216156 -0.222129 206 202 190 40 15
1.103537 0.204362 -0.220958 157 154 143 40 15
1.098756 0.195227 -0.222011 190 187 175 40 15
1.281496 0.205605 0.049251 86 114 63 40 15
1.286683 0.198269 0.052181 72 101 45 40 15
1.276229 0.193923 0.049855 85 112 71 40 15
1.284108 0.232083 0.051630 115 142 96 40 15
1.290022 0.210898 0.043505 118 146 98 40 15
1.262718 0.208758 0.046338 73 104 44 40 15
1.294393 0.219177 0.052976 126 154 105 40 15
1.279948 0.215224 0.045380 112 139 86 40 15
0.780710 -0.274596 -0.152127 129 126 124 14 6
0.809636 -0.278821 -0.150130 106 103 99 14 6
0.791791 -0.285683 -0.141667 118 108 104 14 6
0.803400 -0.270228 -0.154375 122 119 115 14 6
0.812516 -0.287567 -0.143299 131 124 118 14 6
0.786346 -0.283277 -0.145814 124 120 118 14 6
1.189470 0.111679 0.059514 127 154 93 40 15
1.181110 0.095034 0.060194 128 150 97 40 15
1.197663 0.127807 0.058130 142 166 113 40 15
1.182453 0.120280 0.059259 143 168 113 40 15
1.166328 0.264231 -0.462224 27 34 23 40 15
1.172313 0.265905 -0.463280 31 37 26 40 15
1.194707 0.258337 -0.476739 72 74 56 40 15
1.182019 0.265395 -0.474685 32 36 21 40 15
1.163786 0.255040 -0.465929 28 31 21 40 15
1.177687 0.255479 -0.473728 24 27 15 40 15
1.167997 0.242611 -0.466214 34 39 30 40 15
1.226685 0.210928 0.047654 113 144 82 40 15
1.234283 0.196460 0.044370 86 119 54 40 15
1.253972 0.232646 0.052483 111 138 93 40 15
1.226446 0.214609 0.034687 78 110 56 40 15
1.230521 0.230751 0.034448 66 91 33 40 15
1.235064 0.223237 0.036510 84 110 61 40 15
1.241424 0.234969 0.041418 105 135 84 40 15
1.230124 0.213875 0.028400 137 167 116 40 15
1.247702 0.223278 0.040145 63 91 31 40 15
1.241082 0.199410 0.034863 80 110 53 40 15
1.242590 0.209416 0.046382 67 95 42 40 15
0.931954 -0.075286 0.167418 165 175 159 40 14
0.929317 -0.062468 0.172225 168 176 160 40 14
0.919847 -0.064735 0.178876 166 175 159 40 14
0.929216 -0.078848 0.164942 165 175 159 40 14
1.199257 0.043437 -0.182190 148 176 131 40 15
1.182828 0.036073 -0.182863 153 175 132 40 15
1.200767 0.064236 -0.183622 86 111 74 40 15
1.200817 0.037679 -0.175956 133 158 115 40 15
1.317632 0.136658 -0.435908 178 178 151 7 4
1.307291 0.151874 -0.434045 171 171 145 7 4
1.110541 -0.405767 -0.456249 236 230 217 7 4
1.133933 -0.426591 -0.433713 251 243 229 7 4
0.916718 0.222561 -0.432753 58 66 55 14 6
0.910091 0.236965 -0.446684 61 67 60 14 6
0.922835 0.214091 -0.442709 58 65 57 14 6
0.923896 0.205305 -0.446874 59 68 52 14 6
0.924637 0.209850 -0.425632 61 72 60 14 6
1.171003 0.045764 -0.170141 116 134 103 40 15
1.167916 0.049772 -0.158740 108 129 94 40 15
1.179796 0.038398 -0.167198 91 102 76 40 15
0.887145 0.213243 -0.473203 57 67 62 14 6
0.928122 0.213102 -0.177875 105 108 97 40 15
0.928559 0.214181 -0.195630 53 57 48 40 15
1.189278 0.195657 -0.098367 55 77 39 40 15
1.181655 0.195543 -0.088922 50 73 37 40 15
1.198584 0.202506 -0.101126 50 73 36 40 15
1.106003 0.279490 0.096223 117 147 91 40 15
1.087981 0.287950 0.095520 124 151 104 40 15
0.857176 0.026943 -0.129146 235 229 206 14 6
0.864458 -0.005550 -0.131795 236 228 204 14 6
1.288964 0.150855 0.024227 138 159 111 40 15
1.263208 0.170848 0.025605 149 172 120 40 15
1.269580 0.152116 0.026340 84 102 64 40 15
1.258237 0.168837 0.053537 85 110 50 40 15
1.282790 0.182769 0.040239 138 175 119 40 15
1.284572 0.163152 0.053966 119 146 86 40 15
1.291175 0.148065 0.050153 81 104 45 40 15
1.279155 0.179695 0.030684 139 163 114 40 15
1.277622 0.167960 0.026608 148 174 123 40 15
0.857755 0.003018 0.096018 152 159 143 40 14
0.866786 -0.008323 0.096740 152 159 144 40 14
0.862262 -0.001255 0.106783 156 162 148 40 14
0.883927 -0.025427 0.108073 155 162 147 40 14
0.988406 -0.106175 -0.451323 227 220 200 7 4
0.996183 -0.116332 -0.433304 212 207 189 7 4
1.002835 -0.107330 -0.455226 231 221 203 7 4
0.993319 -0.121972 -0.455882 229 219 203 7 4
1.006959 -0.113543 -0.456119 216 208 190 7 4
0.973775 -0.142955 -0.456630 227 217 199 7 4
1.226347 0.212737 -0.244256 49 72 35 40 15
1.228746 0.223308 -0.263993 35 55 26 40 15
1.224301 0.216353 -0.261799 42 61 30 40 15
1.231069 0.226108 -0.245123 45 70 33 40 15
1.234312 0.216658 -0.237459 39 65 29 40 15
1.245662 0.220454 -0.230718 66 87 50 40 15
1.131040 0.237531 -0.052547 46 64 27 40 15
1.129736 0.238557 -0.042076 46 64 27 40 15
1.117466 0.206555 -0.072878 108 125 94 40 15
1.109983 0.240696 -0.063687 106 117 90 40 15
1.124758 0.232952 -0.059159 98 109 71 40 15
1.145107 0.219065 -0.056095 93 108 67 40 15
1.137856 0.218637 -0.059203 136 148 121 40 15
0.716477 0.000218 -0.126896 234 230 224 14 6
0.734555 -0.025040 -0.125662 233 221 208 14 6
1.057229 0.121665 -0.083941 110 133 63 40 15
1.073993 0.123356 -0.088492 83 105 46 40 15
1.078762 0.133564 -0.089605 83 105 46 40 15
1.073437 0.132183 -0.095786 85 105 56 40 15
1.056425 0.129418 -0.080581 107 129 60 40 15
0.812988 0.053854 0.026519 149 149 136 40 14
0.825869 0.066984 0.026228 137 136 128 40 14
0.820380 0.075387 0.032856 137 136 128 40 14
0.792014 0.068306 0.031544 152 151 138 40 14
1.085200 -0.231478 -0.434550 240 235 216 7 4
1.162909 0.051189 -0.161553 106 132 93 40 15
1.170548 0.057296 -0.165842 93 118 75 40 15
1.156034 0.070206 -0.170194 97 113 80 40 15
1.157381 0.052264 -0.156617 73 85 55 40 15
1.161010 0.060076 -0.152697 111 134 89 40 15
1.158287 0.064728 -0.158375 129 151 111 40 15
1.158395 0.065365 -0.141630 155 175 125 40 15
1.139838 0.052309 -0.151314 109 129 88 40 15
1.152484 0.058985 -0.140830 113 128 90 40 15
1.146774 0.053988 -0.161159 115 138 100 40 15
1.191119 -0.463577 -0.433233 253 244 231 7 4
1.185299 -0.447096 -0.433229 251 244 231 7 4
0.774482 0.125836 0.313797 22 24 30 40 14
0.777732 0.114598 0.285496 20 22 28 40 14
0.786050 0.107471 0.291913 19 21 28 40 14
0.925990 0.210303 -0.414272 60 70 65 14 6
0.925268 0.196001 -0.418132 63 72 69 14 6
0.918247 0.222708 -0.409692 63 72 65 14 6
0.924053 0.210628 -0.392888 63 75 65 14 6
0.921767 0.203421 -0.393056 65 75 72 14 6
1.282623 0.174855 0.059655 99 136 60 40 15
1.273901 0.170810 0.062995 143 176 112 40 15
1.278661 0.178381 0.074751 95 125 56 40 15
0.425001 -0.105952 -0.125022 239 220 212 14 6
0.384505 -0.103598 -0.126304 233 219 209 14 6
1.278050 0.069368 -0.246586 110 135 88 40 15
1.276602 0.081927 -0.240666 52 85 34 40 15
1.286614 0.085131 -0.248457 63 95 46 40 15
1.299056 0.085697 -0.223329 66 98 49 40 15
1.039769 0.150430 -0.006517 151 163 134 40 15
1.052367 0.139787 -0.007050 140 156 119 40 15
1.051658 0.133181 -0.016577 132 149 119 40 15
1.067784 0.146469 -0.020770 143 148 141 40 15
1.043379 0.152523 -0.019242 168 175 162 40 15
1.060572 0.134949 -0.016701 163 177 144 40 15
1.052440 0.144669 -0.022859 152 157 151 40 15
0.944767 -0.273034 -0.441312 231 226 211 7 4
0.914183 -0.246068 -0.441453 230 226 214 7 4
0.933586 -0.243467 -0.433175 227 223 212 7 4
0.947820 -0.268765 -0.435943 221 213 203 7 4
0.933909 -0.240864 -0.457273 202 199 184 7 4
0.917718 -0.244754 -0.450564 237 227 212 7 4
0.935444 -0.266060 -0.445648 239 232 215 7 4
1.143055 0.215214 -0.119621 95 117 71 40 15
1.139543 0.203658 -0.116145 51 61 43 40 15
1.134230 0.198356 -0.110919 56 66 42 40 15
1.142447 0.187127 -0.617434 62 63 65 40 15
1.127394 0.195076 -0.609988 55 57 58 40 15
1.253926 0.229497 0.044176 130 160 110 40 15
1.258296 0.224843 0.040393 75 98 48 40 15
1.093921 0.248010 0.091591 126 152 110 40 15
1.084209 0.243331 0.094521 137 158 128 40 15
1.108815 0.325258 -0.419923 55 59 43 40 15
1.114201 0.318855 -0.423225 68 75 53 0 0
1.109071 0.316843 -0.418452 65 72 48 0 0
1.153198 0.367586 -0.101959 80 98 61 40 15
1.145624 0.343490 -0.074641 54 62 39 40 15
1.158527 0.342171 -0.076027 61 72 45 40 15
1.169493 0.348225 -0.105128 76 92 56 40 15
1.184493 0.340454 -0.097676 74 93 55 40 15
0.866580 0.163897 -0.451878 70 73 77 14 6
0.866428 0.162808 -0.437434 73 75 80 14 6
0.860155 0.173786 -0.434794 73 76 80 14 6
0.858117 0.180134 -0.444017 64 67 74 14 6
0.859760 0.189504 -0.442062 60 64 71 14 6
1.202183 0.126059 0.054651 153 181 122 40 15
1.102108 0.169769 -0.382556 53 63 45 40 15
1.106478 0.181224 -0.378468 56 64 55 40 15
1.107959 0.169245 -0.386416 51 67 40 40 15
1.116611 0.203440 -0.373892 82 89 76 40 15
1.103600 0.177638 -0.392032 55 63 56 40 15
1.112142 0.186452 -0.369253 78 90 71 40 15
1.113427 0.191796 -0.363295 76 89 69 40 15
1.169086 0.220418 -0.429505 45 64 40 40 15
1.166294 0.213434 -0.436500 41 60 36 40 15
1.165120 0.203670 -0.437043 101 121 94 40 15
1.161132 0.196040 -0.439695 85 90 66 40 15
1.165490 0.212125 -0.442839 74 95 71 40 15
1.175202 0.204893 -0.426276 89 112 84 40 15
1.160313 0.209405 -0.444629 71 88 66 40 15
0.968677 0.197055 0.005957 153 175 132 40 15
0.971310 0.181252 0.020730 142 166 120 40 15
0.977561 0.177634 0.010041 139 163 117 40 15
1.284643 0.049149 -0.227349 86 113 59 40 15
1.250206 0.047234 -0.218046 60 96 30 40 15
1.259859 0.054095 -0.209710 56 93 29 40 15
1.265328 0.051778 -0.223688 55 92 28 40 15
1.261581 0.059058 -0.228431 65 96 37 40 15
0.920639 0.197623 -0.467086 66 81 62 14 6
0.926285 0.213944 -0.464793 55 64 60 14 6
0.924722 0.204501 -0.475314 54 64 58 14 6
0.927857 0.211872 -0.486423 55 63 58 14 6
1.101929 0.274231 -0.041174 58 68 53 40 15
1.107727 0.248730 -0.033821 82 93 77 40 15
1.122215 0.245285 -0.042624 42 51 36 40 15
1.099610 0.240070 -0.028990 71 87 49 40 15
0.786446 0.146775 0.150944 199 204 200 40 14
0.788490 0.141627 0.126696 200 204 202 40 14
0.783246 0.151316 0.138362 206 210 207 40 14
0.791706 0.140331 0.143150 205 209 208 40 14
1.225221 0.273687 -0.307123 68 85 53 40 15
1.206370 0.289505 -0.323458 47 63 38 40 15
1.217747 0.286191 -0.323773 48 63 39 40 15
1.214329 0.286305 -0.293827 47 63 38 40 15
1.184180 0.358793 -0.224072 135 140 131 40 15
1.185117 0.380138 -0.215950 113 120 105 40 15
1.187038 0.365307 -0.215185 132 138 128 40 15
1.191316 0.375640 -0.225754 88 99 72 40 15
1.178013 0.372481 -0.220364 141 148 139 40 15
1.196707 0.370205 -0.211690 104 110 96 40 15
1.199042 0.352099 -0.211673 117 126 109 40 15
1.186266 0.365019 -0.226060 124 128 114 40 15
1.193875 0.368275 -0.229865 118 124 109 40 15
1.196237 0.359642 -0.228784 133 137 128 40 15
1.252444 0.011107 -0.436522 208 205 181 7 4
1.227851 -0.010978 -0.436616 220 216 193 7 4
1.105920 0.284494 -0.455286 76 76 64 40 15
1.109615 0.271233 -0.457887 75 76 64 40 15
1.113674 0.282447 -0.430422 58 64 49 40 15
1.106881 0.268187 -0.439100 71 76 65 40 15
0.990753 -0.170400 -0.541697 105 105 111 7 4
0.704282 0.077734 -0.121126 173 175 162 14 6
0.700345 0.066260 -0.118601 177 180 171 14 6
0.682324 0.077688 -0.120968 70 69 74 14 6
0.687998 0.095429 -0.123273 101 100 104 14 6
1.175120 0.370867 -0.345556 49 59 50 40 15
1.178702 0.364066 -0.336194 55 65 56 40 15
0.445389 -0.178607 -0.124589 246 234 223 14 6
0.926807 0.213849 -0.543361 77 82 81 14 6
1.219059 0.128577 -0.411483 81 107 63 40 15
1.204533 0.117321 -0.428403 104 121 85 7 4
1.228514 0.121854 -0.416093 102 125 84 40 15
1.211384 0.129884 -0.397645 139 165 118 40 15
1.222870 0.151310 -0.418463 78 106 48 40 15
1.211465 0.137493 -0.419364 143 169 123 7 4
1.228563 0.124988 -0.398941 74 105 63 40 15
0.838185 0.054349 0.331515 17 19 24 40 14
0.836810 0.055756 0.317056 35 37 45 40 14
0.821112 0.072689 0.316041 24 25 33 40 14
1.181069 0.301912 -0.085721 38 54 28 40 15
1.180516 0.305126 -0.045541 62 75 40 40 15
1.182813 0.291774 -0.050358 57 71 37 40 15
1.205753 0.306600 -0.045528 83 96 59 40 15
1.073466 0.203360 -0.079381 117 141 90 40 15
1.063150 0.196952 -0.078988 125 151 101 40 15
1.065067 0.188681 -0.077840 142 171 112 40 15
1.054392 0.193500 -0.085014 82 103 63 40 15
1.063597 0.179720 -0.084611 115 133 94 40 15
0.509298 -0.013657 -0.112179 244 249 254 14 6
1.281440 -0.025725 -0.435789 224 225 203 7 4
1.328481 -0.045729 -0.435332 225 225 203 7 4
0.840346 -0.114348 -0.130237 230 216 198 14 6
0.852163 -0.118814 -0.133724 216 200 181 14 6
0.791846 0.156470 0.216040 179 182 178 40 14
0.794046 0.144776 0.193242 179 183 179 40 14
1.196373 0.308253 -0.101834 46 63 34 40 15
1.191893 0.301033 -0.107518 59 78 42 40 15
1.198039 0.297190 -0.092415 95 114 78 40 15
1.197466 0.305303 -0.097327 53 68 37 40 15
1.190230 0.322800 -0.095305 29 45 20 40 15
1.183100 0.309559 -0.092058 35 47 26 40 15
1.088736 0.187900 -0.168866 119 122 97 40 15
1.199848 0.142605 0.043337 146 174 113 40 15
1.234457 0.152505 0.051871 158 187 129 40 15
1.220616 0.149357 0.050193 155 182 127 40 15
1.219732 0.158234 0.042564 132 162 96 40 15
1.203063 0.158277 0.042173 159 188 126 40 15
1.215923 0.172126 0.036614 104 135 66 40 15
1.187854 0.159920 0.051650 137 162 113 40 15
1.188059 0.154396 0.045248 157 183 125 40 15
1.192382 0.167585 0.041172 95 121 56 40 15
0.809398 -0.180568 -0.127387 248 234 219 14 6
0.825559 -0.205063 -0.135699 211 193 174 14 6
0.824948 -0.199551 -0.129137 249 236 223 14 6
1.192764 -0.258457 -0.433531 230 224 202 7 4
1.092463 0.009862 -0.435319 205 201 182 7 4
1.101477 0.018276 -0.432122 182 182 161 7 4
1.115414 0.032734 -0.429790 162 157 139 7 4
1.100437 0.040770 -0.433309 150 147 134 7 4
1.095545 0.036834 -0.449176 199 202 176 7 4
1.102646 0.023783 -0.453520 199 202 178 7 4
1.090906 0.036830 -0.445627 203 205 180 7 4
1.090293 0.024956 -0.440030 197 198 177 7 4
1.077844 0.019062 -0.445756 208 208 186 7 4
1.204321 0.120874 -0.451636 182 184 153 7 4
1.184457 0.101116 -0.438153 175 176 152 7 4
1.179627 0.120399 -0.445257 165 167 145 7 4
1.190333 0.107614 -0.450349 189 185 160 7 4
1.185354 0.098886 -0.453920 194 193 166 7 4
1.187731 0.124113 -0.422620 114 128 100 7 4
1.190233 0.117449 -0.428630 118 132 105 7 4
1.190425 0.107514 -0.435267 146 147 133 7 4
1.190859 0.125687 -0.439250 110 122 87 7 4
1.179134 0.116572 -0.439395 121 133 107 7 4
1.147514 0.225683 -0.466241 53 64 47 40 15
1.124141 0.236376 -0.482030 136 129 119 40 15
1.130501 0.221529 -0.458883 49 61 44 40 15
1.118167 0.234628 -0.463570 45 57 39 40 15
1.124865 0.224423 -0.459940 39 54 36 40 15
1.140587 0.230311 -0.472720 43 55 40 40 15
1.112830 0.235335 -0.470070 44 53 38 40 15
0.827208 -0.121431 -0.145689 197 177 153 14 6
0.815855 -0.125447 -0.154592 127 114 98 14 6
1.217432 0.113204 -0.152987 115 146 94 40 15
1.211261 0.117811 -0.152555 118 153 92 40 15
1.207563 0.133073 -0.172445 75 92 53 40 15
1.220228 0.120164 -0.163895 58 76 36 40 15
1.219335 0.115930 -0.164376 58 81 34 40 15
0.936420 -0.048002 0.219548 179 184 176 40 14
0.935195 -0.029630 0.228791 164 164 173 40 14
0.940530 -0.041905 0.238862 174 175 185 40 14
1.208637 0.128291 -0.409430 121 140 99 40 15
1.191295 0.124064 -0.409814 117 135 98 40 15
1.179095 0.128010 -0.410286 110 128 90 40 15
1.193958 0.130067 -0.422066 72 93 51 7 4
0.585400 -0.075903 -0.118825 83 83 93 14 6
0.575700 -0.029563 -0.128052 201 197 196 14 6
0.595115 -0.062281 -0.132368 109 103 104 14 6
1.181545 0.375668 -0.050603 45 65 31 40 15
1.195275 0.362007 -0.053995 105 126 90 40 15
1.189202 0.392347 -0.051162 34 48 26 40 15
1.188104 0.378819 -0.058735 34 47 28 40 15
1.199447 0.367530 -0.060322 67 83 54 40 15
1.191331 0.353524 -0.034319 140 170 124 0 0
1.250607 0.111791 -0.217519 97 121 70 40 15
1.262027 0.109558 -0.208146 97 121 70 40 15
1.263878 0.110043 -0.219390 94 119 67 40 15
1.243332 0.118696 -0.212588 96 116 64 40 15
0.928268 -0.228879 -0.544573 119 113 109 7 4
1.276600 0.113514 -0.118339 35 57 16 40 15
1.261666 0.121722 -0.124503 47 71 29 40 15
1.283245 0.116106 -0.128374 49 73 32 40 15
1.251748 0.122266 -0.117332 92 124 72 40 15
1.254705 0.128022 -0.121646 104 119 82 40 15
1.246609 0.122946 -0.111921 121 162 98 40 15
1.268826 0.117952 -0.112301 111 140 88 40 15
0.862463 0.169029 -0.481697 66 70 74 14 6
0.856615 0.181695 -0.490203 141 139 134 14 6
0.858659 0.186604 -0.467099 58 61 68 14 6
0.858549 0.187544 -0.485159 58 62 66 14 6
0.857595 0.179776 -0.470904 62 66 71 14 6
0.862262 0.188678 -0.483379 57 60 65 14 6
1.150708 0.103633 -0.233441 59 67 49 40 15
1.156878 0.105103 -0.230602 57 67 45 40 15
0.847461 0.075327 0.143402 198 198 196 40 14
0.857632 0.064888 0.145768 122 122 116 40 14
0.856290 0.058201 0.126575 104 103 97 40 14
1.211397 0.241654 -0.407505 37 48 31 40 15
1.193323 0.227702 -0.405210 33 47 27 40 15
1.203636 0.229439 -0.399929 44 58 35 40 15
1.185985 0.220062 -0.400320 48 63 39 40 15
1.186439 0.240342 -0.415101 39 48 29 40 15
1.243209 -0.052248 -0.436271 219 217 194 7 4
0.787053 0.038979 -0.114109 209 220 129 14 6
0.787959 0.031134 -0.118736 217 226 142 14 6
0.814699 0.039067 -0.120904 204 212 128 14 6
0.806169 0.026599 -0.122161 213 219 147 14 6
1.138184 0.360086 -0.160934 88 101 83 40 15
1.145532 0.352699 -0.146495 55 69 42 40 15
1.142112 0.353734 -0.133397 103 120 88 40 15
1.142020 0.363778 -0.155089 82 95 76 40 15
0.944386 0.167086 -0.620575 52 53 51 14 6
0.929082 0.149283 -0.611462 66 68 68 14 6
0.934272 0.152883 -0.631964 49 51 50 14 6
0.945415 0.173707 -0.642099 62 62 61 14 6
0.926621 0.066808 -0.113574 98 132 76 40 15
0.919534 0.084981 -0.131072 147 158 114 40 15
0.904103 0.064654 -0.113169 129 150 106 40 15
0.909227 0.078279 -0.128517 128 131 95 40 15
0.902102 0.071195 -0.126871 155 161 135 40 15
1.087974 0.130049 -0.189069 44 54 27 40 15
1.079433 0.139494 -0.181480 51 67 43 40 15
1.072552 0.118690 -0.181603 94 108 93 40 15
1.080169 0.133051 -0.178241 45 54 27 40 15
1.071109 0.116877 -0.176923 101 116 102 40 15
1.082006 0.122862 -0.171779 95 110 90 40 15
1.166691 -0.444645 -0.460799 39 36 31 7 4
1.181813 -0.457947 -0.461923 97 90 81 7 4
1.054337 -0.007825 -0.449671 215 213 192 7 4
1.078777 0.009317 -0.440331 212 205 187 7 4
1.065811 0.008641 -0.445790 214 212 192 7 4
1.080719 0.015346 -0.450551 210 208 188 7 4
1.070328 0.004933 -0.449724 216 213 193 7 4
1.213820 0.178851 -0.098533 56 81 41 40 15
1.217893 0.167422 -0.104509 39 66 21 40 15
1.216055 0.171052 -0.097717 40 63 26 40 15
1.219209 0.179697 -0.095010 51 73 36 40 15
1.225313 0.193910 -0.091158 47 70 37 40 15
1.333365 0.170877 -0.112261 100 121 64 40 15
1.133394 0.086323 -0.119075 104 132 77 40 15
1.145077 0.078234 -0.115405 134 158 105 40 15
1.139781 0.088599 -0.110103 87 105 56 40 15
1.143258 0.072334 -0.125928 136 162 108 40 15
1.134584 0.094247 -0.103224 92 108 57 40 15
1.123990 0.095816 -0.113120 88 107 58 40 15
1.150428 0.097657 -0.112189 77 96 45 40 15
1.196151 0.069919 -0.174804 81 116 52 40 15
1.144461 0.325208 -0.310644 110 115 103 40 15
1.152308 0.314088 -0.301995 93 105 83 40 15
1.163603 0.326932 -0.319757 101 113 99 40 15
1.118249 0.089351 -0.149003 112 135 89 40 15
1.119863 0.100735 -0.137285 80 107 48 40 15
1.122971 0.123498 -0.151409 62 82 28 40 15
1.105315 0.108955 -0.155501 74 94 56 40 15
1.109650 0.115742 -0.158488 64 88 45 40 15
1.107823 0.104244 -0.157871 77 98 59 40 15
1.122825 0.106331 -0.154140 71 91 49 40 15
0.795692 0.136987 0.070019 195 202 197 40 14
0.796932 0.137514 0.055612 180 189 182 40 14
0.785419 0.147238 0.062342 170 176 173 40 14
0.787814 0.139622 0.080821 195 203 198 40 14
0.784148 0.150303 0.077910 195 201 198 40 14
1.007525 0.269199 -0.096819 111 126 100 40 15
1.011428 0.250234 -0.094070 79 92 57 40 15
1.103212 0.208957 -0.561141 51 56 59 40 15
0.908021 -0.198247 -0.569662 89 85 85 7 4
0.926049 -0.186907 -0.586265 95 89 92 7 4
0.921400 -0.189699 -0.556922 101 99 94 7 4
0.927094 -0.187023 -0.571719 61 64 62 7 4
1.124153 -0.402947 -0.459994 163 151 136 7 4
1.139775 -0.418180 -0.459875 161 152 138 7 4
1.131115 -0.396685 -0.467112 110 102 93 7 4
1.236909 0.083681 -0.175978 110 146 77 40 15
1.254005 0.081766 -0.196504 72 106 45 40 15
1.249189 0.075692 -0.196259 68 99 38 40 15
0.792010 0.084208 -0.204955 38 40 37 14 6
0.801193 0.074437 -0.189583 41 39 33 14 6
0.820447 0.067328 -0.174711 47 41 31 14 6
0.970981 0.151786 -0.150461 56 70 43 40 15
0.964296 0.140539 -0.145725 46 55 35 40 15
1.208540 0.120541 -0.455519 157 150 141 7 4
1.214002 0.122462 -0.425762 101 118 84 7 4
1.224021 0.117635 -0.425843 156 164 133 7 4
1.212165 0.133350 -0.427753 119 132 79 7 4
1.228603 0.151085 -0.440569 158 150 128 7 4
1.203268 0.133178 -0.445941 143 150 117 7 4
1.229948 0.144627 -0.444943 195 186 162 7 4
1.216762 0.135551 -0.447899 151 160 117 7 4
1.220073 0.147094 -0.439539 149 150 110 7 4
1.231396 0.268056 -0.019592 40 47 26 40 15
1.078466 0.284443 -0.584633 47 50 52 40 15
1.075996 0.024572 -0.544432 76 88 51 40 15
1.088904 0.051228 -0.550648 49 59 31 40 15
1.089196 0.047366 -0.534497 58 67 41 40 15
1.079381 0.033691 -0.539266 39 51 29 40 15
1.092708 0.041239 -0.512217 55 70 46 40 15
0.835550 0.088493 -0.019433 117 116 119 0 0
0.844538 0.079384 -0.017898 78 77 79 0 0
0.825388 0.093130 -0.019326 115 115 118 0 0
1.193740 0.388172 0.030324 100 117 82 0 0
1.212998 0.156918 -0.387317 74 95 61 40 15
1.207245 0.140529 -0.387245 95 124 77 40 15
1.176454 0.165464 -0.385271 69 88 64 40 15
1.194817 0.165562 -0.385364 72 90 65 40 15
1.188096 0.142803 -0.384533 74 100 54 40 15
0.753918 0.093819 0.048976 136 135 126 40 14
0.733894 0.115014 0.038508 23 25 32 40 14
0.739725 0.109435 0.045538 19 21 28 40 14
0.741913 0.100869 0.036867 149 148 138 40 14
0.727159 0.122104 0.052265 20 23 29 40 14
0.945660 -0.068050 0.307666 191 189 184 40 14
0.947015 -0.058738 0.318823 188 185 181 40 14
0.948922 -0.063529 0.332758 207 207 201 40 14
1.246010 0.164125 -0.092341 43 66 27 40 15
1.243032 0.133121 -0.104044 163 195 130 40 15
1.249488 0.139956 -0.102020 48 76 24 40 15
1.236945 0.155548 -0.099498 50 80 25 40 15
1.230854 0.149216 -0.101394 62 91 33 40 15
1.166995 0.183719 -0.653806 55 57 54 40 15
1.188890 0.321954 -0.449760 41 55 37 40 15
1.180787 0.342144 -0.436811 48 64 44 40 15
1.191269 0.328959 -0.438950 46 65 39 40 15
1.058617 0.322786 -0.072875 122 135 125 40 15
1.079885 0.303461 -0.558776 56 58 62 40 15
1.089397 0.321732 -0.553045 58 60 63 40 15
1.076682 0.301673 -0.538004 66 66 71 40 15
1.074500 0.288872 -0.548728 60 62 66 40 15
1.077560 0.316942 -0.519645 64 65 68 40 15
1.158309 0.375860 -0.169593 46 61 35 40 15
0.449736 -0.200389 -0.124768 241 225 216 14 6
0.411788 -0.171104 -0.124994 237 220 213 14 6
0.965271 0.056206 -0.024482 216 227 203 0 0
0.980284 0.053001 -0.020810 174 195 159 0 0
0.971792 0.072953 -0.031801 190 203 176 0 0
0.977086 0.056476 -0.026678 213 221 200 0 0
0.966627 0.070631 -0.012017 194 211 181 0 0
0.960257 0.068157 -0.030788 193 207 180 0 0
0.972310 0.050593 -0.017827 208 216 191 0 0
1.231788 0.171674 -0.201922 49 80 34 40 15
1.225974 0.182299 -0.193888 62 93 44 40 15
1.219405 0.175485 -0.191879 67 96 51 40 15
1.238748 0.184258 -0.195175 63 93 47 40 15
1.247050 0.173187 -0.196292 58 93 43 40 15
0.965323 -0.201578 -0.641443 49 52 54 7 4
0.971429 -0.208166 -0.619105 38 44 44 7 4
0.966905 -0.221575 -0.617966 45 50 52 7 4
0.967524 -0.213291 -0.636894 53 56 56 7 4
1.188946 0.175748 -0.132483 57 77 40 40 15
1.201055 0.162104 -0.134060 49 61 32 40 15
1.215343 0.153386 -0.132758 49 61 32 40 15
1.196967 0.152309 -0.128347 105 138 84 40 15
1.201250 0.139370 -0.129374 123 160 102 40 15
1.208693 0.162417 -0.110561 115 146 84 40 15
1.208069 0.166148 -0.125120 76 104 49 40 15
0.792785 0.054591 -0.016714 162 157 144 40 14
0.792435 0.051325 -0.021238 161 157 143 40 14
0.783190 0.065460 -0.020173 166 161 148 40 14
1.194388 0.311353 -0.237035 116 126 102 40 15
1.196656 0.310510 -0.243226 90 101 71 40 15
1.230885 0.122373 -0.210541 91 114 59 40 15
0.789224 0.063653 -0.011234 163 161 145 40 14
0.771947 0.073274 -0.104938 140 160 95 14 6
1.199528 0.193770 0.031763 101 123 69 40 15
1.204772 0.183404 0.035613 88 113 51 40 15
1.185728 0.177606 0.042094 90 118 53 40 15
1.186218 0.199230 0.045516 101 123 65 40 15
1.180639 0.191386 0.048947 73 102 38 40 15
1.164570 0.190659 0.043668 75 93 53 40 15
1.190833 0.186909 0.039894 99 124 61 40 15
1.191218 0.203060 0.035279 101 129 68 40 15
1.150081 0.196226 -0.296898 83 90 78 40 15
1.127739 0.189331 -0.303312 90 94 85 40 15
1.134174 0.205850 -0.330559 41 54 30 40 15
1.146750 0.223132 -0.321543 49 63 35 40 15
1.133856 0.203794 -0.324020 54 68 39 40 15
1.149466 0.200968 -0.305488 86 97 77 40 15
1.123067 0.193559 -0.319245 80 90 74 40 15
0.962511 -0.221133 -0.491753 117 105 100 7 4
0.939857 -0.234851 -0.480157 140 141 128 7 4
0.969365 -0.226838 -0.486393 26 27 36 7 4
0.944070 -0.230546 -0.475942 128 121 112 7 4
0.947168 -0.239293 -0.467421 75 68 57 7 4
1.153806 0.036755 -0.568548 61 61 63 40 15
1.246844 0.271638 -0.226515 71 89 47 40 15
1.236019 0.271221 -0.235290 73 91 49 40 15
1.256004 0.257043 -0.224779 74 95 50 40 15
1.181960 0.291880 -0.296981 97 105 86 40 15
1.190580 0.291676 -0.285648 58 76 42 40 15
1.198793 0.286088 -0.283329 63 76 48 40 15
1.193210 0.294528 -0.300319 53 71 37 40 15
1.183353 0.316450 -0.279040 77 88 56 40 15
1.178847 0.298358 -0.284721 77 87 62 40 15
1.190519 0.298582 -0.277916 68 79 50 40 15
0.975709 0.178574 -0.136264 81 93 70 40 15
0.973889 0.166229 -0.135482 69 79 55 40 15
0.976761 0.166655 -0.128349 67 78 54 40 15
0.975780 0.155549 -0.127866 68 79 55 40 15
0.985214 0.163745 -0.124034 63 68 46 40 15
0.980716 0.174465 -0.134039 79 93 69 40 15
0.813023 -0.278957 -0.130573 181 175 174 14 6
0.813637 -0.286896 -0.137323 132 124 116 14 6
0.557763 -0.174488 -0.125925 245 232 222 14 6
0.516570 -0.160390 -0.125344 245 231 221 14 6
0.541679 -0.153674 -0.122701 247 233 223 14 6
0.624155 -0.217149 -0.162449 68 68 66 14 6
0.613635 -0.235693 -0.158429 48 49 52 14 6
0.607721 -0.216768 -0.160133 79 78 74 14 6
1.184988 0.224247 -0.479987 34 29 20 40 15
1.192112 0.235821 -0.478668 32 30 16 40 15
1.179161 0.235418 -0.475731 33 37 22 40 15
0.752818 0.125848 0.173466 179 182 175 40 14
0.758492 0.112535 0.160896 174 177 173 40 14
0.765413 0.110626 0.172613 179 183 177 40 14
0.805216 0.132665 0.171754 176 180 174 40 14
1.090814 0.254367 0.059149 99 129 74 40 15
1.105944 0.251437 0.071198 105 135 82 40 15
1.123158 0.256258 0.058771 112 149 86 40 15
1.105219 0.251770 0.063465 107 144 83 40 15
1.108318 0.248430 0.057683 112 138 89 40 15
1.117360 0.233468 0.054824 91 119 51 40 15
1.106990 0.239941 0.053586 111 141 66 40 15
1.123108 0.254636 0.073598 101 137 79 40 15
0.803227 0.131546 0.161899 174 180 175 40 14
0.739662 0.116498 0.059196 22 25 31 40 14
0.746281 0.105669 0.063303 25 27 33 40 14
0.746701 0.108697 0.079263 86 87 85 40 14
0.745619 0.096182 0.073406 135 133 120 40 14
0.747561 0.102840 0.052562 125 126 113 40 14
0.851721 0.110630 0.048334 175 177 175 40 14
0.855884 0.091339 0.036166 192 197 190 0 0
0.857011 0.094995 0.032360 191 197 191 40 14
0.846303 0.112927 0.034111 189 199 189 40 14
0.856090 0.106348 0.027591 189 197 188 40 14
0.857553 0.099793 0.051474 191 197 189 40 14
1.046274 -0.008968 -0.446068 212 208 188 7 4
1.063793 -0.005857 -0.439148 204 202 183 7 4
1.052675 -0.026220 -0.437479 207 204 184 7 4
1.039831 -0.025959 -0.441350 206 203 186 7 4
0.956726 0.126045 -0.037182 172 183 166 0 0
0.961829 0.136798 -0.036896 150 161 143 0 0
0.956556 0.112970 -0.030304 142 176 109 0 0
0.960285 0.106640 -0.037794 150 173 118 0 0
0.973298 0.122478 -0.033560 170 184 161 0 0
0.963998 0.114759 -0.028307 170 185 159 0 0
0.958102 0.118014 -0.043775 170 183 153 0 0
1.199068 0.161162 -0.591276 44 53 43 40 15
1.188652 0.164269 -0.597978 36 42 38 40 15
1.199377 0.170473 -0.610090 40 51 37 40 15
1.229991 0.224649 -0.166994 85 97 51 40 15
1.235281 0.218788 -0.164703 75 90 44 40 15
1.237457 0.226696 -0.159617 81 96 47 40 15
1.239905 0.207394 -0.151424 86 95 50 40 15
1.258278 0.213454 -0.156550 67 83 38 40 15
1.220436 0.223957 -0.156914 66 80 35 40 15
1.223665 0.218068 -0.160972 82 94 46 40 15
1.252102 0.220941 -0.150747 80 94 54 40 15
1.244221 0.218563 -0.161677 82 97 51 40 15
0.466529 -0.191700 -0.160244 125 112 100 14 6
0.460540 -0.184166 -0.162988 103 94 88 14 6
1.162898 0.081800 -0.134059 66 96 36 40 15
1.166724 0.101265 -0.125451 119 145 81 40 15
1.161409 0.095376 -0.121412 70 98 42 40 15
1.163161 0.102809 -0.115073 90 112 56 40 15
1.166620 0.128538 -0.121532 125 151 89 40 15
0.537088 -0.227150 -0.157633 93 89 86 14 6
0.516838 -0.232973 -0.153109 95 92 84 14 6
0.555231 -0.240613 -0.152616 93 87 83 14 6
0.932060 -0.183658 -0.531308 53 55 55 7 4
0.931184 -0.183360 -0.552735 54 57 55 7 4
0.923084 -0.189276 -0.530622 53 57 57 7 4
0.907862 -0.194726 -0.536788 72 76 73 7 4
0.876479 0.128799 -0.151848 93 100 66 14 6
0.868850 0.137442 -0.163293 75 81 54 14 6
0.875955 0.140163 -0.169666 72 74 52 14 6
1.142845 0.076271 -0.088572 90 117 55 40 15
0.785433 0.137986 -0.127229 176 175 174 14 6
0.782903 0.104159 -0.123526 131 132 132 14 6
1.218455 0.239644 -0.283992 48 66 36 40 15
1.196050 0.228413 -0.296389 43 59 29 40 15
1.207700 0.222437 -0.276123 33 50 21 40 15
1.186579 0.215988 -0.282988 35 53 22 40 15
0.917992 0.015891 0.251318 161 160 167 40 14
0.919100 0.024468 0.261436 111 111 110 40 14
1.208234 0.266383 -0.029376 32 37 16 40 15
1.222585 0.264775 -0.036922 63 75 43 40 15
1.219070 0.278935 -0.020546 40 48 27 40 15
1.195962 0.289889 -0.020120 32 39 22 40 15
1.222404 0.264619 -0.027541 37 44 24 40 15
0.754554 -0.136936 -0.178970 70 71 68 14 6
0.744069 -0.144779 -0.182891 105 104 100 14 6
0.740615 -0.152717 -0.175301 98 96 92 14 6
0.755946 -0.148446 -0.174679 92 88 86 14 6
0.766975 -0.145987 -0.174906 107 106 103 14 6
0.733549 -0.139044 -0.186714 71 68 66 14 6
0.893057 -0.016420 0.025460 139 141 122 40 14
0.890601 -0.027444 0.041453 137 143 122 40 14
0.901946 -0.032805 0.038044 138 142 123 40 14
0.902482 -0.034711 0.026528 137 140 121 40 14
0.893192 -0.014845 0.046477 140 142 125 40 14
0.887359 -0.017723 0.029186 139 141 122 40 14
0.894566 -0.024138 0.020192 139 141 121 40 14
0.902496 -0.032947 0.049067 140 143 126 40 14
0.898094 -0.033118 0.052865 139 144 127 40 14
0.898297 -0.034544 0.032878 137 140 122 40 14
1.061540 0.146719 -0.130416 74 85 69 40 15
1.051419 0.144115 -0.128638 94 107 89 40 15
1.065838 0.152234 -0.135554 48 63 37 40 15
1.051742 0.157842 -0.132917 77 90 72 40 15
1.154751 0.219920 -0.311822 46 63 29 40 15
1.090521 -0.255613 -0.435180 243 234 219 7 4
1.257127 0.234936 -0.109197 70 88 45 40 15
1.166645 0.364227 0.170852 99 124 61 40 15
1.155877 0.364577 0.172515 81 103 59 40 15
1.136575 0.005734 -0.461921 200 195 175 7 4
1.132643 0.010183 -0.458329 203 200 183 7 4
1.138299 0.014771 -0.487995 101 103 85 40 15
1.130059 0.021465 -0.461971 209 202 190 7 4
1.138966 0.019477 -0.462599 177 175 158 40 15
1.137320 0.023396 -0.473299 152 152 134 40 15
1.141882 0.011242 -0.481921 170 167 147 7 4
1.136028 -0.005781 -0.481343 163 161 140 7 4
1.128920 0.021048 -0.479121 95 98 79 40 15
1.138496 -0.007210 -0.493527 87 86 74 7 4
0.925046 -0.028332 0.195501 178 183 173 40 14
0.931840 -0.036936 0.205051 180 186 178 40 14
1.084915 -0.421950 -0.436837 250 242 227 7 4
0.772385 0.083255 -0.113001 217 218 182 14 6
0.759329 0.078566 -0.111546 143 159 102 14 6
0.784910 0.082159 -0.111649 137 155 99 14 6
0.752702 0.094814 -0.121479 231 230 168 14 6
0.768924 0.096711 -0.123969 171 172 138 14 6
0.766651 0.065171 -0.104829 153 171 99 14 6
0.750515 0.091474 -0.116777 233 239 195 14 6
0.767922 0.087010 -0.120479 222 228 165 14 6
0.865850 0.170964 -0.316254 114 120 118 14 6
0.858470 0.178784 -0.310396 98 98 87 14 6
1.184167 0.281182 -0.068104 29 37 14 40 15
1.177528 0.273179 -0.051658 49 55 28 40 15
1.177254 0.256336 -0.059169 101 119 93 40 15
1.174267 0.266169 -0.056788 45 52 27 40 15
1.178446 0.260470 -0.063250 42 47 23 40 15
1.182540 0.252773 -0.069472 107 123 97 40 15
1.174468 0.247177 -0.064321 47 62 31 40 15
0.982914 0.126804 0.011258 119 132 120 40 15
1.100806 0.322035 -0.615886 56 59 61 40 15
1.099385 0.323764 -0.595272 57 61 60 40 15
0.878704 -0.010853 0.060429 141 145 129 40 14
0.866032 0.021254 0.070915 141 144 130 40 14
0.866899 0.017604 0.060694 142 144 130 40 14
0.863139 0.005861 0.056053 141 144 128 40 14
0.880977 -0.013515 0.077366 143 149 133 40 14
0.877288 0.002829 0.076092 141 144 130 40 14
1.148466 0.373924 -0.333555 64 74 64 40 15
0.869961 0.004574 0.063012 141 143 129 40 14
1.062785 0.255224 -0.270701 82 91 71 40 15
1.070151 0.245610 -0.274109 111 121 110 40 15
1.060342 0.243838 -0.272439 120 130 121 40 15
1.048444 -0.350581 -0.454668 249 242 225 7 4
1.025732 -0.350167 -0.432649 247 240 228 7 4
1.029745 -0.363337 -0.441526 250 244 228 7 4
1.037569 -0.370997 -0.434782 246 241 228 7 4
1.175258 0.141762 -0.088015 81 106 53 40 15
1.184212 0.148107 -0.087600 82 105 61 40 15
1.164006 0.138909 -0.092559 83 105 55 40 15
1.245011 0.051134 -0.208020 89 112 67 40 15
1.241735 0.046927 -0.225723 93 117 74 40 15
0.591306 -0.141316 -0.124638 194 180 178 14 6
0.575387 -0.132554 -0.123190 207 193 190 14 6
0.599482 -0.130321 -0.125387 164 154 156 14 6
0.595060 -0.109205 -0.125178 138 132 141 14 6
1.029795 0.184029 -0.105369 69 96 42 40 15
0.832863 -0.283330 -0.134315 198 193 192 14 6
0.994064 0.157615 0.031026 82 102 73 40 15
0.842080 0.021691 0.126909 162 167 155 40 14
0.849820 0.015476 0.124062 161 167 157 40 14
0.839323 0.028110 0.149031 169 174 163 40 14
0.855580 0.008939 0.145103 169 174 161 40 14
0.974895 -0.241381 -0.481003 63 62 61 7 4
0.976530 -0.257816 -0.471124 133 124 117 7 4
0.959722 -0.247514 -0.465502 149 137 122 7 4
0.970209 -0.261645 -0.462638 143 136 122 7 4
0.943547 -0.242556 -0.468354 159 158 144 7 4
0.953932 -0.234240 -0.474247 150 141 124 7 4
0.955245 -0.252622 -0.464962 170 171 152 7 4
0.800684 0.020060 -0.181828 43 44 40 14 6
0.791484 0.034484 -0.191406 41 42 39 14 6
1.227386 0.045574 -0.436712 201 201 177 7 4
1.192078 0.048823 -0.182156 107 133 94 40 15
1.180706 0.063925 -0.166324 115 148 105 40 15
0.872912 -0.001399 0.212482 180 185 176 40 14
0.881258 -0.011482 0.198205 181 186 176 40 14
0.805994 0.069409 0.177942 181 185 179 40 14
0.797448 0.081352 0.199487 181 185 178 40 14
0.817306 0.061736 0.210146 183 189 182 40 14
0.822249 0.056282 0.186722 180 186 178 40 14
0.808447 0.069935 0.201034 180 185 178 40 14
0.798390 0.085721 0.212054 183 187 182 40 14
0.804369 0.077261 0.209935 182 187 181 40 14
1.113261 0.209929 -0.265265 69 76 41 40 15
1.116865 0.206709 -0.258512 88 97 64 40 15
1.116949 0.198732 -0.249647 80 88 65 40 15
1.087771 0.220641 -0.250869 150 157 124 40 15
1.108171 0.203855 -0.246815 110 121 88 40 15
1.084745 0.198311 -0.245765 134 141 109 40 15
1.100107 0.221998 -0.237032 168 167 155 40 15
1.102869 0.227387 -0.260146 81 88 55 40 15
1.084704 0.206950 -0.239107 73 86 50 40 15
1.095399 0.226313 -0.254146 92 101 74 40 15
1.085017 0.218781 -0.245739 88 99 64 40 15
1.108451 0.218013 -0.249099 103 114 80 40 15
0.952676 0.103833 -0.019853 161 193 142 0 0
1.087468 0.165081 -0.393960 60 74 52 40 15
1.064828 0.170913 -0.395046 55 66 54 40 15
1.089487 0.171757 -0.399063 64 78 58 40 15
1.096637 0.156449 -0.410071 80 100 62 40 15
1.095482 0.169208 -0.395360 60 74 51 40 15
1.088728 0.162968 -0.389440 57 69 55 40 15
1.095878 0.177199 -0.403966 61 71 55 40 15
