ply
format ascii 1.0
element vertex 1106
property float x
property float y
property float z
property uchar red
property uchar green
property uchar blue
property uchar semantic_label
property uchar instance_label
end_header
0.010242 0.751619 -0.188709 195 188 176 5 2
0.068856 0.946266 0.050718 249 246 247 7 3
0.088946 0.947210 0.053505 255 255 255 7 3
0.076577 0.933165 0.049181 254 252 254 7 3
0.097462 0.713734 -0.042211 232 227 218 5 2
0.106361 0.711756 -0.067171 232 226 218 5 2
0.083953 0.733396 -0.082403 234 227 218 5 2
0.075165 0.737376 -0.067406 232 226 217 5 2
0.349826 0.961524 0.022483 210 210 206 5 2
0.346826 0.932364 0.027577 208 208 206 7 3
0.359102 0.935619 0.028536 207 208 205 7 3
0.348276 0.944747 0.028310 207 208 206 7 3
0.339686 0.943092 0.026074 207 208 206 5 2
0.334923 0.936088 0.022182 207 208 205 5 2
0.351565 0.944439 0.023480 208 208 206 5 2
0.353010 0.958204 0.026383 208 208 206 7 3
0.363290 0.704698 0.052862 225 226 222 7 3
0.387795 0.695202 0.053424 226 229 227 7 3
0.390857 0.679485 0.050676 197 192 188 7 3
-0.097961 0.885609 0.033749 127 113 96 5 2
-0.095026 0.893648 0.007989 122 110 95 5 2
-0.090261 0.867172 0.022402 138 121 104 5 2
-0.096957 0.875507 0.021322 123 109 92 5 2
-0.094646 0.862878 0.036866 131 112 93 5 2
-0.040738 0.826994 -0.037439 179 172 163 5 2
-0.037649 0.812620 -0.021259 202 196 192 5 2
0.061396 0.984965 0.055279 217 217 216 7 3
0.045565 1.027781 0.054851 228 226 220 7 3
0.056536 1.015253 0.056354 226 225 221 7 3
0.271906 1.587976 -0.211596 143 135 122 5 4
0.314774 1.597808 -0.208218 148 137 127 5 4
0.159727 1.577623 -0.210674 168 162 152 5 4
0.178356 1.578207 -0.210510 164 155 144 5 4
0.183451 1.593200 -0.212819 156 145 132 5 4
0.114042 1.511820 -0.217110 137 122 107 5 4
0.104897 1.464011 -0.208322 149 139 127 5 4
0.110959 1.492064 -0.213437 139 125 110 5 4
0.077724 1.448222 -0.237559 35 32 27 5 4
0.306942 1.279113 -0.230487 115 110 101 5 4
0.306556 1.272147 -0.227107 139 139 132 5 4
0.091231 1.515775 -0.216202 142 125 112 5 4
0.216630 1.155982 -0.218185 197 194 185 5 2
0.205789 1.163487 -0.212115 196 190 180 5 2
0.206475 1.177824 -0.210514 192 187 176 5 2
0.228255 1.165040 -0.220220 190 187 176 5 2
0.227210 1.191940 -0.217899 192 186 174 5 2
0.264433 1.528214 -0.212508 193 197 195 5 4
0.284231 1.525025 -0.212315 168 165 158 5 4
0.169508 1.094031 -0.224434 209 206 196 5 2
0.340782 1.344388 -0.217953 187 188 184 5 4
0.358938 1.356267 -0.218853 183 187 181 5 4
0.205256 1.095709 -0.224237 198 197 190 5 2
0.195563 1.115963 -0.218235 199 198 193 5 2
0.062003 1.457278 -0.216041 118 115 103 5 4
0.057431 1.458623 -0.233360 63 56 48 5 4
0.062722 1.443123 -0.221869 80 78 67 5 4
0.068701 1.464647 -0.212730 165 160 150 5 4
0.051974 1.463535 -0.225695 45 41 30 5 4
0.195657 1.619102 -0.214779 153 137 122 5 4
0.231256 1.690396 -0.210615 148 128 111 5 4
0.199303 1.678905 -0.213690 152 132 113 5 4
0.125116 1.554494 -0.217291 135 114 94 5 4
0.118464 1.569714 -0.214967 134 114 94 5 4
0.120970 1.533387 -0.217892 136 115 98 5 4
0.136698 1.568775 -0.212025 134 114 95 5 4
0.259231 1.641776 -0.212709 145 130 113 5 4
0.335889 1.287418 -0.244065 35 35 32 5 4
0.350070 1.286461 -0.239727 33 31 26 5 4
0.365971 1.294931 -0.242225 36 34 29 5 4
0.327061 1.283321 -0.245012 41 40 36 5 4
0.295556 1.276714 -0.223579 169 171 165 5 4
0.391991 1.328471 -0.247209 28 26 24 5 4
0.388405 1.311949 -0.238274 18 16 13 5 4
0.372252 1.324739 -0.252374 87 82 77 5 4
0.379596 1.333417 -0.254679 25 24 23 5 4
0.372648 1.336325 -0.258204 40 38 34 5 4
0.367745 1.346423 -0.260751 35 32 28 5 4
0.370233 1.741890 -0.228176 87 82 72 5 4
0.402489 1.725749 -0.219554 59 56 45 5 4
0.386340 1.748048 -0.221473 80 76 65 5 4
0.373530 1.749776 -0.225641 90 85 75 5 4
0.339365 1.376250 -0.216936 188 189 184 5 4
0.343891 1.392883 -0.216846 186 187 181 5 4
0.222478 1.540061 -0.212611 184 186 180 5 4
0.204013 1.547642 -0.211369 169 165 157 5 4
0.198627 1.575559 -0.213028 168 164 156 5 4
0.281956 1.416744 -0.213795 180 183 176 5 4
0.299251 1.405215 -0.215989 181 183 176 5 4
0.291494 1.421197 -0.212045 176 178 170 5 4
0.285763 1.432098 -0.209875 173 174 166 5 4
0.271400 1.427922 -0.211690 175 175 171 5 4
0.225231 1.614276 -0.214266 149 134 117 5 4
0.029258 1.503808 -0.238140 60 53 44 5 4
0.031143 1.513301 -0.242200 47 41 31 5 4
0.236773 1.677721 -0.211964 147 128 110 5 4
0.238832 1.191823 -0.224734 98 89 79 5 2
0.243330 1.198684 -0.229172 67 60 52 5 2
0.236034 1.201144 -0.224225 67 60 52 5 2
0.260780 1.191245 -0.231921 22 18 16 5 2
0.251170 1.198401 -0.229789 25 21 19 5 2
0.187002 1.562098 -0.209454 170 166 158 5 4
0.127884 1.632391 -0.213387 151 134 114 5 4
0.137486 1.639187 -0.215066 151 133 113 5 4
0.266977 1.314912 -0.213015 190 193 189 5 4
0.281756 1.301488 -0.219085 187 189 184 5 4
0.276731 1.291494 -0.216606 177 180 173 5 4
0.270394 1.112506 -0.228167 177 172 160 5 2
0.299535 1.145999 -0.233562 95 87 74 5 2
0.286332 1.155569 -0.230603 94 84 71 5 2
0.276354 1.406960 -0.213997 183 184 179 5 4
0.281504 1.391448 -0.218203 187 189 184 5 4
0.267295 1.400731 -0.213727 182 183 178 5 4
0.212245 1.134139 -0.221779 189 187 178 5 2
0.233702 1.148504 -0.222308 188 187 177 5 2
0.211777 1.109091 -0.222147 198 197 191 5 2
0.019734 1.526068 -0.232906 152 142 127 5 4
0.038803 1.527898 -0.216920 136 118 102 5 4
0.022592 1.513579 -0.226631 150 140 124 5 4
0.022110 1.513281 -0.236879 120 113 101 5 4
0.018862 1.534090 -0.217539 141 125 109 5 4
0.032552 1.512877 -0.221377 145 132 117 5 4
0.286369 1.476789 -0.212233 175 174 169 5 4
0.291491 1.492914 -0.213019 196 201 198 5 4
0.337477 1.127291 -0.244161 30 27 26 5 2
0.062984 1.552782 -0.210965 135 115 97 5 4
0.065259 1.534280 -0.214163 138 118 102 5 4
0.046264 1.507256 -0.217302 148 132 119 5 4
0.060235 1.516565 -0.214835 153 139 127 5 4
0.211216 1.185230 -0.213028 125 117 105 5 2
0.218816 1.212800 -0.213646 90 82 70 5 2
0.225438 1.205248 -0.223445 86 77 66 5 2
0.220784 1.192842 -0.211968 103 94 80 5 2
0.321694 1.346817 -0.217268 185 187 182 5 4
0.310094 1.316210 -0.221039 181 184 179 5 4
0.321337 1.326125 -0.219425 183 185 180 5 4
0.245759 1.367606 -0.212151 142 143 140 5 4
0.262935 1.371598 -0.211596 178 179 175 5 4
0.377231 1.523776 -0.210003 148 142 130 5 4
0.328444 1.096793 -0.238179 41 36 31 5 2
0.338501 1.107133 -0.241022 18 16 14 5 2
0.343305 1.114979 -0.242754 36 33 29 5 2
0.351243 1.101139 -0.249539 39 35 33 5 2
0.071597 1.563008 -0.207996 135 115 97 5 4
0.086290 1.558376 -0.213166 134 115 95 5 4
0.109852 1.571299 -0.213753 135 116 95 5 4
0.098391 1.547857 -0.217301 136 117 96 5 4
0.085518 1.538911 -0.216217 137 116 96 5 4
0.044443 1.471652 -0.228719 45 40 30 5 4
0.045343 1.477595 -0.234044 44 39 29 5 4
0.056936 1.477380 -0.214251 167 160 150 5 4
0.046442 1.477951 -0.221281 75 70 59 5 4
0.297268 1.125737 -0.233644 105 97 88 5 2
0.313906 1.140296 -0.234504 41 38 33 5 2
0.327623 1.133123 -0.236740 22 21 19 5 2
0.306839 1.130238 -0.235768 85 79 69 5 2
0.326659 1.462256 -0.214778 178 180 172 5 4
0.351562 1.484313 -0.213988 177 178 170 5 4
0.036146 1.519919 -0.245824 64 57 48 5 4
0.029221 1.541327 -0.248174 83 76 65 5 4
0.179300 1.161016 -0.210806 192 192 184 5 2
0.195617 1.166378 -0.208812 193 187 177 5 2
0.318751 1.301941 -0.224409 159 160 156 5 4
0.333841 1.320080 -0.221245 170 173 168 5 4
0.315395 1.288968 -0.230938 152 151 147 5 4
0.303724 1.296103 -0.225669 152 150 144 5 4
0.336348 1.290096 -0.236730 113 106 97 5 4
0.259709 1.083675 -0.227233 191 188 181 5 2
0.225671 1.098695 -0.224321 195 193 185 5 2
0.245769 1.102852 -0.225141 189 187 180 5 2
0.239642 1.123818 -0.225246 191 191 183 5 2
0.310460 1.417345 -0.214566 183 186 179 5 4
0.259231 1.623775 -0.213019 148 136 121 5 4
0.356231 1.305548 -0.249245 33 32 27 5 4
0.377373 1.309597 -0.243089 31 30 27 5 4
0.375417 1.301580 -0.237896 22 22 17 5 4
0.368800 1.290531 -0.236412 33 30 25 5 4
0.384626 1.310052 -0.233995 121 119 112 5 4
0.365228 1.304214 -0.234167 57 54 48 5 4
0.222578 1.648776 -0.214132 150 132 114 5 4
0.292933 1.618900 -0.210015 142 129 116 5 4
0.277054 1.464742 -0.210235 199 205 202 5 4
0.269806 1.477790 -0.209185 182 184 178 5 4
0.148248 1.586150 -0.210187 137 117 100 5 4
0.164885 1.598228 -0.212223 160 148 135 5 4
0.065882 1.436351 -0.218159 25 23 14 5 4
0.068356 1.441474 -0.228497 17 13 8 5 4
0.069108 1.437020 -0.213093 141 137 128 5 4
0.059410 1.480485 -0.243522 60 54 47 5 4
0.070979 1.469924 -0.240139 43 35 31 5 4
0.364083 1.315794 -0.251575 31 31 28 5 4
0.331679 1.483465 -0.214363 150 150 138 5 4
0.309555 1.473682 -0.213085 158 157 145 5 4
0.239456 1.554247 -0.212888 168 164 154 5 4
0.249870 1.517863 -0.211788 187 188 183 5 4
0.273481 1.550525 -0.212362 186 187 181 5 4
0.012256 1.559933 -0.231741 152 142 127 5 4
0.020380 1.539438 -0.235488 149 138 124 5 4
0.041706 1.538274 -0.214221 136 118 99 5 4
0.034901 1.543812 -0.210353 136 117 101 5 4
0.314503 1.282186 -0.237048 85 79 69 5 4
0.334542 1.293892 -0.248776 35 34 32 5 4
0.075684 1.510036 -0.215509 147 134 122 5 4
0.100979 1.485959 -0.214267 145 131 117 5 4
0.063243 1.492342 -0.213758 155 144 134 5 4
0.081589 1.474616 -0.212216 147 136 124 5 4
0.329481 1.414275 -0.215842 183 185 178 5 4
0.395977 1.342092 -0.225812 176 180 172 5 4
0.354650 1.315107 -0.226259 160 161 154 5 4
0.375601 1.322120 -0.227553 161 163 155 5 4
0.307314 1.274912 -0.240187 86 81 72 5 4
0.312654 1.280730 -0.245203 89 84 75 5 4
0.362140 1.387661 -0.216660 187 189 185 5 4
0.376040 1.364419 -0.218974 188 189 183 5 4
0.377720 1.163563 -0.639383 189 189 189 2 1
0.154396 1.086611 -0.211739 157 154 146 5 2
0.254095 1.308091 -0.211537 186 187 183 5 4
0.164839 1.114227 -0.211444 201 198 191 5 2
0.171401 1.100065 -0.213445 205 203 196 5 2
0.184960 1.109804 -0.219398 203 203 195 5 2
0.180189 1.098971 -0.218615 204 201 193 5 2
0.193291 1.093959 -0.223804 202 202 194 5 2
0.263963 1.497195 -0.212442 194 199 196 5 4
0.275174 1.183532 -0.231596 25 22 21 5 2
0.313081 1.104047 -0.233917 131 125 119 5 2
0.326720 1.111146 -0.239238 47 41 37 5 2
0.298817 1.085929 -0.229253 178 172 160 5 2
0.134490 1.576327 -0.209053 134 115 96 5 4
0.077631 1.423871 -0.215044 63 57 50 5 4
0.085166 1.428643 -0.208237 133 128 122 5 4
0.081758 1.410491 -0.215877 65 60 52 5 4
0.078607 1.427412 -0.224651 59 52 46 5 4
0.072803 1.486902 -0.247160 40 32 30 5 4
0.080232 1.491786 -0.254081 57 48 43 5 4
0.081168 1.469739 -0.250828 50 43 36 5 4
0.372388 1.498275 -0.212216 168 170 159 5 4
0.252213 1.186915 -0.226845 62 55 48 5 2
0.271894 1.182898 -0.225457 61 54 48 5 2
0.282159 1.167641 -0.231731 87 78 64 5 2
0.273389 1.165513 -0.229015 98 92 79 5 2
0.309680 1.539001 -0.211075 136 128 114 5 4
0.378628 1.403671 -0.217319 189 191 186 5 4
0.384037 1.379982 -0.218179 191 192 185 5 4
0.173848 1.635207 -0.215442 152 134 118 5 4
0.155444 1.646724 -0.215500 151 133 115 5 4
0.142253 1.658029 -0.213943 152 133 114 5 4
0.366925 1.335367 -0.221557 178 180 175 5 4
0.367151 1.094325 -0.248461 28 24 21 5 2
0.378750 1.084451 -0.247374 39 33 26 5 2
0.188760 1.693317 -0.208293 152 132 112 5 4
0.265326 1.134531 -0.226463 183 177 167 5 2
0.297558 1.347394 -0.217946 188 190 186 5 4
0.294727 1.359046 -0.217423 189 191 188 5 4
0.315287 1.376179 -0.217831 187 189 184 5 4
0.339838 1.299575 -0.227861 153 154 147 5 4
0.355589 1.295591 -0.233970 112 110 103 5 4
0.217714 1.596201 -0.214764 151 142 131 5 4
0.249918 1.589338 -0.213014 148 138 127 5 4
0.221172 1.571857 -0.213570 158 149 142 5 4
0.191901 1.142222 -0.216364 198 197 191 5 2
0.175559 1.149418 -0.211760 200 198 191 5 2
0.177034 1.122142 -0.211021 206 200 193 5 2
0.171153 1.136224 -0.209702 203 196 189 5 2
0.229707 1.083563 -0.226591 197 195 188 5 2
0.028378 1.487041 -0.225810 145 136 124 5 4
0.025990 1.492424 -0.230989 99 92 80 5 4
0.035150 1.479850 -0.226560 101 93 84 5 4
0.041173 1.493662 -0.219899 162 152 140 5 4
0.042191 1.489007 -0.236859 52 45 35 5 4
0.302442 1.454861 -0.212649 165 167 157 5 4
0.304622 1.435773 -0.212052 176 179 170 5 4
0.326480 1.435448 -0.216074 178 181 174 5 4
0.301785 1.392140 -0.217416 188 190 185 5 4
0.309997 1.512475 -0.212017 148 149 136 5 4
0.338048 1.519817 -0.212110 146 142 130 5 4
0.297612 1.334352 -0.218796 188 189 184 5 4
0.278116 1.336673 -0.216144 188 192 188 5 4
0.283819 1.313441 -0.217668 189 190 186 5 4
0.362908 1.443573 -0.216107 186 187 181 5 4
0.154177 1.598116 -0.211025 146 129 113 5 4
0.155869 1.619816 -0.213455 144 127 109 5 4
0.195230 1.640276 -0.215402 150 132 114 5 4
0.179849 1.667520 -0.214850 150 132 114 5 4
0.267052 1.336597 -0.210272 191 196 190 5 4
0.252538 1.320301 -0.210460 187 191 186 5 4
0.156190 1.106883 -0.207753 204 202 194 5 2
0.162006 1.095078 -0.215191 194 191 182 5 2
0.291293 1.384081 -0.218952 189 191 187 5 4
0.272786 1.348755 -0.212418 190 194 188 5 4
0.268915 1.359123 -0.209378 188 191 185 5 4
0.265692 1.379270 -0.212857 188 191 185 5 4
0.275294 1.374818 -0.214244 188 189 184 5 4
0.126431 1.083900 -0.218239 105 104 100 5 2
0.287137 1.114954 -0.230460 174 169 156 5 2
0.272573 1.097532 -0.227578 184 180 171 5 2
0.250141 1.173781 -0.226452 81 74 63 5 2
0.273479 1.148450 -0.229629 163 156 147 5 2
0.244637 1.154178 -0.224046 179 175 164 5 2
0.024004 1.556489 -0.240364 105 100 84 5 4
0.036422 1.538495 -0.250432 95 88 80 5 4
0.035394 1.557201 -0.248233 101 91 79 5 4
0.036739 1.568494 -0.250226 123 113 102 5 4
0.389660 1.356804 -0.257114 50 47 43 5 4
0.012070 1.536911 -0.223431 139 121 105 5 4
0.003843 1.560863 -0.213627 138 125 110 5 4
0.006120 1.549914 -0.222293 136 118 102 5 4
0.386476 1.724093 -0.224018 81 78 67 5 4
0.368092 1.722765 -0.231612 67 64 55 5 4
0.344063 1.767642 -0.116472 137 123 107 5 4
0.357573 1.770785 -0.095650 138 122 107 5 4
0.357977 1.764235 -0.072905 135 122 106 5 4
0.329634 1.770431 -0.147703 139 122 104 5 4
0.171106 1.318213 0.061053 255 255 255 7 3
0.251396 1.719306 -0.115611 144 129 111 5 4
0.251468 1.721885 -0.128462 142 127 109 5 4
0.263101 1.722622 -0.103199 142 127 110 5 4
0.095723 1.618923 -0.204771 138 124 105 5 4
0.106142 1.633086 -0.207631 141 125 105 5 4
0.096845 1.615646 -0.196658 138 121 101 5 4
0.085634 1.627326 -0.200893 136 119 102 5 4
0.088066 1.632617 -0.202179 152 134 117 5 4
0.088138 1.624280 -0.186925 142 126 110 5 4
0.222516 1.456096 0.050622 198 192 186 7 3
0.210163 1.456800 0.042382 185 187 186 7 3
0.199757 1.445874 0.042536 197 194 190 7 3
0.332289 1.778615 0.077790 120 110 96 5 4
0.331372 1.780796 0.043591 147 131 115 5 4
0.339386 1.776342 0.048315 137 125 109 5 4
0.174860 1.692776 -0.197847 140 122 102 5 4
0.192816 1.702816 -0.198049 143 124 105 5 4
0.186200 1.698630 -0.180547 140 122 102 5 4
0.286767 1.752811 -0.168348 141 124 106 5 4
0.274467 1.744435 -0.159570 141 123 104 5 4
0.063689 1.259575 0.046272 203 200 195 7 3
0.075331 1.284064 0.042051 184 177 170 7 3
0.273054 1.489269 0.050740 111 99 86 7 3
0.286479 1.501700 0.050277 110 98 84 7 3
0.221341 1.529387 -0.210271 187 191 185 5 4
0.093282 1.451565 -0.208753 156 149 139 5 4
0.102383 1.595185 0.062342 143 127 111 5 4
0.121723 1.556438 -0.072919 135 121 104 5 4
0.114437 1.557191 -0.062263 134 121 104 5 4
0.291061 1.785108 -0.044829 134 125 108 5 4
0.317530 1.785036 -0.030724 172 168 160 5 4
0.305910 1.785271 -0.024999 183 178 172 5 4
0.320389 1.782109 -0.016174 150 141 130 5 4
0.354002 1.123960 0.055990 237 240 243 7 3
0.248230 1.195776 0.057745 237 238 240 7 3
0.265821 1.351345 0.062169 255 255 255 7 3
0.281750 1.385359 0.063326 255 255 255 7 3
0.234117 1.519209 -0.209186 191 193 189 5 4
0.343127 1.732820 0.043413 106 93 78 5 4
0.333704 1.720626 0.069797 113 100 84 5 4
0.135791 1.640065 -0.073790 167 156 147 5 4
0.300504 1.702498 -0.008927 211 210 208 5 4
0.323715 1.708336 -0.008979 201 196 191 5 4
0.333193 1.708438 -0.003789 174 164 154 5 4
0.277592 1.458245 0.062827 236 234 232 7 3
0.279581 1.474547 0.059339 216 213 210 7 3
0.374185 1.433344 0.063429 253 253 253 7 3
0.355855 1.670150 -0.201748 138 120 101 5 4
0.321550 1.794335 -0.056506 137 126 110 5 4
0.305888 1.789845 -0.041597 140 131 116 5 4
0.252319 1.687799 0.061592 146 128 110 5 4
0.372396 1.794934 -0.092371 144 134 118 5 4
0.378279 1.780173 -0.079300 144 134 118 5 4
0.373461 1.780647 -0.093207 134 121 105 5 4
0.375774 1.790212 -0.104209 136 128 110 5 4
0.400143 1.317704 0.060138 254 255 255 7 3
0.180693 1.726938 0.168202 148 136 120 5 4
0.180727 1.710809 0.171300 149 136 120 5 4
0.190946 1.696427 0.172548 149 137 120 5 4
0.212271 1.702446 0.171200 149 136 120 5 4
0.349831 1.773801 -0.124768 139 124 107 5 4
0.130862 1.609581 -0.190807 127 110 92 5 4
0.107351 1.613059 -0.199403 136 121 103 5 4
0.120387 1.613039 -0.201519 131 115 97 5 4
0.112401 1.613992 -0.187425 135 121 105 5 4
0.131157 1.606539 -0.201227 128 109 93 5 4
0.143579 1.600714 -0.015567 142 127 109 5 4
0.042560 1.550580 -0.015445 143 128 114 5 4
0.122320 1.143646 0.057409 255 255 255 7 3
0.385421 1.485261 0.065651 190 188 186 7 3
0.372849 1.491122 0.065578 160 155 149 7 3
0.123415 1.361382 0.046438 205 199 193 7 3
0.141901 1.375120 0.049742 216 211 207 7 3
0.132771 1.367822 0.041726 204 201 195 7 3
0.098351 1.325851 0.040873 188 184 177 7 3
0.212175 1.652630 0.018938 144 128 110 5 4
0.194349 1.644268 0.018243 145 129 109 5 4
0.228775 1.644961 -0.007249 179 168 157 5 4
0.215779 1.644063 -0.000453 144 129 111 5 4
0.212622 1.636469 -0.011003 156 142 129 5 4
0.343231 1.557775 -0.208256 134 122 104 5 4
0.214990 1.672283 0.058688 144 128 110 5 4
0.373538 1.238814 0.058501 254 255 255 7 3
0.256644 1.735774 -0.170278 141 123 105 5 4
0.255232 1.730519 -0.150890 142 125 108 5 4
0.322566 1.781734 0.081154 144 130 113 5 4
0.304182 1.783763 0.060574 145 133 115 5 4
0.322923 1.782691 0.059440 145 134 117 5 4
0.032163 1.566093 -0.068675 124 115 96 5 4
0.040362 1.567687 -0.052455 126 115 101 5 4
0.210986 1.696291 -0.209605 151 132 112 5 4
0.289710 1.686236 0.020940 145 129 108 5 4
0.282926 1.694510 0.043532 144 128 110 5 4
0.261004 1.683377 0.032583 143 129 108 5 4
0.275390 1.689154 0.035493 143 128 109 5 4
0.301095 1.692962 0.025307 143 129 110 5 4
0.351130 1.266313 0.059177 255 255 255 7 3
0.318808 1.780611 0.003375 144 132 116 5 4
0.268878 1.418056 0.065140 255 254 254 7 3
0.291268 1.417998 0.065315 254 254 254 7 3
0.291988 1.786724 0.149490 149 138 121 5 4
0.292649 1.768492 0.172297 141 128 113 5 4
0.286798 1.786749 0.162367 143 130 115 5 4
0.309709 1.243990 0.058684 254 255 255 7 3
0.032947 1.171628 0.046425 233 230 231 7 3
0.037512 1.197181 0.041987 172 165 152 7 3
0.281230 1.650682 -0.209955 134 121 105 5 4
0.161009 1.652328 0.095520 147 130 114 5 4
0.157719 1.651678 0.106784 146 130 114 5 4
0.151605 1.643462 0.083048 146 131 112 5 4
0.125418 1.628836 0.114444 149 132 112 5 4
0.188192 1.667181 0.092407 148 132 112 5 4
0.343438 1.714624 -0.000718 182 173 164 5 4
0.343565 1.705595 0.007455 108 95 81 5 4
0.014685 1.546189 -0.134174 130 117 104 5 4
0.022818 1.555051 -0.120281 123 112 98 5 4
0.018706 1.539131 -0.120851 132 119 103 5 4
0.157609 1.632164 -0.085393 173 160 150 5 4
0.092731 1.125025 0.057893 255 255 255 7 3
0.062788 1.161060 0.057496 254 254 254 7 3
0.295957 1.443503 0.066068 241 240 239 7 3
0.360291 1.537523 0.053795 113 103 94 7 3
0.338680 1.725865 -0.026250 205 209 209 5 4
0.343828 1.719978 -0.018493 206 208 210 5 4
0.347269 1.726145 -0.020014 194 198 198 5 4
0.259814 1.726728 0.175222 144 134 117 5 4
0.249752 1.712834 0.168684 137 122 104 5 4
0.242774 1.703465 0.150907 149 135 118 5 4
0.254053 1.708423 0.160690 153 138 121 5 4
0.223646 1.661637 -0.021479 168 158 147 5 4
0.253855 1.699095 -0.029226 201 201 197 5 4
0.253710 1.688303 -0.019715 211 211 209 5 4
0.290717 1.783190 -0.028403 128 119 103 5 4
0.280903 1.783681 -0.011907 72 65 57 5 4
0.106545 1.566609 -0.178890 127 110 93 5 4
0.326974 1.781271 0.099326 144 130 114 5 4
0.305465 1.783557 0.098951 148 135 119 5 4
0.317361 1.784293 0.104602 148 137 120 5 4
0.305545 1.712781 0.112464 134 119 102 5 4
0.316740 1.718302 0.131186 125 110 93 5 4
0.312805 1.720368 0.141746 111 100 83 5 4
0.041556 1.516273 -0.053448 133 121 106 5 4
0.031588 1.526869 -0.057795 135 123 109 5 4
0.029852 1.527646 -0.081515 132 119 103 5 4
0.036592 1.521908 -0.080930 133 118 104 5 4
0.194473 1.219721 0.058698 243 244 246 7 3
0.047590 1.672227 0.122122 143 131 114 5 4
0.030962 1.644086 0.128945 147 134 115 5 4
0.034838 1.658632 0.142990 151 138 122 5 4
0.033412 1.657171 0.125771 147 136 119 5 4
0.022664 1.096615 0.041879 130 125 115 7 3
0.025047 1.083004 0.046777 175 169 162 7 3
0.215016 1.161183 0.058222 239 241 243 7 3
0.310891 1.758025 -0.147309 141 125 106 5 4
0.067427 1.680102 0.075534 139 128 110 5 4
0.209913 1.533441 -0.205616 180 182 175 5 4
0.324085 1.779600 0.141001 125 113 97 5 4
0.314587 1.785975 0.147837 149 137 118 5 4
0.319365 1.784085 0.122459 146 133 116 5 4
0.333244 1.768872 0.110856 109 100 85 5 4
0.297972 1.786244 0.126287 148 138 120 5 4
0.130925 1.702961 0.164182 150 138 122 5 4
0.133445 1.711590 0.162067 152 139 123 5 4
0.102753 1.619462 0.165383 154 137 121 5 4
0.116613 1.628358 0.149208 154 138 121 5 4
0.347231 1.383775 0.061737 255 255 255 7 3
0.256400 1.292805 0.059964 254 255 255 7 3
0.058213 1.616770 0.166752 150 138 119 5 4
0.047458 1.614246 0.161393 157 145 128 5 4
0.040024 1.618275 0.152416 154 142 125 5 4
0.050614 1.224955 0.046588 193 187 176 7 3
0.041399 1.201839 0.047040 246 246 245 7 3
0.171891 1.628571 -0.091430 140 129 117 5 4
0.300478 1.733727 -0.038096 176 166 155 5 4
0.318507 1.726204 -0.031080 208 212 210 5 4
0.299426 1.730623 -0.033862 176 173 164 5 4
0.080772 1.534918 -0.048684 147 134 118 5 4
0.064373 1.523293 -0.035477 139 127 110 5 4
0.131995 1.550210 -0.127292 130 114 97 5 4
0.123711 1.553374 -0.119483 133 116 98 5 4
0.114642 1.551864 -0.127038 130 116 99 5 4
0.109221 1.547848 -0.113923 133 118 103 5 4
0.126197 1.558814 -0.140238 128 114 95 5 4
0.127460 1.543803 -0.110371 129 115 99 5 4
0.253178 1.707172 -0.208577 147 129 109 5 4
0.136057 1.663118 -0.211362 151 133 113 5 4
0.051588 1.602508 0.004524 135 123 106 5 4
0.056736 1.620621 -0.000031 131 120 104 5 4
0.049648 1.606585 0.017775 134 123 106 5 4
0.011383 1.549321 -0.163423 129 117 100 5 4
0.012609 1.570337 -0.165534 118 105 92 5 4
0.013593 1.544359 -0.149091 129 116 99 5 4
0.035054 1.544452 -0.170902 132 116 100 5 4
0.022942 1.538734 -0.154621 130 116 100 5 4
0.015491 1.544583 -0.181231 130 117 100 5 4
0.016414 1.541702 -0.165860 131 116 101 5 4
0.200662 1.662817 0.043135 145 127 107 5 4
0.174181 1.659582 0.089208 146 130 111 5 4
0.181292 1.654365 0.050341 143 129 109 5 4
0.350416 1.768118 0.016264 108 100 87 5 4
0.348168 1.761368 0.035821 101 90 74 5 4
0.346920 1.771574 0.025840 107 98 85 5 4
0.210456 1.349533 0.061180 255 255 255 7 3
0.170726 1.567554 -0.208568 172 169 161 5 4
0.349829 1.542571 0.045233 197 200 200 7 3
0.333269 1.538649 0.043319 199 197 195 7 3
0.046357 1.531584 -0.111948 131 118 103 5 4
0.058988 1.532618 -0.100906 131 118 102 5 4
0.047808 1.521049 -0.076586 131 119 103 5 4
0.064495 1.529680 -0.079358 130 118 103 5 4
0.173351 1.626474 -0.064923 143 128 110 5 4
0.314541 1.782294 0.051544 144 133 114 5 4
0.309679 1.782340 0.019626 143 131 114 5 4
0.323908 1.782162 0.027721 144 131 115 5 4
0.056982 1.632632 0.012129 137 126 107 5 4
0.046296 1.622366 0.035316 136 126 109 5 4
0.043115 1.612367 0.040399 138 129 111 5 4
0.051243 1.627845 0.022287 134 125 107 5 4
0.342231 1.237775 0.058755 255 255 255 7 3
0.127827 1.659509 -0.160106 143 127 110 5 4
0.107289 1.604873 0.078653 143 128 111 5 4
0.107361 1.594234 0.047974 140 126 108 5 4
0.086566 1.570035 0.049661 141 126 108 5 4
0.090013 1.584631 0.076764 144 127 111 5 4
0.122516 1.548819 -0.099532 134 120 103 5 4
0.109519 1.550821 -0.094671 133 120 104 5 4
0.131924 1.560023 -0.087633 137 121 104 5 4
0.130795 1.542675 -0.102446 133 119 102 5 4
0.118267 1.547616 -0.106862 132 119 103 5 4
0.214527 1.716052 -0.178797 142 122 105 5 4
0.220191 1.720194 -0.188232 141 122 102 5 4
0.210851 1.707251 -0.204293 150 128 109 5 4
0.231977 1.711119 -0.207134 152 129 109 5 4
0.222413 1.718527 -0.197572 146 124 105 5 4
0.036231 1.572715 -0.080702 127 117 102 5 4
0.229877 1.203178 -0.209430 104 95 82 5 2
0.165843 1.670972 -0.065398 147 132 120 5 4
0.026796 1.128413 0.046206 198 192 185 7 3
0.024871 1.135246 0.041887 161 156 148 7 3
0.047819 1.547783 -0.162885 130 116 98 5 4
0.064063 1.554988 -0.158733 130 115 98 5 4
0.043589 1.540157 -0.145267 131 118 101 5 4
0.044981 1.546304 0.053499 144 130 115 5 4
0.039647 1.569936 0.051179 144 131 114 5 4
0.128767 1.644837 -0.101514 143 133 122 5 4
0.127518 1.639419 -0.091675 145 137 126 5 4
0.137279 1.636040 -0.077251 172 162 155 5 4
0.180489 1.681197 -0.125691 146 130 116 5 4
0.183104 1.683227 -0.106682 147 131 116 5 4
0.180078 1.684456 -0.140707 143 127 111 5 4
0.232769 1.673555 0.037340 142 127 106 5 4
0.248338 1.680311 0.032556 143 129 111 5 4
0.256152 1.688025 0.048589 143 128 109 5 4
0.264128 1.671980 0.016302 144 128 111 5 4
0.237480 1.680796 0.051772 145 128 109 5 4
0.108235 1.565909 -0.157589 129 113 97 5 4
0.112006 1.562258 -0.143471 129 113 97 5 4
0.126351 1.560985 -0.160504 128 113 95 5 4
0.121394 1.561968 -0.174178 129 112 93 5 4
0.129536 1.555552 -0.178993 127 109 92 5 4
0.118248 1.559007 -0.143220 130 114 97 5 4
0.136777 1.562994 -0.155172 125 109 92 5 4
0.106905 1.563966 -0.166152 129 112 95 5 4
0.080256 1.678397 -0.015108 134 122 106 5 4
0.075836 1.676414 0.001462 135 126 108 5 4
0.211833 1.689497 0.146138 150 134 118 5 4
0.203921 1.688505 0.160654 152 137 119 5 4
0.361124 1.091671 0.055745 252 253 253 7 3
0.035316 1.620290 0.089091 142 131 111 5 4
0.033870 1.624428 0.102234 142 131 112 5 4
0.035896 1.622425 0.109127 146 135 116 5 4
0.262359 1.347675 -0.209967 185 188 182 5 4
0.176215 1.612660 -0.039576 178 167 153 5 4
0.183130 1.628667 -0.026815 167 153 144 5 4
0.177806 1.623987 -0.016421 145 130 116 5 4
0.171523 1.624465 -0.043921 188 179 164 5 4
0.172695 1.622194 -0.034975 154 138 127 5 4
0.348016 1.588165 -0.206551 135 124 108 5 4
0.355169 1.712494 -0.200307 144 127 108 5 4
0.381106 1.724359 -0.197075 145 128 110 5 4
0.269697 1.726332 -0.052002 151 136 123 5 4
0.206061 1.664887 -0.034214 177 169 161 5 4
0.221349 1.679550 -0.030568 158 149 138 5 4
0.231980 1.690880 -0.034663 160 150 139 5 4
0.132470 1.640915 0.139893 149 132 116 5 4
0.153054 1.656418 0.138322 149 134 116 5 4
0.044233 1.552851 0.022708 142 127 111 5 4
0.043621 1.571569 0.032234 142 127 111 5 4
0.041898 1.548547 0.038828 124 110 95 5 4
0.072598 1.545321 0.025312 125 112 95 5 4
0.046360 1.537227 0.029563 122 110 93 5 4
0.056748 1.539622 0.040972 122 111 94 5 4
0.366961 1.344182 0.060677 255 255 255 7 3
0.114351 1.578077 -0.201855 127 110 90 5 4
0.130198 1.577719 -0.203642 132 112 94 5 4
0.124945 1.566648 -0.186092 130 111 93 5 4
0.095654 1.572814 -0.202275 131 111 93 5 4
0.257606 1.687901 -0.209951 136 120 103 5 4
0.206731 1.673573 0.084062 147 130 110 5 4
0.039885 1.606915 0.076548 138 128 111 5 4
0.033315 1.624661 0.054949 149 137 122 5 4
0.039791 1.608181 0.051886 140 130 112 5 4
0.063787 1.256258 0.042009 213 211 210 7 3
0.053831 1.235293 0.039948 181 176 167 7 3
0.046937 1.216628 0.041541 192 185 174 7 3
0.036837 1.532655 -0.031830 139 128 110 5 4
0.040798 1.519411 -0.014849 139 127 110 5 4
0.037143 1.520031 -0.039770 141 126 111 5 4
0.126740 1.650279 -0.128286 142 129 113 5 4
0.112449 1.646036 -0.144853 147 136 123 5 4
0.109663 1.639596 -0.139244 143 133 117 5 4
0.119802 1.643668 -0.122330 142 132 117 5 4
0.043688 1.601543 0.153614 151 137 121 5 4
0.058781 1.574881 0.128166 148 133 116 5 4
0.050721 1.574868 0.139440 149 134 118 5 4
0.047067 1.566884 0.124110 149 133 117 5 4
0.068532 1.577203 0.125776 148 133 117 5 4
0.047788 1.664096 0.092474 143 131 112 5 4
0.138106 1.253666 0.059403 254 254 255 7 3
0.132367 1.286133 0.060457 254 255 255 7 3
0.195481 1.338275 0.061221 254 255 255 7 3
0.195446 1.160926 0.057406 244 246 248 7 3
0.032403 1.578712 -0.106821 124 112 98 5 4
0.253389 1.384914 0.062482 255 255 255 7 3
0.258772 1.395002 0.063327 255 255 255 7 3
0.073277 1.686176 0.059874 139 129 109 5 4
0.300402 1.788018 -0.050178 100 92 80 5 4
0.287230 1.699775 -0.206951 139 120 100 5 4
0.305283 1.705400 -0.205830 138 120 101 5 4
0.074834 1.537709 -0.091681 131 119 104 5 4
0.099199 1.548616 -0.093261 133 121 105 5 4
0.239418 1.434366 0.059099 254 254 254 7 3
0.236915 1.417365 0.063053 253 253 253 7 3
0.265210 1.431146 0.064240 251 251 251 7 3
0.082039 1.549588 0.005174 134 123 112 5 4
0.007747 1.559633 -0.175719 129 117 100 5 4
0.074106 1.563014 0.061934 141 126 107 5 4
0.072205 1.553490 0.045936 141 126 108 5 4
0.156199 1.125353 0.056422 255 255 255 7 3
0.027106 1.151922 0.040702 137 125 111 7 3
0.095813 1.160479 0.058769 255 255 255 7 3
0.029610 1.166820 0.041607 144 134 124 7 3
0.159931 1.600619 -0.080171 136 126 118 5 4
0.337759 1.785423 -0.026864 185 181 178 5 4
0.356684 1.764757 -0.023018 133 128 120 5 4
0.352581 1.779594 -0.027844 111 103 91 5 4
0.162017 1.243343 0.059030 250 251 253 7 3
0.128416 1.664610 -0.206418 150 132 114 5 4
0.295495 1.783987 -0.009068 153 141 126 5 4
0.282131 1.781953 0.008264 145 133 117 5 4
0.156781 1.668556 -0.136409 144 131 115 5 4
0.146346 1.660340 -0.125108 143 128 112 5 4
0.168314 1.674998 -0.132259 145 132 118 5 4
0.181231 1.125775 0.056741 255 255 255 7 3
0.086521 1.683737 -0.053208 136 124 109 5 4
0.080673 1.670662 -0.051950 130 118 103 5 4
0.096212 1.281038 0.059662 228 225 225 7 3
0.079737 1.284466 0.051008 255 254 254 7 3
0.113278 1.313703 0.058183 235 233 229 7 3
0.253556 1.736825 0.174814 139 127 111 5 4
0.138707 1.567649 -0.072145 139 124 106 5 4
0.143154 1.586909 -0.060934 141 127 108 5 4
0.132936 1.572795 -0.064947 139 124 107 5 4
0.149573 1.596297 -0.061666 147 137 126 5 4
0.148557 1.584128 -0.078297 141 129 111 5 4
0.224585 1.370552 0.062302 255 255 255 7 3
0.243287 1.354647 0.061325 255 255 255 7 3
0.063377 1.541339 -0.121646 132 118 102 5 4
0.032593 1.535422 -0.137587 132 118 102 5 4
0.054986 1.541908 -0.137379 131 118 103 5 4
0.031195 1.526767 -0.106099 131 118 103 5 4
0.023941 1.532096 -0.107728 133 118 103 5 4
0.354539 1.434856 0.064223 254 254 254 7 3
0.314332 1.416384 0.064399 254 254 254 7 3
0.312103 1.493100 0.062499 99 90 74 7 3
0.289533 1.496290 0.055242 104 93 77 7 3
0.323764 1.464642 0.066521 181 176 174 7 3
0.308424 1.476067 0.065194 151 144 138 7 3
0.295468 1.477549 0.062050 100 88 72 7 3
0.095844 1.566585 0.019924 141 127 108 5 4
0.325377 1.770575 0.154666 113 101 86 5 4
0.316061 1.772676 0.168939 137 124 108 5 4
0.301750 1.782432 0.168289 142 130 114 5 4
0.307525 1.772981 0.171842 141 128 112 5 4
0.316081 1.783125 0.160693 131 119 103 5 4
0.302325 1.788470 0.161047 149 136 119 5 4
0.224634 1.128295 0.057866 254 254 254 7 3
0.094792 1.672766 0.163020 152 141 125 5 4
0.097630 1.707625 0.155249 153 141 126 5 4
0.111075 1.699356 0.159638 152 141 124 5 4
0.091092 1.678829 0.160088 154 142 126 5 4
0.184680 1.657447 -0.046170 143 130 112 5 4
0.133686 1.631483 0.097748 145 131 113 5 4
0.336724 1.779432 0.025042 143 131 113 5 4
0.356323 1.764262 -0.008164 102 96 81 5 4
0.352535 1.773889 -0.017124 122 110 94 5 4
0.337292 1.782445 -0.012549 127 115 100 5 4
0.341897 1.777634 0.008698 149 137 123 5 4
0.036060 1.136755 0.052440 198 189 188 7 3
0.071481 1.132276 0.057523 254 254 254 7 3
0.052731 1.140401 0.056047 188 178 178 7 3
0.113587 1.646117 -0.210312 152 133 113 5 4
0.126588 1.664950 -0.178425 142 126 109 5 4
0.113458 1.656033 -0.204022 150 131 113 5 4
0.361189 1.506854 0.064009 101 89 77 7 3
0.379342 1.508704 0.064178 103 92 82 7 3
0.363968 1.529465 0.058415 102 90 79 7 3
0.165981 1.366364 0.062127 251 251 249 7 3
0.148388 1.359449 0.058567 254 254 254 7 3
0.136700 1.354937 0.054376 247 246 245 7 3
0.203296 1.719097 0.171713 146 134 118 5 4
0.231753 1.717587 0.173589 148 135 118 5 4
0.227712 1.698201 0.162490 138 122 106 5 4
0.232574 1.712381 0.172042 152 139 123 5 4
0.280452 1.707564 -0.028064 192 191 187 5 4
0.266731 1.723742 -0.035239 179 173 166 5 4
0.263665 1.703282 -0.032279 199 200 196 5 4
0.286598 1.720000 -0.033955 202 205 202 5 4
0.278807 1.698426 -0.013389 211 210 209 5 4
0.142378 1.587941 -0.047819 165 157 145 5 4
0.120334 1.570695 -0.051435 138 126 111 5 4
0.130561 1.579519 -0.053442 144 132 119 5 4
0.292651 1.784149 0.036218 150 138 121 5 4
0.290829 1.785460 0.012118 153 141 125 5 4
0.281654 1.783585 0.045294 150 138 122 5 4
0.281244 1.783356 0.025706 147 132 118 5 4
0.344530 1.170777 0.056956 234 236 238 7 3
0.032008 1.583438 -0.123507 121 111 97 5 4
0.026141 1.574272 -0.118883 119 109 94 5 4
0.021889 1.576668 -0.132721 118 108 94 5 4
0.197328 1.688859 -0.055791 210 210 205 5 4
0.209088 1.683367 -0.047571 196 196 192 5 4
0.141662 1.335733 0.062254 254 253 253 7 3
0.112317 1.329873 0.052769 252 252 251 7 3
0.123201 1.348684 0.051243 251 250 250 7 3
0.126201 1.328650 0.058473 253 253 253 7 3
0.116173 1.293509 0.062001 254 254 254 7 3
0.134000 1.318692 0.062645 251 251 251 7 3
0.043156 1.554460 0.078023 145 132 114 5 4
0.052261 1.566520 0.114506 146 133 116 5 4
0.054852 1.562627 0.103795 147 133 116 5 4
0.047101 1.561784 0.100281 147 133 116 5 4
0.068929 1.570974 0.102291 147 133 115 5 4
0.050488 1.552386 0.078160 143 130 111 5 4
0.042559 1.669304 0.144552 150 138 121 5 4
0.200373 1.432656 0.052267 252 252 252 7 3
0.216928 1.435978 0.055654 253 253 252 7 3
0.215958 1.403181 0.062234 252 252 252 7 3
0.040904 1.598528 0.069061 148 134 118 5 4
0.254874 1.480103 0.043573 182 174 166 7 3
0.259566 1.479847 0.051288 186 176 166 7 3
0.230141 1.469920 0.042683 183 176 167 7 3
0.241165 1.469506 0.049033 208 206 203 7 3
0.266201 1.488965 0.042544 211 209 207 7 3
0.249020 1.718167 -0.044811 204 198 194 5 4
0.049482 1.656341 0.042129 139 129 111 5 4
0.059037 1.659384 0.028293 136 126 109 5 4
0.322628 1.732099 0.139035 114 102 84 5 4
0.326375 1.752318 0.141370 106 94 78 5 4
0.331130 1.757847 0.123295 106 96 79 5 4
0.325644 1.727585 0.112166 115 102 85 5 4
0.077806 1.593856 0.158009 148 132 116 5 4
0.287937 1.738842 -0.200853 136 117 97 5 4
0.039397 1.548749 -0.026048 140 128 110 5 4
0.037788 1.531782 -0.015602 140 127 110 5 4
0.041070 1.566825 -0.039778 136 124 108 5 4
0.348634 1.745638 0.027663 101 89 74 5 4
0.171337 1.417202 0.045925 216 216 212 7 3
0.179980 1.424057 0.041414 189 180 172 7 3
0.187653 1.437443 0.043050 193 185 177 7 3
0.241526 1.714440 -0.104721 156 141 128 5 4
0.253716 1.721161 -0.057613 151 135 118 5 4
0.257315 1.720277 -0.086847 153 136 121 5 4
0.075869 1.580795 0.116481 144 133 115 5 4
0.092628 1.599096 0.118598 147 131 114 5 4
0.086051 1.597996 0.141611 147 133 115 5 4
0.194124 1.103297 0.057094 255 255 255 7 3
0.037099 1.638478 0.149646 143 131 113 5 4
0.076138 1.555527 -0.151228 131 115 98 5 4
0.100890 1.562563 -0.148562 131 114 99 5 4
0.073739 1.562479 -0.176961 130 115 98 5 4
0.295557 1.707701 0.086948 138 122 103 5 4
0.315112 1.710018 0.084004 135 120 101 5 4
0.319397 1.719658 0.114069 109 98 82 5 4
0.316926 1.714645 0.098840 116 103 87 5 4
0.030641 1.530565 -0.119426 130 116 103 5 4
0.018815 1.535415 -0.133394 129 116 101 5 4
0.022696 1.533184 -0.119660 130 117 101 5 4
0.294336 1.448358 -0.209100 176 177 169 5 4
0.306546 1.749384 -0.115687 142 123 108 5 4
0.307928 1.755123 -0.135356 141 124 108 5 4
0.321936 1.759240 -0.124774 142 129 116 5 4
0.139068 1.594482 -0.203609 133 115 95 5 4
0.153470 1.574369 -0.207208 171 168 158 5 4
0.084407 1.565878 -0.208189 131 113 94 5 4
0.085540 1.559019 -0.169052 130 113 93 5 4
0.087197 1.568140 -0.193358 130 113 95 5 4
0.036221 1.580945 0.135889 148 136 117 5 4
0.041461 1.571754 0.130929 149 135 118 5 4
0.223413 1.390724 0.064658 255 255 255 7 3
0.242352 1.407371 0.064722 255 254 253 7 3
0.036206 1.589248 0.136265 154 141 124 5 4
0.331075 1.690150 -0.203857 140 121 103 5 4
0.046079 1.604462 0.026020 136 125 108 5 4
0.047444 1.582204 0.028256 135 126 108 5 4
0.043402 1.583430 0.051170 144 128 111 5 4
0.044222 1.593536 0.044630 136 126 109 5 4
0.366916 1.452115 0.066539 209 207 205 7 3
0.353496 1.474084 0.065157 212 212 211 7 3
0.345082 1.444170 0.064708 250 250 250 7 3
0.061399 1.676692 0.083732 142 130 112 5 4
0.072493 1.693535 0.106556 140 129 111 5 4
0.059165 1.682177 0.110327 142 131 113 5 4
0.067582 1.686987 0.090292 140 129 110 5 4
0.053531 1.679516 0.128323 142 129 112 5 4
0.285794 1.112277 0.056013 247 247 249 7 3
0.198742 1.659680 0.036694 144 129 108 5 4
0.035813 1.630718 0.042746 140 131 112 5 4
0.108825 1.590285 0.041919 139 126 109 5 4
0.131553 1.599463 0.017977 141 126 106 5 4
0.051476 1.098069 0.055800 215 214 213 7 3
0.067231 1.118275 0.056693 254 254 254 7 3
0.173742 1.667228 0.128062 150 133 116 5 4
0.184665 1.672567 0.124061 149 133 113 5 4
0.047738 1.573767 -0.025855 137 125 110 5 4
0.049631 1.583175 -0.018036 130 118 102 5 4
0.060079 1.599753 -0.031237 129 117 102 5 4
0.052641 1.583037 -0.031465 126 117 101 5 4
0.259149 1.719584 0.174031 149 137 120 5 4
0.286101 1.735736 0.175999 145 132 116 5 4
0.252759 1.749958 0.172282 142 129 113 5 4
0.288180 1.750369 0.175452 140 126 111 5 4
0.005488 1.553686 -0.188079 129 116 99 5 4
0.005340 1.549959 -0.199086 132 115 100 5 4
0.009760 1.546053 -0.202533 133 116 100 5 4
0.315715 1.729002 0.158695 122 108 92 5 4
0.304564 1.755397 0.175178 141 128 112 5 4
0.322937 1.747830 0.156105 112 101 83 5 4
0.304423 1.733696 0.173856 148 135 119 5 4
0.316506 1.751713 0.169477 115 103 87 5 4
0.138169 1.650215 0.153179 152 136 119 5 4
0.160108 1.662953 0.154850 152 136 120 5 4
0.134726 1.649483 0.163853 155 138 120 5 4
0.041811 1.551048 -0.205289 135 116 99 5 4
0.334815 1.730442 0.081056 109 98 81 5 4
0.331567 1.743712 0.109461 108 97 80 5 4
0.326361 1.710763 0.070001 131 114 98 5 4
0.307513 1.703227 0.061625 118 104 87 5 4
0.324134 1.708390 0.054851 127 112 95 5 4
0.251982 1.078088 0.055876 255 255 255 7 3
0.297750 1.510931 0.043889 129 121 108 7 3
0.318697 1.526903 0.043949 157 153 148 7 3
0.308678 1.524056 0.045126 157 153 148 7 3
0.095381 1.611991 0.162118 152 137 120 5 4
0.094944 1.621215 0.170033 157 144 127 5 4
0.070544 1.625151 0.167915 153 142 126 5 4
0.110829 1.620343 0.137832 158 144 126 5 4
0.081563 1.603928 0.168051 151 138 120 5 4
0.078787 1.615953 0.170143 152 142 124 5 4
0.249206 1.732734 -0.181832 140 122 100 5 4
0.270850 1.736087 -0.200240 147 128 107 5 4
0.141198 1.592750 -0.028302 144 132 120 5 4
0.138237 1.588336 -0.039501 162 151 141 5 4
0.129087 1.603868 0.028591 140 127 108 5 4
0.121960 1.602774 0.040133 140 127 109 5 4
0.080478 1.702844 0.098141 139 128 110 5 4
0.300649 1.738736 -0.096197 140 127 111 5 4
0.325987 1.749815 -0.087129 139 125 109 5 4
0.315679 1.751847 -0.106588 139 125 109 5 4
0.298658 1.733885 -0.079508 145 129 115 5 4
0.365260 1.756331 -0.040092 137 124 107 5 4
0.297522 1.162777 0.056673 235 236 240 7 3
0.328065 1.365759 0.061930 255 255 255 7 3
0.315231 1.391776 0.062759 255 255 255 7 3
0.318189 1.348561 0.061503 255 255 255 7 3
0.196153 1.704798 -0.183577 141 124 105 5 4
0.220282 1.711416 -0.152718 141 126 110 5 4
0.349063 1.728138 0.012114 102 90 75 5 4
0.352499 1.757154 0.015152 105 94 80 5 4
0.355997 1.749629 -0.007739 101 89 75 5 4
0.350926 1.728302 -0.006634 179 175 169 5 4
0.032259 1.631930 0.071934 147 136 119 5 4
0.034492 1.640209 0.065630 146 135 117 5 4
0.147490 1.678210 -0.189193 143 125 106 5 4
0.167762 1.690136 -0.186655 142 125 106 5 4
0.144584 1.671433 -0.163768 142 126 109 5 4
0.133346 1.670012 -0.199969 146 128 109 5 4
0.324982 1.553526 -0.209780 137 126 110 5 4
0.308448 1.584374 -0.209042 136 125 109 5 4
0.293933 1.579280 -0.210901 140 128 114 5 4
0.268317 1.171880 0.057443 234 235 239 7 3
0.222944 1.705409 -0.113450 157 143 131 5 4
0.221704 1.706063 -0.127326 142 128 112 5 4
0.342152 1.749515 0.064735 109 95 80 5 4
0.346323 1.757134 0.047437 108 94 80 5 4
0.247099 1.670196 -0.013090 179 170 159 5 4
0.263971 1.663852 -0.000428 174 162 151 5 4
0.054896 1.609040 -0.015159 131 120 104 5 4
0.060036 1.620080 -0.027435 129 120 104 5 4
0.063824 1.614038 -0.038918 129 118 103 5 4
0.053905 1.603582 -0.022359 129 117 101 5 4
0.067731 1.627726 -0.036645 131 119 103 5 4
0.254559 1.786212 0.129642 151 138 122 5 4
0.261086 1.787097 0.113154 148 135 119 5 4
0.088403 1.553149 -0.003392 139 125 107 5 4
0.103586 1.561574 -0.042665 137 124 108 5 4
0.083938 1.541344 -0.035990 137 125 109 5 4
0.093308 1.552500 -0.024298 138 126 108 5 4
0.328381 1.720321 0.088220 107 96 80 5 4
0.243231 1.113276 0.056769 255 255 255 7 3
0.111959 1.255159 0.059920 249 250 252 7 3
0.119666 1.213789 0.059032 243 246 248 7 3
0.304203 1.692194 -0.002955 165 153 141 5 4
0.333823 1.697273 0.003358 130 115 101 5 4
0.313805 1.683739 0.007388 143 127 110 5 4
0.296386 1.676783 0.013660 139 124 107 5 4
0.317069 1.686285 0.014643 106 92 77 5 4
0.304828 1.684508 0.001592 149 136 123 5 4
0.328022 1.685441 0.011986 114 98 83 5 4
0.358690 1.787092 -0.045025 106 98 88 5 4
0.365015 1.770356 -0.035843 171 171 167 5 4
0.378783 1.769790 -0.054293 155 145 135 5 4
0.269432 1.708860 0.153131 149 136 119 5 4
0.285758 1.714029 0.157413 143 129 111 5 4
0.278353 1.714077 0.163037 153 138 123 5 4
0.296653 1.720584 0.162138 149 136 119 5 4
0.287758 1.728683 0.174329 151 137 121 5 4
0.165088 1.613586 -0.024491 151 137 123 5 4
0.165327 1.614258 -0.038033 144 129 114 5 4
0.167289 1.601520 -0.041984 144 127 112 5 4
0.154936 1.597599 -0.048533 142 129 114 5 4
0.271595 1.683527 -0.009337 172 161 152 5 4
0.283122 1.674280 0.001707 147 134 118 5 4
0.096495 1.648757 -0.190000 145 127 109 5 4
0.073537 1.630720 -0.198740 148 133 115 5 4
0.086518 1.638916 -0.174142 142 128 112 5 4
0.087193 1.638908 -0.194842 151 131 114 5 4
0.074574 1.632087 -0.183600 146 130 114 5 4
0.104032 1.650190 -0.199709 152 133 115 5 4
0.268065 1.725517 -0.037966 153 138 124 5 4
0.250286 1.700430 -0.036543 207 207 207 5 4
0.268895 1.712012 -0.037961 211 212 211 5 4
0.226510 1.698364 -0.044399 188 186 180 5 4
0.248905 1.712862 -0.043034 186 185 180 5 4
0.231802 1.710339 -0.046470 183 179 173 5 4
0.155612 1.710888 0.166750 152 139 122 5 4
0.156202 1.731312 0.160926 153 137 122 5 4
0.249285 1.690547 0.077774 145 129 110 5 4
0.372499 1.786016 -0.112885 135 122 107 5 4
0.141054 1.676470 0.170663 151 140 123 5 4
0.126301 1.687357 0.166764 152 139 124 5 4
0.164314 1.124632 -0.207081 197 197 189 5 2
0.082626 1.222014 0.058766 243 242 244 7 3
0.089013 1.240899 0.059595 248 248 250 7 3
0.304012 1.671280 -0.206963 135 122 105 5 4
0.221224 1.684699 0.106754 149 132 114 5 4
0.199955 1.677329 0.112067 145 132 111 5 4
0.207899 1.683007 0.120066 149 133 115 5 4
0.165654 1.697999 0.170500 148 136 119 5 4
0.148434 1.666826 0.170011 149 139 122 5 4
0.155204 1.663626 0.164379 154 138 120 5 4
0.177811 1.684913 0.171758 154 139 123 5 4
0.272943 1.789810 0.140674 149 136 119 5 4
0.287101 1.786262 0.118870 148 135 119 5 4
0.269629 1.790771 0.118509 149 137 122 5 4
0.321748 1.288272 0.059620 255 255 255 7 3
0.106243 1.609148 0.106997 145 131 112 5 4
0.115839 1.614986 0.092571 143 130 111 5 4
0.088876 1.592664 0.110032 143 130 112 5 4
0.286077 1.500579 0.044540 146 138 127 7 3
0.129498 1.620978 -0.208817 133 112 96 5 4
0.108210 1.617877 -0.206802 148 132 115 5 4
0.050084 1.584939 0.008130 134 119 105 5 4
0.045787 1.563925 0.012563 142 127 111 5 4
0.163702 1.631295 0.028816 143 128 110 5 4
0.201822 1.739896 0.167767 148 137 121 5 4
0.077652 1.292328 0.046170 241 239 238 7 3
0.086262 1.306981 0.041479 202 198 196 7 3
0.062394 1.642299 0.161901 150 138 121 5 4
0.041698 1.657052 0.152524 145 133 115 5 4
0.057308 1.656148 0.156045 150 139 121 5 4
0.051279 1.632125 0.161390 146 134 117 5 4
0.149505 1.591306 -0.192514 126 107 90 5 4
0.139176 1.574356 -0.197222 131 110 95 5 4
0.143514 1.584908 -0.205532 133 112 97 5 4
0.045454 1.554215 -0.196343 130 114 96 5 4
0.027695 1.547677 -0.202715 132 114 95 5 4
0.017980 1.546301 -0.189766 133 115 97 5 4
0.275342 1.788712 0.109522 150 138 123 5 4
0.293417 1.785660 0.078667 149 136 119 5 4
0.290847 1.785614 0.095155 150 137 121 5 4
0.096527 1.441233 -0.206583 153 144 135 5 4
0.329841 1.775849 0.112333 114 107 92 5 4
0.337696 1.765074 0.090114 104 94 78 5 4
0.334793 1.775241 0.090234 104 92 78 5 4
0.340212 1.769776 0.069340 108 96 82 5 4
0.087136 1.649273 0.166593 153 142 126 5 4
0.110547 1.665292 0.167579 152 141 124 5 4
0.268231 1.265775 0.059334 254 255 255 7 3
0.231122 1.304540 0.059485 254 255 255 7 3
0.216231 1.315775 0.060171 255 255 255 7 3
0.205493 1.281125 0.059623 254 254 255 7 3
0.329562 1.703788 0.030639 103 92 76 5 4
0.333415 1.717373 0.057278 108 96 79 5 4
0.340657 1.721565 0.038422 105 94 77 5 4
0.338078 1.711795 0.029034 105 93 78 5 4
0.085416 1.584530 0.090279 144 132 114 5 4
0.060722 1.667435 0.042598 138 128 111 5 4
0.069485 1.680336 0.044850 137 128 110 5 4
0.073706 1.676430 0.020751 136 127 109 5 4
0.312260 1.092918 0.055264 238 242 244 7 3
0.041852 1.586074 0.072313 150 137 121 5 4
0.036074 1.570342 0.066198 151 140 124 5 4
0.061488 1.245910 0.050502 201 194 195 7 3
0.042010 1.593158 0.092802 148 134 116 5 4
0.039952 1.575646 0.112953 148 134 116 5 4
0.282362 1.724571 -0.204919 139 120 101 5 4
0.275341 1.694233 0.059223 145 129 110 5 4
0.038507 1.584308 0.119247 150 138 121 5 4
0.040910 1.594081 0.115335 151 138 121 5 4
0.039076 1.570540 0.087803 147 136 118 5 4
0.037761 1.580491 0.089799 148 137 119 5 4
0.296981 1.732583 -0.062939 153 135 120 5 4
0.025496 1.547175 -0.104071 132 121 104 5 4
0.027086 1.545557 -0.087986 130 119 102 5 4
0.028351 1.567604 -0.096821 127 117 100 5 4
0.319658 1.716856 -0.022946 207 208 208 5 4
0.302625 1.710109 -0.018912 210 211 209 5 4
0.304828 1.718235 -0.030892 210 212 210 5 4
0.078959 1.699363 0.084318 137 127 110 5 4
0.083362 1.703652 0.055624 136 125 108 5 4
0.203599 1.650139 -0.027422 187 179 171 5 4
0.218285 1.667907 -0.026798 186 178 171 5 4
0.219899 1.644973 -0.015299 199 192 186 5 4
0.168689 1.671251 -0.109771 149 134 122 5 4
0.197273 1.691951 -0.094163 171 159 152 5 4
0.241138 1.692882 0.108383 146 133 114 5 4
0.226421 1.683270 0.092441 147 133 113 5 4
0.236950 1.158900 0.058073 235 236 239 7 3
0.054183 1.554764 -0.175656 130 113 95 5 4
0.064936 1.564077 -0.199300 130 112 93 5 4
0.064177 1.563729 -0.186763 130 113 95 5 4
0.198519 1.630456 -0.014704 148 134 120 5 4
0.093162 1.544316 -0.064415 136 122 105 5 4
0.098617 1.551747 -0.053138 135 122 106 5 4
0.109506 1.552362 -0.072309 135 121 105 5 4
0.082718 1.539289 -0.089786 132 120 105 5 4
0.098141 1.545313 -0.079924 135 121 105 5 4
0.256934 1.495424 -0.208454 196 200 197 5 4
0.245638 1.505960 -0.207373 192 197 192 5 4
0.258070 1.483787 -0.208143 195 201 197 5 4
0.172151 1.654757 0.076294 147 131 114 5 4
0.176891 1.665468 0.107472 147 132 114 5 4
0.372110 1.769927 -0.069535 135 124 107 5 4
0.378879 1.770235 -0.042867 163 155 144 5 4
0.376946 1.781936 -0.065050 143 134 118 5 4
0.373246 1.779571 -0.047330 153 145 134 5 4
0.255228 1.696436 0.095163 147 131 113 5 4
0.264390 1.700791 0.108671 147 134 115 5 4
0.182463 1.207088 0.058607 234 236 239 7 3
0.323394 1.729939 -0.201385 142 123 104 5 4
0.347661 1.305954 0.059986 255 255 255 7 3
0.372828 1.314769 0.060542 255 255 255 7 3
0.385821 1.359031 0.061579 255 255 255 7 3
0.114351 1.659931 -0.190149 144 126 108 5 4
0.120749 1.182141 0.058177 248 249 251 7 3
0.168364 1.162592 0.057824 247 248 249 7 3
0.062001 1.561217 0.073179 144 128 111 5 4
0.072752 1.567775 0.072451 143 128 111 5 4
0.055236 1.540267 0.049978 140 126 107 5 4
0.049953 1.545749 0.058944 142 127 109 5 4
0.056026 1.548627 0.062488 141 127 109 5 4
0.243974 1.697064 0.125350 149 133 116 5 4
0.245796 1.701139 0.134701 150 133 117 5 4
0.266939 1.705132 0.127352 151 133 118 5 4
0.328060 1.641275 -0.206187 135 121 103 5 4
0.097797 1.646512 -0.167637 143 129 114 5 4
0.138706 1.608600 -0.206198 133 113 97 5 4
0.363732 1.790826 -0.063459 143 133 117 5 4
0.306300 1.700762 0.045210 138 123 103 5 4
0.307109 1.697066 0.030757 140 125 108 5 4
0.327486 1.696676 0.023084 119 106 88 5 4
0.230583 1.680433 0.069340 145 130 112 5 4
0.161352 1.608433 -0.063715 141 127 112 5 4
0.167021 1.609396 -0.055915 142 128 113 5 4
0.165799 1.608574 -0.067814 145 130 112 5 4
0.094665 1.428220 -0.206631 156 149 140 5 4
0.322100 1.520578 0.054619 105 95 81 7 3
0.302119 1.507895 0.055417 99 88 73 7 3
0.142142 1.621486 0.040388 142 127 107 5 4
0.154757 1.617299 0.012296 142 127 111 5 4
0.005496 1.571126 -0.195754 125 114 98 5 4
0.342793 1.492479 0.065416 150 141 136 7 3
0.341032 1.507658 0.062289 104 91 82 7 3
