ply
format ascii 1.0
element vertex 1098
property float x
property float y
property float z
property uchar red
property uchar green
property uchar blue
property uchar semantic_label
property uchar instance_label
end_header
-0.300115 0.074192 -0.805590 104 106 102 2 2
-0.645530 0.124224 -0.369519 27 25 28 7 7
-0.634866 0.125425 -0.346518 18 29 29 7 7
-0.662015 0.128878 -0.344475 41 37 36 7 7
-0.542040 0.227016 -0.808074 106 105 97 2 2
-0.314032 0.425470 -0.382423 254 207 205 5 4
-0.344195 0.413055 -0.381953 250 212 212 5 4
-0.653880 0.118137 -0.654040 30 30 34 7 7
-0.664524 0.127880 -0.629325 33 33 37 7 7
-0.635192 0.109573 -0.654182 31 30 40 7 7
-0.643978 0.112288 -0.642171 24 32 28 7 7
-0.656677 0.121121 -0.638560 33 30 27 7 7
-0.488707 -0.289739 -0.809789 99 102 89 2 2
-0.464773 -0.282912 -0.810244 102 99 94 2 2
-0.445484 0.194575 -0.805398 110 110 95 2 2
-0.484286 0.195925 -0.805679 101 97 100 2 2
-0.027426 0.108194 -0.798740 93 88 82 2 2
-0.041758 0.113998 -0.798665 91 87 83 2 2
-0.265894 -0.131252 -0.806674 98 94 98 2 2
-0.297562 0.400157 -0.798570 174 187 179 2 2
-0.285491 0.379145 -0.798388 211 217 211 2 2
-0.643458 -0.229381 -0.794026 52 52 50 7 7
-0.648404 -0.250344 -0.786821 61 52 64 7 7
-0.648078 -0.254148 -0.796112 61 59 62 7 7
-0.649182 -0.249953 -0.802808 50 52 61 2 2
-0.647837 -0.236174 -0.782852 57 56 49 7 7
-0.184500 0.354197 -0.382200 228 182 170 5 4
-0.205772 0.367150 -0.382973 231 185 173 5 4
-0.182278 0.374740 -0.379667 243 197 187 5 4
-0.213788 0.421129 -0.365235 254 253 255 5 4
-0.215109 0.412292 -0.373110 250 224 228 5 4
-0.197574 0.394368 -0.377393 250 219 222 5 4
-0.236056 0.411815 -0.374664 251 224 229 5 4
-0.231779 0.427748 -0.364024 255 252 254 5 4
-0.444573 0.342771 -0.396987 219 219 217 5 4
-0.359009 -0.242942 -0.810425 126 113 109 2 2
-0.335815 -0.239942 -0.810093 121 121 114 2 2
-0.286068 0.417593 -0.430895 163 163 159 5 4
-0.275699 0.435330 -0.430442 153 151 148 5 4
-0.294171 0.409113 -0.425796 167 165 160 5 4
-0.230191 0.073975 -0.802701 111 122 115 2 2
-0.197402 0.094306 -0.803983 112 127 118 2 2
-0.227035 0.104538 -0.802427 117 125 113 2 2
-0.187573 0.103620 -0.803161 119 128 118 2 2
-0.287935 0.476115 -0.360602 133 121 125 5 4
-0.273371 0.481207 -0.353305 147 137 131 5 4
-0.284908 0.475518 -0.342167 136 128 126 5 4
-0.633158 0.122425 -0.545750 41 51 44 7 7
-0.296560 0.456897 -0.354842 141 140 164 5 4
-0.296059 0.465182 -0.345325 127 119 119 5 4
-0.300866 0.455316 -0.330790 131 118 120 5 4
-0.081136 0.396769 -0.363111 129 119 122 5 4
-0.127907 0.381451 -0.367364 220 183 191 5 4
-0.083410 0.369679 -0.361535 248 245 247 5 4
-0.108034 0.385926 -0.361672 219 192 198 5 4
-0.092407 0.377074 -0.361833 215 198 200 5 4
-0.747515 -0.206816 -0.806433 55 57 56 2 2
-0.732216 -0.210197 -0.809591 82 82 74 2 2
-0.724676 -0.194974 -0.808967 59 68 66 2 2
-0.748948 -0.183302 -0.808822 45 49 58 2 2
-0.663361 0.245308 -0.605114 53 60 66 7 7
-0.666249 0.237859 -0.592418 53 57 69 7 7
-0.654516 0.249428 -0.629339 55 60 65 7 7
-0.954620 0.255151 -0.369829 177 171 166 5 3
-0.601056 0.035204 -0.782842 35 43 40 7 7
-0.596976 0.042073 -0.793569 55 54 57 7 7
-0.583251 0.061322 -0.808456 59 65 52 7 7
-0.599172 0.047902 -0.783962 46 38 33 7 7
-0.588354 0.040775 -0.809908 48 50 44 7 7
-0.440171 0.086242 -0.375537 124 127 127 5 4
-0.446225 0.099363 -0.379304 197 197 198 5 4
-0.425285 0.083305 -0.373896 65 57 65 5 4
-0.422343 0.084484 -0.376177 173 175 180 5 4
-0.432752 0.087845 -0.382862 66 64 69 5 4
-0.440131 0.089719 -0.368454 129 136 134 5 4
-0.421248 0.089924 -0.370074 73 62 66 5 4
-0.410621 0.073057 -0.365083 229 234 233 5 4
-0.915409 -0.278381 -0.337580 55 37 26 5 3
-0.923635 -0.269592 -0.369172 88 74 61 5 3
-0.231475 -0.087509 -0.806126 103 98 90 2 2
-0.220810 -0.066942 -0.805675 76 77 74 2 2
-0.237491 -0.065156 -0.804974 97 93 88 2 2
-0.162867 0.391516 -0.374200 255 241 246 5 4
-0.178871 0.409489 -0.373372 253 241 242 5 4
-0.201109 0.413591 -0.370797 254 247 251 5 4
-0.664289 0.186495 -0.808233 78 62 61 2 2
-0.348827 0.049746 -0.804972 97 110 108 2 2
-0.334542 0.060311 -0.805812 107 104 96 2 2
0.027812 0.548492 -0.786149 248 252 249 2 2
0.007184 0.527706 -0.787542 238 245 242 2 2
-0.889155 -0.040238 -0.333950 94 80 64 5 3
-0.921706 -0.011106 -0.336706 93 82 63 5 3
-0.950732 0.208473 -0.374534 113 100 96 5 3
-0.962897 0.196303 -0.367229 114 105 87 5 3
-0.960866 0.215212 -0.370684 120 100 88 5 3
-0.420957 0.642361 -0.790531 205 211 213 2 2
-0.404290 0.638227 -0.791462 235 242 236 2 2
-0.996505 -0.101464 -0.343035 105 86 66 5 3
-0.987230 -0.099737 -0.336267 95 83 69 5 3
-0.977572 -0.085640 -0.337065 117 90 74 5 3
-0.934247 -0.274647 -0.331403 71 49 28 5 3
-0.434018 0.132892 -0.806190 108 107 95 2 2
-0.417338 -0.359801 -0.337501 77 85 78 5 5
-0.417813 0.151180 -0.807906 113 112 104 2 2
-0.097799 0.563493 -0.791216 233 242 239 2 2
-0.369736 -0.335468 -0.804954 125 130 121 2 2
-0.431893 -0.331935 -0.806951 117 119 111 2 2
-0.432283 -0.305999 -0.807999 106 110 112 2 2
-0.421364 -0.350940 -0.805966 122 125 122 2 2
-0.357483 -0.369261 -0.424835 101 104 106 5 5
-0.676183 0.210307 -0.498853 127 130 131 7 7
-0.671360 0.238120 -0.495817 65 65 66 7 7
-0.668891 0.220864 -0.518980 59 63 74 7 7
-0.672382 0.214577 -0.526088 72 67 76 7 7
-0.066838 0.366934 -0.364385 82 75 75 5 4
-0.061477 0.362725 -0.361150 78 71 71 5 4
-0.941066 -0.254692 -0.425411 103 87 66 5 3
-0.944758 -0.258017 -0.400192 68 49 33 5 3
-0.941535 -0.247205 -0.423296 78 63 55 5 3
-0.927709 -0.252011 -0.410086 92 79 54 5 3
-0.938277 -0.268009 -0.415864 104 88 70 5 3
-0.948972 -0.252149 -0.422267 86 70 53 5 3
-0.947646 -0.268763 -0.423609 94 75 66 5 3
-0.949003 -0.261664 -0.408216 92 72 57 5 3
-0.935812 -0.245429 -0.418171 89 69 53 5 3
-0.944550 -0.263825 -0.396554 87 68 57 5 3
-0.666369 -0.029630 -0.733437 48 53 51 7 7
-0.664491 -0.043860 -0.733150 50 53 63 7 7
-0.658996 -0.035835 -0.722609 54 54 60 7 7
-0.235733 0.149696 -0.364679 175 145 153 5 4
-0.418384 0.102149 -0.360841 86 74 81 5 4
-0.645857 0.250676 -0.672063 56 52 65 7 7
-0.655195 0.249368 -0.693600 70 63 66 7 7
-0.661909 0.248984 -0.704852 60 63 68 7 7
-0.649597 0.257538 -0.705786 56 56 67 7 7
-0.569517 -0.089386 -0.804198 78 80 77 2 2
-0.570395 -0.071063 -0.802148 75 70 68 2 2
-0.134040 0.529046 -0.791418 202 209 208 2 2
-0.109469 0.526659 -0.791585 198 203 200 2 2
-0.787283 0.118763 -0.809593 91 80 68 2 2
-0.787581 0.107041 -0.810197 88 80 60 2 2
-0.778903 0.093495 -0.812968 77 63 43 2 2
-0.166755 -0.298745 -0.725377 64 66 76 5 5
-0.158229 -0.300408 -0.734094 59 65 73 5 5
-0.157623 -0.300051 -0.722407 59 65 73 5 5
-0.169219 -0.315793 -0.723702 60 61 71 5 5
-0.172817 -0.303489 -0.714825 49 50 61 5 5
-0.635159 0.253558 -0.775235 101 90 95 7 7
-0.643141 0.229884 -0.779417 69 60 63 7 7
-0.660524 0.252549 -0.486426 71 77 78 7 7
-0.656736 0.249273 -0.475553 64 67 73 7 7
-0.665465 0.247586 -0.470073 69 74 67 7 7
-0.673571 0.233117 -0.478755 69 75 69 7 7
-0.666735 0.250265 -0.481997 168 171 166 7 7
-0.653751 0.250209 -0.490638 72 73 70 7 7
-0.285944 0.081618 -0.359603 179 172 187 5 4
-0.295072 0.119868 -0.361746 179 173 190 5 4
-0.667357 0.106344 -0.730739 57 62 61 7 7
-0.666145 0.125560 -0.724894 50 49 40 7 7
-0.060284 -0.112748 -0.800832 102 96 89 2 2
-0.069094 -0.103886 -0.801374 96 94 83 2 2
-0.092814 -0.093837 -0.804535 89 89 85 2 2
-0.073606 -0.087159 -0.802867 99 101 91 2 2
-1.013228 0.106953 -0.436450 91 85 77 5 3
-1.014832 0.117558 -0.428412 74 71 63 5 3
-0.997300 0.115321 -0.431942 74 74 69 5 3
-1.003977 0.111716 -0.433892 97 80 73 5 3
-1.022966 0.088810 -0.440163 92 88 70 5 3
-0.011699 0.488779 -0.791984 246 251 251 2 2
-0.084657 0.209992 -0.799947 113 115 102 2 2
-0.544151 0.187388 -0.807557 85 88 81 2 2
-0.547833 0.207759 -0.807038 97 93 83 2 2
-0.675528 0.141623 -0.809882 70 60 67 2 2
-0.676528 0.160047 -0.807670 58 62 61 2 2
-0.650803 0.150488 -0.810003 73 72 71 2 2
-0.675446 0.041746 -0.810548 83 76 77 2 2
-0.659063 0.027065 -0.806856 87 78 72 2 2
-0.161472 0.361069 -0.796397 133 140 134 2 2
-0.178036 0.362000 -0.795616 131 137 133 2 2
-0.091243 0.257275 -0.797754 108 113 107 2 2
-0.136560 0.284118 -0.799998 128 135 128 2 2
-0.126330 0.241858 -0.799303 125 125 117 2 2
-0.113102 0.264401 -0.799243 118 119 118 2 2
-0.680551 0.202441 -0.445380 101 110 108 7 7
-0.058453 0.620488 -0.788794 249 252 250 2 2
-0.935728 0.007546 -0.337383 89 87 63 5 3
-0.655521 0.226735 -0.764170 52 56 56 7 7
-0.654740 0.255940 -0.752986 90 76 79 7 7
-0.223537 -0.177070 -0.806375 109 110 110 2 2
-0.200431 -0.149969 -0.806461 87 99 94 2 2
-0.593762 0.212024 -0.796710 24 28 34 2 2
-0.188304 0.283615 -0.802255 167 174 170 2 2
-0.170477 0.272023 -0.799191 159 160 159 2 2
-0.936555 -0.193560 -0.336616 108 93 82 5 3
-0.939588 -0.203666 -0.334510 103 97 79 5 3
-0.918063 -0.203970 -0.333385 102 95 84 5 3
-0.919704 -0.189763 -0.336159 92 90 69 5 3
-0.114012 0.010026 -0.801250 86 85 76 2 2
-0.147158 -0.354040 -0.719221 50 59 68 5 5
-0.385541 0.637683 -0.791148 224 226 221 2 2
-0.359569 0.642146 -0.790449 235 240 238 2 2
-0.154655 -0.147901 -0.802712 102 98 95 2 2
-0.130990 -0.147364 -0.801138 94 99 89 2 2
-0.304721 0.653633 -0.789731 233 243 236 2 2
-0.323325 0.262148 -0.800573 164 166 162 2 2
-0.186210 -0.391230 -0.801063 135 135 138 2 2
-0.308834 0.465282 -0.795884 202 204 206 2 2
-0.324479 0.436480 -0.797043 187 197 197 2 2
-0.633278 0.124478 -0.316713 35 36 24 7 7
-0.407192 0.247371 -0.363473 165 119 112 5 4
0.019067 0.404570 -0.791741 200 205 202 2 2
-0.618766 0.149657 -0.689902 59 58 61 7 7
-0.615514 0.155149 -0.705457 51 47 44 7 7
0.030987 0.486999 -0.791205 249 253 252 2 2
0.017130 0.494122 -0.791536 249 254 253 2 2
-0.235056 0.443158 -0.341807 174 159 163 5 4
-0.215319 0.459026 -0.352538 157 157 155 5 4
-0.230685 0.448129 -0.357335 156 150 164 5 4
-0.222625 0.452669 -0.363611 132 131 144 5 4
-0.234929 0.430035 -0.358680 186 177 181 5 4
-0.210002 0.425565 -0.364514 244 238 242 5 4
-0.224734 0.430345 -0.348480 174 162 166 5 4
-0.144745 -0.314253 -0.794597 151 153 148 2 2
-0.139702 -0.319470 -0.797444 144 163 147 2 2
-0.135025 -0.304248 -0.786204 126 127 135 2 2
-0.126504 -0.307973 -0.791899 138 139 141 2 2
-0.681207 0.173386 -0.485258 91 85 78 7 7
-0.681825 0.195537 -0.499083 83 88 83 7 7
-0.680971 0.199497 -0.464087 73 75 87 7 7
-0.283017 0.147956 -0.800368 126 133 127 2 2
-0.272312 0.112618 -0.803170 126 135 127 2 2
-0.018440 0.183086 -0.347740 105 110 117 5 4
-0.038472 0.182441 -0.342910 69 57 68 5 4
-0.025674 0.179667 -0.344737 89 85 90 5 4
-0.024640 0.192883 -0.346832 104 98 101 5 4
-0.600085 0.014934 -0.749489 48 45 36 7 7
-0.600008 0.025930 -0.759701 51 47 44 7 7
-0.600886 0.014667 -0.769820 57 59 47 7 7
-0.572910 0.151988 -0.806654 85 82 84 2 2
-0.577487 0.142252 -0.802770 78 70 70 2 2
-0.675218 0.180131 -0.571467 45 60 53 7 7
-0.673498 0.190874 -0.580155 53 52 61 7 7
-0.608193 0.317470 -0.736888 106 121 135 7 7
-0.622672 0.314692 -0.724242 112 124 144 7 7
-0.641065 0.300836 -0.713962 110 126 143 7 7
-0.637503 0.323848 -0.718643 125 134 146 7 7
-0.993981 0.103760 -0.439101 98 84 76 5 3
-0.984506 0.115207 -0.435754 87 76 66 5 3
-0.537192 -0.200709 -0.806994 93 91 78 2 2
-0.543525 -0.217269 -0.806461 91 80 75 2 2
-0.526923 -0.235716 -0.809660 80 83 75 2 2
-0.512563 -0.216313 -0.809049 82 71 79 2 2
-0.842287 -0.218466 -0.329487 77 74 58 5 3
-0.670188 0.213135 -0.687489 66 62 64 7 7
-0.667366 0.225730 -0.703830 78 66 67 7 7
-0.212115 0.234727 -0.801206 157 160 157 2 2
-0.293992 0.438179 -0.416642 177 165 167 5 4
-0.295855 0.417108 -0.420974 160 159 155 5 4
-0.659641 0.433176 -0.803380 142 141 129 2 2
-0.662171 0.414980 -0.803197 130 122 108 2 2
-0.959985 0.083718 -0.335786 100 82 57 5 3
-0.964705 0.111344 -0.335248 95 79 60 5 3
-0.644162 0.250185 -0.381843 64 72 74 7 7
-0.624610 0.252203 -0.389710 123 124 124 7 7
-0.612310 0.246431 -0.385521 89 89 94 7 7
-0.636847 0.249990 -0.368743 103 116 116 7 7
-0.620080 0.250200 -0.371021 95 103 103 7 7
-0.634025 0.251207 -0.390191 104 109 106 7 7
-0.362410 0.047721 -0.359842 76 57 61 5 4
-0.462686 0.076296 -0.806099 100 98 88 2 2
-0.466835 0.093152 -0.805144 72 77 55 2 2
-0.454777 0.091989 -0.803974 80 79 64 2 2
-0.300144 0.478215 -0.795539 210 212 210 2 2
-0.660370 0.068838 -0.812091 78 74 71 2 2
-0.648645 0.062773 -0.811476 79 71 68 2 2
-0.659837 0.039980 -0.809314 56 54 43 2 2
-0.646646 0.041550 -0.810228 70 77 69 2 2
-0.059760 0.348656 -0.795193 156 160 150 2 2
-0.457119 -0.303272 -0.808608 106 104 104 2 2
-1.001775 -0.116521 -0.343045 112 108 99 5 3
-0.930674 0.241856 -0.372984 114 78 75 5 3
-0.941638 0.239077 -0.369504 111 86 70 5 3
-0.658705 -0.019893 -0.724028 61 48 60 7 7
-0.663267 -0.017171 -0.734140 39 42 48 7 7
-0.661407 -0.006695 -0.729651 60 60 64 7 7
-0.660684 -0.029822 -0.746557 52 48 57 7 7
-0.660244 -0.007755 -0.744849 38 40 44 7 7
-0.482061 0.644436 -0.791037 211 222 212 2 2
-0.408466 0.203349 -0.359849 131 93 89 5 4
-0.168736 0.138847 -0.364148 163 124 123 5 4
-0.168423 0.180500 -0.367310 163 123 122 5 4
-0.624786 0.343183 -0.800512 69 69 68 2 2
-0.629439 0.334980 -0.787890 57 64 73 7 7
-0.601772 0.351205 -0.800473 65 70 71 0 0
-0.617701 0.341415 -0.794607 62 67 69 0 0
-0.619630 0.329438 -0.785380 63 63 65 7 7
-0.044286 0.292337 -0.796848 121 116 109 2 2
-0.066982 0.280385 -0.797127 123 122 112 2 2
-0.375502 0.391210 -0.400909 189 181 185 5 4
-0.599899 -0.163740 -0.779655 56 62 50 7 7
-0.606690 -0.174578 -0.761894 57 60 61 7 7
-0.601251 -0.177814 -0.769039 49 55 64 7 7
-0.090437 0.047353 -0.351902 83 79 82 5 4
-0.091591 0.065220 -0.347848 84 76 89 5 4
-0.078886 0.075661 -0.346328 79 79 85 5 4
-0.278827 0.253385 -0.377389 157 124 115 5 4
-0.440469 0.261198 -0.393206 244 244 242 5 4
-0.445120 0.235453 -0.387796 240 243 245 5 4
-0.673404 0.300616 -0.805114 66 70 51 2 2
-0.644057 0.291365 -0.794865 69 62 64 7 7
-0.648910 0.295982 -0.784262 77 72 62 7 7
-0.650386 0.288235 -0.802267 72 64 49 2 2
-0.798499 0.164296 -0.403908 111 108 92 5 3
-0.813650 0.176056 -0.414800 106 99 95 5 3
-0.800716 0.167398 -0.419292 104 104 91 5 3
-0.780864 -0.112285 -0.811279 98 91 72 2 2
-0.658485 -0.099707 -0.809771 85 78 65 2 2
-0.640525 -0.121482 -0.803404 63 62 65 2 2
-0.635206 -0.105388 -0.791625 54 51 62 7 7
-0.644681 -0.087668 -0.810209 88 77 73 2 2
-0.455667 0.162528 -0.807684 100 100 98 2 2
-0.447176 0.149925 -0.806959 108 97 94 2 2
-0.666922 0.130306 -0.585473 44 43 47 7 7
-0.168937 -0.267355 -0.317552 64 70 73 5 5
-0.502568 0.296849 -0.806836 115 116 113 2 2
-0.468608 0.292024 -0.802518 120 122 111 2 2
-0.490968 0.278266 -0.805782 118 120 106 2 2
-0.473341 0.309239 -0.803532 124 124 113 2 2
-0.533020 0.367029 -0.803302 156 170 184 2 2
-0.547317 0.358322 -0.804963 132 137 147 2 2
-0.576908 0.358070 -0.803572 104 117 113 2 2
-0.890565 -0.083504 -0.333602 77 80 48 5 3
-0.872575 -0.067993 -0.333094 84 74 57 5 3
-0.099387 0.150245 -0.799543 110 103 106 2 2
-0.390401 0.008527 -0.368228 193 194 187 5 4
-0.380897 0.010260 -0.368451 185 187 179 5 4
-0.378846 0.024060 -0.372350 200 204 199 5 4
-0.365208 0.018035 -0.375528 182 183 178 5 4
-0.391305 0.035461 -0.373838 212 213 205 5 4
-0.353921 0.021980 -0.386804 188 191 184 5 4
-0.355967 0.029258 -0.368254 128 122 118 5 4
-0.483320 0.147168 -0.808175 104 106 92 2 2
-0.512639 0.168507 -0.807376 110 102 97 2 2
-0.301892 0.038961 -0.803850 93 95 75 2 2
-0.307950 0.022780 -0.805400 79 80 70 2 2
-0.317952 0.048428 -0.804960 85 80 64 2 2
-0.134281 0.467604 -0.796264 203 208 204 2 2
-0.156828 0.505038 -0.794338 202 205 197 2 2
-0.792474 0.051783 -0.367021 99 95 80 0 0
-0.794977 0.061823 -0.369660 101 94 86 0 0
-0.793829 0.041331 -0.372403 125 121 107 0 0
-0.304344 0.384025 -0.798770 176 184 179 2 2
-0.312548 0.407592 -0.798834 179 187 180 2 2
-0.282480 0.602048 -0.789365 220 230 227 2 2
-0.249371 0.585675 -0.791263 213 213 211 2 2
-0.261435 0.558595 -0.791169 228 233 228 2 2
-0.480362 0.225730 -0.805387 105 106 100 2 2
-0.013810 0.437384 -0.792130 209 216 214 2 2
-0.026558 0.451396 -0.794495 183 187 187 2 2
-0.001098 0.452000 -0.792010 225 232 227 2 2
-0.210047 -0.103378 -0.807052 88 89 84 2 2
-0.253347 -0.113397 -0.805959 104 100 99 2 2
-0.641280 0.121542 -0.424523 24 25 17 7 7
-0.656500 0.125018 -0.415457 29 26 18 7 7
-0.611072 0.230985 -0.566327 79 85 87 7 7
-0.612970 0.233542 -0.581706 64 65 67 7 7
-0.794935 0.111458 -0.363441 124 122 108 5 3
-0.798959 0.090006 -0.370694 91 85 80 5 3
-0.613388 0.156886 -0.322046 225 230 228 7 7
-0.606853 0.149406 -0.311554 213 213 217 7 7
-0.612506 0.159309 -0.312504 245 249 250 7 7
-0.109086 0.262966 -0.361942 232 222 231 5 4
-0.155280 -0.292445 -0.758952 92 92 99 2 2
-0.155120 0.472902 -0.795222 186 195 192 2 2
-0.802415 0.133881 -0.378211 147 151 144 5 3
-0.799298 0.145778 -0.372946 186 188 179 5 3
-0.800787 0.119371 -0.371194 118 113 102 5 3
-0.796832 0.136004 -0.364883 160 158 144 5 3
-0.795566 0.155752 -0.360559 141 141 124 5 3
-0.397550 0.041630 -0.804237 85 82 68 2 2
-0.371934 0.045356 -0.806269 96 92 79 2 2
-0.213811 -0.284736 -0.776668 39 39 42 2 2
-0.201292 -0.266913 -0.790966 43 46 46 2 2
-0.210166 -0.263925 -0.800015 88 88 88 2 2
-0.179248 -0.246389 -0.797485 76 69 74 2 2
-0.580447 0.518014 -0.794681 174 181 174 2 2
-0.570502 0.536997 -0.795923 206 211 204 2 2
-0.646043 0.136821 -0.810729 74 75 76 2 2
-0.637493 0.152070 -0.807053 74 66 67 7 7
-0.639206 0.142681 -0.781994 45 49 53 7 7
-0.633619 0.149540 -0.802528 72 74 72 7 7
-0.635748 0.158274 -0.793015 62 62 62 7 7
-0.162454 -0.240234 -0.800694 123 128 126 2 2
-0.162207 -0.258501 -0.786774 86 83 94 2 2
-0.147808 -0.248139 -0.795318 80 83 85 2 2
-0.147718 -0.259223 -0.786706 74 78 82 2 2
-0.390221 0.354758 -0.799062 160 166 155 2 2
-1.062140 -0.128371 -0.344377 115 117 103 5 3
-1.028859 -0.106523 -0.345518 114 107 105 5 3
-1.062301 -0.101739 -0.346051 113 105 95 5 3
-1.048970 -0.127977 -0.343439 107 111 99 5 3
-0.141201 0.407635 -0.368162 255 244 247 5 4
-0.155191 0.382684 -0.373413 253 228 233 5 4
-0.069839 0.213578 -0.350116 243 251 254 5 4
-0.445232 -0.226465 -0.809443 99 91 83 2 2
-0.414983 -0.208935 -0.809024 95 93 88 2 2
-0.920121 -0.221707 -0.333430 101 93 69 5 3
-0.914618 -0.246335 -0.338726 81 75 64 5 3
-0.911713 -0.239540 -0.335524 75 61 57 5 3
-0.932793 0.191126 -0.337858 74 64 49 5 3
-0.956939 0.181391 -0.362903 113 107 92 5 3
-0.927638 0.196735 -0.368582 107 105 81 5 3
-0.921693 0.199399 -0.337196 76 66 52 5 3
-0.950715 0.213898 -0.341753 94 64 53 5 3
-0.114779 0.338416 -0.799193 157 162 153 2 2
-0.120147 0.356450 -0.800129 160 161 154 2 2
-0.796552 0.172862 -0.358677 109 104 95 5 3
-0.819881 0.166397 -0.334280 99 100 79 5 3
-0.800929 0.185978 -0.361386 108 106 95 5 3
-0.802838 0.155515 -0.344033 105 104 91 5 3
-0.801866 0.177945 -0.345185 111 100 89 5 3
-0.807116 0.166735 -0.339564 97 95 62 5 3
-0.151426 0.006955 -0.370670 80 89 96 5 4
-0.137375 0.009936 -0.370685 68 76 81 5 4
-0.160082 0.002699 -0.374406 79 88 95 5 4
-0.171264 0.010859 -0.368744 93 92 94 5 4
-0.518382 0.093058 -0.801111 76 71 65 2 2
-0.489637 0.095688 -0.804723 86 84 71 2 2
-0.503631 0.106094 -0.806185 108 100 100 2 2
-0.702013 0.282168 -0.805588 99 87 68 2 2
-0.686525 0.273090 -0.805941 98 86 68 2 2
-0.202380 -0.262369 -0.378524 71 86 82 5 5
-0.232924 -0.276638 -0.385660 63 77 86 5 5
-0.224312 -0.271681 -0.376721 55 83 58 5 5
-0.219538 -0.273819 -0.394097 88 112 94 5 5
-0.667937 0.134040 -0.305048 44 51 43 7 7
-0.399477 0.148451 -0.357386 164 154 151 5 4
-0.634871 0.254897 -0.492230 67 69 72 7 7
-0.644912 0.250118 -0.480198 58 63 66 7 7
-0.635821 0.253426 -0.482804 63 63 71 7 7
-0.628569 0.253239 -0.467520 59 66 64 7 7
-0.393008 0.204291 -0.804278 109 109 108 2 2
-0.403792 0.228279 -0.804086 134 130 124 2 2
-0.630976 0.060330 -0.725194 57 56 63 7 7
-0.618682 0.040898 -0.728448 49 66 59 7 7
-0.640742 0.042359 -0.721601 54 49 51 7 7
-0.633615 -0.121699 -0.730783 50 59 59 7 7
-0.640517 -0.150615 -0.733187 58 48 49 7 7
-0.628198 -0.152385 -0.738006 50 50 60 7 7
-0.617056 -0.144367 -0.745746 70 67 66 7 7
-0.640197 -0.159781 -0.736257 41 52 53 7 7
-0.624068 -0.120652 -0.734196 49 64 58 7 7
-0.638589 0.329185 -0.792989 71 66 68 7 7
-0.653314 0.379267 -0.801612 92 89 87 0 0
-0.636499 0.351233 -0.807108 96 88 85 0 0
-0.646790 0.339159 -0.804823 97 82 69 0 0
-0.639976 0.333879 -0.801213 75 72 68 2 2
-0.662741 0.349402 -0.802995 91 94 80 0 0
-0.313235 0.122714 -0.803254 120 128 121 2 2
-0.099048 -0.366056 -0.778468 102 114 115 2 2
-0.302059 -0.007646 -0.806850 101 101 97 2 2
-0.282545 0.001499 -0.807098 104 102 90 2 2
-0.454405 0.436754 -0.802268 161 169 163 2 2
-0.628724 0.491562 -0.798643 173 178 168 0 0
-0.610078 0.508702 -0.795267 180 179 169 0 0
-0.921939 0.039025 -0.336459 93 93 55 5 3
0.044294 0.588307 -0.783932 158 163 159 2 2
0.035415 0.568143 -0.784123 139 140 142 2 2
-0.043715 0.069958 -0.355563 105 100 110 5 4
-0.047640 0.056296 -0.360173 129 135 142 5 4
-0.828894 0.127793 -0.481581 51 50 55 5 3
-0.835348 0.130049 -0.471470 51 48 49 5 3
-0.563294 0.557010 -0.795074 187 194 190 2 2
-0.542923 0.551788 -0.795011 162 169 166 2 2
-0.395820 -0.044283 -0.807915 87 99 91 2 2
-1.040319 -0.199355 -0.428825 95 82 58 5 3
-0.639874 0.251900 -0.695139 62 62 68 7 7
-0.623078 0.237349 -0.687627 53 49 60 7 7
-0.616971 0.244886 -0.714274 56 56 65 7 7
-0.637180 0.260088 -0.708569 63 64 73 7 7
-0.626050 0.251636 -0.708724 52 52 66 7 7
-0.624116 0.240611 -0.703303 43 49 50 7 7
-0.278567 0.466939 -0.405793 187 164 161 5 4
-0.288429 0.455504 -0.409702 170 157 157 5 4
-0.269564 0.459650 -0.417022 152 141 146 5 4
-0.331464 0.099122 -0.803310 98 106 88 2 2
-0.817229 -0.269784 -0.421654 87 81 78 5 3
-0.807855 -0.267783 -0.421390 82 83 86 5 3
-0.813030 -0.273548 -0.401229 93 86 79 5 3
-0.822094 -0.263385 -0.393078 44 39 37 5 3
-0.797803 -0.263675 -0.410898 76 62 52 5 3
-0.909541 0.192116 -0.389000 105 68 69 5 3
-0.932755 0.192776 -0.391987 105 66 79 5 3
-0.906660 0.193912 -0.379749 105 65 69 5 3
-0.932830 0.195770 -0.378667 111 71 63 5 3
-0.934090 0.199865 -0.368338 115 86 85 5 3
-0.938527 0.191327 -0.383954 100 66 67 5 3
-0.615803 0.142235 -0.384780 39 47 45 7 7
-0.611796 0.161398 -0.362406 224 225 224 7 7
-0.615349 0.157106 -0.385532 203 208 208 7 7
-0.611118 0.148267 -0.367370 54 57 51 7 7
-0.625483 0.134094 -0.389769 59 54 49 7 7
-0.789604 -0.091093 -0.387823 97 85 80 0 0
-0.789188 -0.088664 -0.366312 91 87 67 0 0
-0.790688 -0.079248 -0.384088 112 104 88 0 0
-0.230491 -0.262046 -0.356710 83 78 72 5 5
-0.220971 -0.261451 -0.344927 84 78 83 5 5
-0.218501 -0.258997 -0.354584 85 79 89 5 5
-0.736294 -0.253807 -0.810938 78 79 70 2 2
-0.710096 -0.264549 -0.812038 91 84 71 2 2
-0.201584 -0.275349 -0.770983 42 35 40 2 2
-0.186708 -0.280233 -0.757749 42 52 57 2 2
-0.210317 -0.287770 -0.755492 40 43 41 2 2
-0.640276 0.075997 -0.780301 40 43 49 7 7
-0.450730 -0.098278 -0.809831 89 91 87 2 2
-0.970421 -0.111557 -0.336627 96 81 68 5 3
-0.943341 -0.133349 -0.334463 91 81 57 5 3
-0.941679 -0.145718 -0.339294 109 101 87 5 3
-0.919810 -0.131104 -0.334514 102 84 68 5 3
-0.402439 -0.010348 -0.808796 91 97 88 2 2
-0.440130 -0.014341 -0.807479 104 95 94 2 2
-0.423180 -0.009599 -0.807953 101 104 92 2 2
-0.403543 -0.019967 -0.807214 106 92 97 2 2
-0.413261 -0.007569 -0.806789 104 99 100 2 2
-0.431075 -0.026962 -0.807235 91 92 80 2 2
-0.447206 -0.023778 -0.808373 105 95 86 2 2
-0.632439 0.138728 -0.807306 84 81 80 7 7
-0.631236 0.130901 -0.797934 77 76 84 7 7
-1.006851 0.131802 -0.410312 118 110 98 5 3
-1.025597 0.127906 -0.416497 109 104 97 5 3
-0.203394 -0.362324 -0.800857 117 122 119 2 2
-0.219025 -0.384681 -0.798702 161 167 171 2 2
-0.804259 -0.262982 -0.395074 86 76 54 5 3
-0.816766 -0.259703 -0.402342 51 50 36 5 3
-0.814881 -0.244725 -0.412286 67 60 42 0 0
-0.812853 -0.256408 -0.429123 87 93 78 5 3
-0.802162 -0.258566 -0.405533 56 51 28 5 3
-0.810588 -0.240744 -0.404229 53 51 37 0 0
-0.794145 -0.258130 -0.417216 90 103 89 5 3
-0.721359 -0.311322 -0.811370 90 85 78 2 2
-0.730550 -0.284915 -0.812048 89 89 77 2 2
-0.451549 0.064531 -0.803101 91 81 76 2 2
-0.465870 0.058220 -0.804898 80 69 68 2 2
-0.474776 0.031704 -0.807137 66 68 50 2 2
-0.083724 0.388262 -0.363640 182 160 155 5 4
-0.401602 0.099883 -0.802528 89 96 83 2 2
-0.356599 0.163362 -0.803030 115 112 113 2 2
-0.340738 0.183560 -0.801889 103 104 98 2 2
-0.314457 -0.294550 -0.368602 86 82 64 5 5
-0.007029 0.246776 -0.796324 105 111 101 2 2
-0.673149 0.134004 -0.477741 18 30 24 7 7
-0.599506 -0.018684 -0.744874 69 68 65 7 7
-0.595189 -0.004872 -0.763752 70 69 74 7 7
-0.600664 0.005833 -0.755339 65 69 72 7 7
-0.591996 -0.022549 -0.761357 57 61 64 7 7
-0.638479 0.114067 -0.607559 33 35 34 7 7
-0.647844 0.115523 -0.612099 35 32 28 7 7
-0.640551 0.115413 -0.591570 28 31 36 7 7
-0.104625 0.310170 -0.366250 201 176 185 5 4
-0.609864 0.064081 -0.733931 65 65 67 7 7
-0.608807 0.046568 -0.736267 66 62 68 7 7
-0.596457 0.065889 -0.746114 66 68 74 7 7
-0.191041 0.467171 -0.794394 211 219 219 2 2
-0.216608 0.475013 -0.795739 212 217 216 2 2
-0.959086 0.169469 -0.429703 51 49 57 5 3
-0.996301 0.130693 -0.334685 95 91 71 5 3
-0.969653 0.141659 -0.333626 100 87 54 5 3
-0.976410 0.145354 -0.360991 92 88 66 5 3
-0.859378 0.102201 -0.333182 95 84 61 5 3
-0.865985 0.131299 -0.332587 97 84 67 5 3
-0.835940 0.124665 -0.332535 95 84 63 5 3
-0.211635 -0.280575 -0.322005 72 72 79 5 5
-0.941795 -0.228488 -0.435104 81 73 74 5 3
-0.754930 -0.238290 -0.809583 90 75 82 2 2
-0.771613 -0.223881 -0.805382 71 54 51 2 2
-0.772035 -0.209761 -0.806051 38 49 49 2 2
-0.798897 -0.011041 -0.808684 91 82 77 2 2
-0.816192 0.156258 -0.439181 63 72 70 5 3
-0.805291 0.158589 -0.430829 104 99 87 5 3
-0.819024 0.166162 -0.433423 91 93 82 5 3
-0.079305 -0.068830 -0.800947 91 85 79 2 2
-0.167113 0.607277 -0.790734 236 243 238 2 2
-0.208171 0.599130 -0.789804 237 243 237 2 2
-0.907014 -0.225311 -0.329516 100 87 71 5 3
-0.899839 -0.227463 -0.331318 93 84 71 5 3
-1.061258 -0.145733 -0.343455 125 115 98 5 3
0.002841 0.604852 -0.785941 227 227 229 2 2
0.012098 0.560039 -0.786363 138 142 139 2 2
-0.000244 0.570214 -0.786771 131 134 133 2 2
-0.025663 0.566249 -0.789400 235 238 235 2 2
-0.718302 -0.123325 -0.811132 84 80 70 2 2
-0.124340 0.185872 -0.801020 109 117 111 2 2
-0.457577 0.619318 -0.787366 218 224 218 2 2
-0.446084 0.617750 -0.790179 203 214 210 2 2
-0.468389 0.599094 -0.789337 222 226 222 2 2
-0.695427 0.234878 -0.805571 93 75 60 2 2
-0.710556 0.242719 -0.805084 85 83 76 2 2
-0.709948 0.259634 -0.806549 94 83 71 2 2
-0.688448 0.257212 -0.806873 91 73 66 2 2
-0.472563 0.443165 -0.801537 177 184 176 2 2
-0.464774 0.459707 -0.798467 177 187 175 2 2
-0.725559 0.083903 -0.810298 75 53 44 2 2
-0.709497 0.072573 -0.812796 73 58 34 2 2
-0.610822 0.207016 -0.668323 90 84 72 7 7
-0.245200 -0.159303 -0.807951 105 97 99 2 2
-0.259082 -0.180829 -0.807423 104 107 99 2 2
-0.532482 -0.183926 -0.807278 92 79 78 2 2
-0.555010 -0.173740 -0.800858 92 78 81 2 2
-0.519269 -0.178609 -0.809096 91 81 78 2 2
-0.241684 0.532502 -0.792681 224 237 229 2 2
-0.979943 -0.232582 -0.424486 73 79 68 5 3
-0.990209 -0.240882 -0.400035 83 84 73 5 3
-0.996260 -0.239951 -0.410188 68 65 71 5 3
-0.982265 -0.242232 -0.408237 76 69 72 5 3
-1.006312 -0.230975 -0.392951 85 81 59 5 3
-0.639127 0.248911 -0.315955 60 65 69 7 7
-0.078535 0.335949 -0.362967 252 253 254 5 4
-0.091396 0.319993 -0.363185 249 250 252 5 4
-0.077782 0.322039 -0.360661 236 224 233 5 4
-0.084985 -0.193997 -0.800281 127 128 124 2 2
-0.610028 0.175256 -0.483760 94 99 103 7 7
-0.613144 0.174307 -0.496246 145 149 150 7 7
-0.618268 0.160522 -0.489798 157 162 160 7 7
-0.674105 -0.168073 -0.810791 86 71 70 2 2
-0.650752 -0.187836 -0.804502 68 72 66 2 2
-0.644352 -0.172075 -0.803115 79 71 55 2 2
-0.657690 -0.162631 -0.807371 74 68 59 2 2
-0.174995 -0.356408 -0.718799 64 65 71 5 5
-0.163946 -0.376120 -0.701642 49 54 60 5 5
-0.190178 -0.356416 -0.702599 44 56 63 5 5
-0.180349 -0.388424 -0.712966 80 86 93 5 5
-0.181340 -0.372373 -0.712313 78 82 83 5 5
-0.180649 -0.364128 -0.693597 49 50 59 5 5
-0.164703 -0.389688 -0.699306 62 66 72 5 5
-0.831116 -0.230965 -0.330183 83 70 53 5 3
-0.831490 -0.242850 -0.331914 67 67 47 5 3
-0.434863 -0.341726 -0.360297 95 93 90 5 5
-0.104460 -0.265968 -0.788907 51 55 65 2 2
-0.098220 -0.251500 -0.789012 62 61 77 2 2
-0.647950 -0.163586 -0.778956 49 50 58 7 7
-0.644002 -0.146042 -0.775059 47 48 46 7 7
-0.641126 -0.157194 -0.791798 48 47 54 7 7
-0.645608 -0.156777 -0.802644 61 62 65 2 2
-0.637756 -0.138539 -0.790050 63 63 66 7 7
-0.147452 -0.357420 -0.798621 178 185 184 2 2
-0.138338 -0.337931 -0.799972 161 167 159 2 2
-0.123459 -0.338433 -0.798851 160 166 160 2 2
-0.757277 -0.011555 -0.811346 83 83 76 2 2
-0.781311 -0.018056 -0.810674 93 81 74 2 2
-0.402670 0.178495 -0.359138 126 92 89 5 4
-0.437269 0.187513 -0.356354 124 92 96 5 4
-0.425301 0.196436 -0.358523 123 89 89 5 4
-0.243499 0.247934 -0.802010 155 169 170 2 2
-0.239497 0.270185 -0.797917 146 150 144 2 2
-0.407710 0.015374 -0.804399 102 99 92 2 2
-0.421098 0.034601 -0.802666 64 63 51 2 2
-0.821024 0.029177 -0.333095 78 79 51 5 3
-0.847070 0.015336 -0.332537 86 72 64 5 3
-0.823915 0.016663 -0.332719 83 75 60 5 3
-0.452254 -0.190992 -0.810061 89 85 79 2 2
-0.016228 0.366612 -0.368415 84 80 78 5 4
-0.024653 0.347779 -0.374857 157 158 163 5 4
-0.059461 0.354913 -0.365645 196 192 194 5 4
-0.036201 0.360532 -0.365031 83 80 76 5 4
-0.816389 0.180069 -0.364071 119 113 105 5 3
-0.815176 0.176206 -0.386366 105 99 96 5 3
-0.803843 0.170676 -0.401655 107 104 95 5 3
-0.802311 0.166839 -0.389100 111 105 98 5 3
-0.804031 0.163428 -0.370605 105 100 89 5 3
-0.802103 0.171699 -0.363419 105 100 89 5 3
-0.882658 -0.159287 -0.331941 86 77 67 5 3
-0.536514 0.566418 -0.793598 179 187 183 2 2
-0.513836 0.579521 -0.792448 191 203 197 2 2
-0.030953 0.165530 -0.345947 88 85 89 5 4
-0.043412 0.158594 -0.344191 103 84 92 5 4
-0.029824 0.148841 -0.347405 104 97 100 5 4
-0.017848 0.160371 -0.350626 88 81 85 5 4
-0.796671 -0.154421 -0.361941 83 72 58 0 0
-0.794438 -0.146370 -0.352531 79 67 63 0 0
-0.454133 0.216751 -0.804737 110 108 104 2 2
-0.804866 -0.126612 -0.340551 70 71 60 5 3
-0.331126 0.024464 -0.367250 92 81 83 5 4
-0.345087 0.007387 -0.376253 173 175 172 5 4
-0.334332 0.004065 -0.381904 164 167 162 5 4
-0.353297 0.021943 -0.373494 137 131 129 5 4
-0.349491 0.013435 -0.383547 168 173 172 5 4
-0.336972 0.015990 -0.374232 174 174 168 5 4
-0.332057 0.007254 -0.376727 184 187 182 5 4
-0.334112 0.011878 -0.388567 166 170 167 5 4
-0.209197 0.051129 -0.357290 69 54 67 5 4
-0.197203 0.067972 -0.356911 72 58 71 5 4
-0.562586 -0.154122 -0.801051 72 73 72 2 2
-0.569485 -0.168802 -0.799968 56 62 53 2 2
-0.572408 -0.154964 -0.799317 55 56 60 2 2
-0.419073 0.194035 -0.395865 206 207 209 5 4
-0.252964 -0.238450 -0.806915 84 92 88 2 2
-0.670354 0.131757 -0.653641 37 42 51 7 7
-0.673108 0.164100 -0.576473 54 56 58 7 7
-0.670931 0.134839 -0.558775 60 58 62 7 7
-0.673847 0.143245 -0.570915 44 53 50 7 7
-0.851500 0.168558 -0.425551 53 51 50 5 3
-0.840472 0.168309 -0.437288 46 51 50 5 3
-0.831868 0.164928 -0.444217 57 57 61 5 3
-0.358732 0.500976 -0.792023 209 216 209 2 2
-0.370940 0.468404 -0.797409 212 216 211 2 2
-0.345297 0.483583 -0.795425 191 198 193 2 2
-0.368389 0.488256 -0.793717 181 189 191 2 2
-0.390497 0.490242 -0.794371 212 216 211 2 2
-0.664330 0.246714 -0.508018 135 141 136 7 7
-0.657642 0.247554 -0.506973 52 58 55 7 7
-0.639073 0.252504 -0.514329 53 58 62 7 7
-0.667209 0.236245 -0.519224 125 126 126 7 7
-0.491210 0.036405 -0.810777 84 83 72 2 2
-0.672363 0.212838 -0.636674 73 76 62 7 7
-0.665356 0.235955 -0.666854 71 70 66 7 7
-0.666200 0.235687 -0.657164 78 72 73 7 7
-0.110035 0.217137 -0.799506 120 120 117 2 2
-0.102622 0.237055 -0.798742 109 105 103 2 2
-0.380377 0.137881 -0.413901 85 84 87 5 4
-0.398134 0.133934 -0.400627 207 210 204 5 4
-0.890924 0.223946 -0.348934 152 151 139 5 3
-0.858067 0.222131 -0.343045 178 183 166 5 3
-0.860821 0.204065 -0.332445 130 126 118 5 3
-0.881609 0.214284 -0.355454 106 95 79 5 3
-0.861100 0.221838 -0.353763 95 91 74 5 3
-0.849965 0.226169 -0.348433 177 177 160 5 3
-0.875648 0.192965 -0.355984 95 88 69 5 3
-0.083695 0.516619 -0.792355 189 194 188 2 2
-0.066554 0.504502 -0.791829 213 218 216 2 2
-0.100352 0.428727 -0.384553 255 252 253 5 4
-0.090372 0.421276 -0.371712 222 206 214 5 4
-0.079940 0.422990 -0.375909 180 179 187 5 4
-0.095840 0.413311 -0.369537 225 219 226 5 4
-0.080446 0.412295 -0.369185 192 184 190 5 4
-0.086520 0.432318 -0.380127 249 244 247 5 4
-0.604280 -0.145508 -0.763589 67 53 55 7 7
-0.599514 -0.131411 -0.774857 53 59 52 7 7
-0.343789 -0.293565 -0.808414 115 116 116 2 2
-0.353438 -0.272560 -0.809997 121 119 118 2 2
-0.549186 -0.123531 -0.806536 81 79 75 2 2
-0.532900 -0.077503 -0.811497 95 89 80 2 2
-0.574332 -0.097908 -0.801987 79 79 75 2 2
-0.558679 -0.084759 -0.805829 79 74 72 2 2
-0.666438 0.260479 -0.804485 72 72 63 2 2
-0.650898 0.227820 -0.805486 67 61 60 2 2
-0.658768 0.276736 -0.803044 76 66 62 2 2
-0.337542 -0.368443 -0.310743 47 56 51 5 5
-0.292806 -0.352817 -0.309466 48 56 61 5 5
-0.050678 0.232183 -0.349179 183 169 170 5 4
-0.037759 0.217659 -0.350751 147 94 91 5 4
-0.051529 0.218831 -0.348680 130 96 89 5 4
-0.610923 0.221101 -0.513858 87 83 76 7 7
-0.878192 0.207771 -0.336065 160 155 142 5 3
-0.903304 0.229459 -0.347932 161 157 145 5 3
-0.896391 0.219479 -0.343623 164 158 145 5 3
-0.908017 0.239247 -0.346712 108 90 77 5 3
-0.891495 0.219839 -0.353373 173 167 154 5 3
-0.893507 0.197447 -0.358067 98 91 70 5 3
-0.901314 0.227770 -0.352552 155 149 136 5 3
-0.898978 0.206068 -0.335013 185 182 165 5 3
-0.312325 -0.341920 -0.421447 175 179 177 5 5
-0.299432 -0.352556 -0.426791 173 177 177 5 5
-0.603064 0.301159 -0.783018 66 62 58 2 2
-0.250652 0.442422 -0.435693 145 142 137 5 4
-0.813664 0.053850 -0.336132 99 86 70 5 3
-0.803193 0.057948 -0.341394 76 81 59 5 3
-0.830673 0.058744 -0.333368 88 80 64 5 3
-0.390164 0.402173 -0.381939 242 183 167 5 4
-0.389071 0.398266 -0.376253 242 185 165 5 4
-0.638992 0.262788 -0.407031 65 74 75 7 7
-0.622285 0.251362 -0.409230 109 104 94 7 7
-0.631950 0.260786 -0.408987 98 93 89 7 7
-0.635031 0.255036 -0.410105 79 75 81 7 7
-0.641691 0.250851 -0.404880 61 67 73 7 7
-0.625172 0.256204 -0.422152 66 68 72 7 7
-0.632590 0.257413 -0.421016 65 68 71 7 7
-0.620561 0.250493 -0.431045 102 100 97 7 7
-0.662678 0.243344 -0.630837 53 56 68 7 7
-0.655600 0.249488 -0.646009 64 56 72 7 7
-0.230203 0.053764 -0.804386 95 102 104 2 2
-0.220018 0.064705 -0.803560 117 112 118 2 2
-0.473449 -0.212530 -0.810028 80 88 84 2 2
-0.669223 0.157717 -0.713653 44 41 37 7 7
-0.671190 0.169606 -0.727322 53 51 52 7 7
-0.300073 0.451747 -0.399206 211 189 199 5 4
-0.296682 0.453299 -0.376468 172 170 193 5 4
-0.295566 0.463482 -0.395199 188 160 162 5 4
-0.297217 0.432821 -0.395894 254 253 255 5 4
-0.468352 0.109725 -0.807174 103 99 100 2 2
-0.486683 0.133494 -0.806521 95 98 85 2 2
-0.600914 0.053559 -0.749072 72 68 46 7 7
-0.601926 0.031483 -0.768910 65 59 61 7 7
-0.605525 0.059785 -0.775441 52 55 48 7 7
-0.602274 0.040036 -0.764820 61 60 51 7 7
-0.606118 0.049026 -0.767930 65 57 62 7 7
-0.582490 0.458399 -0.796413 152 160 145 2 2
-0.224173 -0.276997 -0.801528 42 41 51 2 2
-0.213922 -0.280535 -0.790385 45 43 45 2 2
-0.234863 -0.272120 -0.805407 69 66 55 2 2
-0.167306 -0.247123 -0.356531 79 87 92 5 5
-0.164110 -0.250910 -0.367130 74 98 89 5 5
-0.155506 -0.239440 -0.352854 63 75 74 5 5
-0.145951 -0.240227 -0.353379 61 82 70 5 5
-0.651183 0.118345 -0.585146 22 33 28 7 7
-0.655578 0.120227 -0.568656 28 30 29 7 7
-0.665344 0.126853 -0.559499 31 27 31 7 7
-0.641878 0.115348 -0.554950 25 40 33 7 7
-0.175913 0.198215 -0.799898 144 148 144 2 2
-0.205241 0.210349 -0.800016 154 159 154 2 2
-0.403638 -0.341340 -0.806427 123 122 123 2 2
-0.390931 -0.350961 -0.804449 130 130 129 2 2
-0.373222 0.285423 -0.801314 161 163 160 2 2
-0.379801 0.257004 -0.802437 135 133 135 2 2
-0.322821 -0.068233 -0.807250 99 98 87 2 2
-0.263072 0.447255 -0.428277 190 178 179 5 4
-0.885291 0.159388 -0.399528 97 94 78 5 3
-0.866175 0.163154 -0.380401 107 98 86 5 3
-0.879872 0.161942 -0.371514 106 91 82 5 3
-0.790837 -0.178129 -0.400856 89 77 68 0 0
-0.803273 -0.198166 -0.410625 78 72 49 0 0
-0.520270 -0.148777 -0.808649 89 76 64 2 2
-0.794431 -0.188592 -0.376373 79 63 43 0 0
-0.796801 -0.177090 -0.368154 78 79 53 0 0
-0.792217 -0.182092 -0.392813 93 80 65 0 0
-0.658473 -0.205297 -0.808912 72 68 70 2 2
-0.662955 -0.180586 -0.810491 80 75 72 2 2
-0.063829 0.246658 -0.351605 250 251 253 5 4
-0.092750 0.269360 -0.357221 250 250 252 5 4
-0.090074 0.244385 -0.357607 225 219 229 5 4
-0.935774 0.141419 -0.332868 97 94 68 5 3
-0.959672 0.139618 -0.364118 107 99 88 5 3
-0.679128 0.182453 -0.405597 77 82 84 7 7
-0.620975 -0.074833 -0.731054 80 78 82 7 7
-0.621051 -0.102438 -0.735769 71 81 70 7 7
-0.803313 -0.266573 -0.395401 61 49 34 5 3
-0.811198 -0.269433 -0.374148 65 56 47 5 3
-0.826272 -0.269507 -0.377971 65 57 31 5 3
-0.806231 -0.265850 -0.372154 83 73 56 5 3
-0.808470 -0.263784 -0.377111 79 71 49 5 3
-0.669092 0.233671 -0.729228 59 65 60 7 7
-0.667957 0.201389 -0.735295 67 63 60 7 7
-0.669304 0.219294 -0.733552 71 66 63 7 7
-0.670121 0.214615 -0.716162 72 58 53 7 7
-0.662400 0.210679 -0.752188 72 64 54 7 7
-0.662244 -0.176981 -0.746218 50 56 62 7 7
-0.657090 -0.197048 -0.744210 61 56 67 7 7
-0.648506 -0.222550 -0.746642 48 53 64 7 7
-0.181497 0.059137 -0.803176 118 114 110 2 2
-0.166887 0.044564 -0.803413 119 107 94 2 2
-0.196674 0.048602 -0.803885 111 114 103 2 2
-0.663711 0.255136 -0.429182 79 77 80 7 7
-0.670848 0.243329 -0.397054 72 75 81 7 7
-0.667573 0.252157 -0.402404 76 77 77 7 7
-0.659197 0.257951 -0.422580 70 71 75 7 7
-0.665144 0.250900 -0.393702 75 80 77 7 7
-0.657945 0.254064 -0.402359 68 70 72 7 7
-0.669578 0.247912 -0.421551 73 74 80 7 7
-0.983620 -0.181101 -0.338914 107 107 87 5 3
-0.671565 -0.077949 -0.810804 74 73 72 2 2
-0.412502 0.432561 -0.800739 178 179 178 2 2
-0.451974 0.410398 -0.802685 173 178 173 2 2
-0.160646 -0.383287 -0.800438 153 161 159 2 2
-0.138129 -0.374997 -0.798753 143 143 146 2 2
-0.819950 -0.048971 -0.334163 78 78 60 5 3
-0.805648 -0.041101 -0.338272 75 73 56 5 3
-0.582586 0.540381 -0.795064 203 207 203 2 2
-0.421134 0.057201 -0.368817 244 249 247 5 4
-0.430777 0.078998 -0.374881 191 193 197 5 4
-0.425274 0.060544 -0.374193 231 237 234 5 4
-0.430145 0.061598 -0.367439 185 187 188 5 4
-0.426597 0.068882 -0.377913 231 237 234 5 4
-0.798865 -0.194044 -0.361034 73 70 58 0 0
-0.793937 -0.192627 -0.351438 70 66 58 0 0
-0.794158 -0.197427 -0.348932 71 75 48 5 3
-0.786643 -0.197514 -0.350166 71 75 48 0 0
-0.804236 -0.180202 -0.340781 68 62 51 5 3
-0.800162 -0.159365 -0.344433 84 78 66 5 3
-0.796061 -0.169050 -0.359213 82 76 69 0 0
-0.792397 -0.178786 -0.351057 91 74 61 0 0
-0.462194 0.257412 -0.373886 228 231 232 5 4
-0.458100 0.233205 -0.372409 219 220 223 5 4
-0.452312 0.266753 -0.364489 159 134 130 5 4
-0.409026 0.340907 -0.370100 219 153 138 5 4
-0.441942 0.338757 -0.368204 235 183 174 5 4
-0.428477 0.344929 -0.365643 233 177 167 5 4
-0.429416 0.363191 -0.368862 238 190 183 5 4
-0.400131 0.086074 -0.386181 224 228 229 5 4
-0.384017 0.096848 -0.395554 226 231 230 5 4
-0.412692 0.070191 -0.374569 233 237 239 5 4
-0.415756 0.097084 -0.385823 190 192 197 5 4
-0.522061 0.117562 -0.804543 98 101 95 2 2
-0.492315 0.116376 -0.807127 92 106 96 2 2
-0.537374 0.144158 -0.806797 104 102 95 2 2
-1.048574 -0.054270 -0.342448 110 105 79 5 3
-0.452738 0.295403 -0.365183 184 125 112 5 4
-0.408374 0.303990 -0.366547 187 139 115 5 4
-0.674141 0.137685 -0.344471 68 60 64 7 7
-0.375971 0.201311 -0.803413 127 133 126 2 2
-0.374003 0.227039 -0.804365 148 154 147 2 2
-0.217614 0.433322 -0.312922 145 145 143 5 4
-0.216285 0.440640 -0.307031 146 145 143 5 4
-0.203043 0.432322 -0.312635 146 145 143 5 4
-0.235505 0.449493 -0.306738 185 180 181 5 4
-0.264995 0.530409 -0.792760 222 227 220 2 2
-0.676323 0.143791 -0.360366 61 74 73 7 7
-0.680791 0.156764 -0.342918 80 75 71 7 7
-0.679118 0.156891 -0.323099 78 84 81 7 7
-0.680766 0.170645 -0.367045 84 90 90 7 7
-0.988339 0.159239 -0.359706 93 94 63 5 3
-0.972165 0.165200 -0.333956 128 125 112 5 3
-0.574472 0.260705 -0.809632 95 96 83 2 2
-0.566364 0.253925 -0.807309 90 90 79 2 2
-0.572717 0.269636 -0.806366 96 102 89 2 2
-0.564100 0.281963 -0.805736 100 105 91 2 2
-0.532200 0.457005 -0.798137 174 187 177 2 2
-0.544543 0.480061 -0.794881 177 180 176 2 2
-0.906080 0.167224 -0.397468 96 65 62 5 3
-0.901496 0.157893 -0.393952 99 70 61 5 3
-0.897163 0.158894 -0.386224 106 80 76 5 3
-0.887416 0.158330 -0.366878 97 82 70 5 3
-0.855363 0.165118 -0.365067 120 106 89 5 3
-0.918242 0.182385 -0.414832 100 67 65 5 3
-0.900482 0.178481 -0.401776 96 69 72 5 3
-0.909168 0.173491 -0.412102 101 73 68 5 3
-0.917804 0.189473 -0.400229 92 64 59 5 3
-0.480428 0.166458 -0.808403 110 108 102 2 2
-0.433460 0.208217 -0.803131 102 112 100 2 2
-0.212079 0.014624 -0.368679 104 104 100 5 4
-0.201146 0.253512 -0.375609 218 190 191 5 4
-0.235636 0.263547 -0.378192 220 192 188 5 4
-0.901901 0.166442 -0.331837 96 82 68 5 3
-0.895388 0.195663 -0.330109 131 121 104 5 3
-0.908319 0.202013 -0.332633 184 182 167 5 3
-0.993906 -0.048532 -0.340332 102 82 63 5 3
-1.007554 -0.067583 -0.340261 89 81 63 5 3
-0.767761 0.026296 -0.810432 79 62 53 2 2
-0.769939 0.042577 -0.810532 87 73 48 2 2
-0.276829 -0.030260 -0.807088 88 91 96 2 2
-0.245667 -0.022227 -0.807598 95 96 87 2 2
-0.074879 0.045576 -0.356163 109 117 123 5 4
-0.080082 0.038440 -0.358138 94 100 105 5 4
-0.351287 0.216582 -0.367600 148 111 103 5 4
-0.601849 0.230504 -0.367165 123 127 121 7 7
-0.603114 0.236189 -0.351281 115 117 119 7 7
-0.620907 0.244090 -0.327698 68 74 73 7 7
-0.616411 0.248136 -0.357407 111 112 114 7 7
-0.609669 0.243917 -0.340599 94 101 99 7 7
-0.222267 0.465678 -0.341173 112 104 107 5 4
-0.217824 0.470075 -0.356406 150 152 160 5 4
-0.209828 0.463254 -0.356023 133 135 133 5 4
-0.221675 0.471821 -0.343082 148 151 150 5 4
-0.205626 0.467085 -0.345064 141 144 146 5 4
-0.651598 0.125729 -0.762194 42 49 40 7 7
-0.664719 0.121488 -0.742452 50 57 48 7 7
-0.662268 0.133724 -0.750596 65 61 56 7 7
-0.471204 -0.145429 -0.809467 97 94 84 2 2
-0.503290 -0.146684 -0.810061 89 91 77 2 2
-0.486808 -0.115399 -0.810078 80 86 77 2 2
-0.506906 -0.107603 -0.811249 84 91 61 2 2
-0.890897 -0.250753 -0.408204 73 68 41 0 0
-0.902145 -0.247466 -0.416759 84 70 54 5 3
-0.919477 -0.234878 -0.430613 80 71 48 5 3
-0.545419 0.135581 -0.804616 93 90 96 2 2
-0.546322 0.120324 -0.804743 98 95 97 2 2
-0.557608 0.151608 -0.804529 94 86 69 2 2
-0.654463 0.249844 -0.570397 54 59 69 7 7
-0.660031 0.246258 -0.559595 47 59 62 7 7
-0.662780 0.245409 -0.579822 51 58 66 7 7
-0.180281 0.339388 -0.797094 153 161 159 2 2
-0.153486 0.357817 -0.798845 161 169 165 2 2
-0.792247 -0.119600 -0.392561 102 84 71 0 0
-0.791846 -0.125137 -0.386319 91 80 67 0 0
-0.346134 -0.345150 -0.326842 74 66 66 5 5
-0.792285 -0.108690 -0.385130 86 78 65 0 0
-0.214857 0.387205 -0.796827 199 202 204 2 2
-0.235593 0.380508 -0.799321 194 200 201 2 2
-0.793221 -0.038769 -0.810661 89 77 76 2 2
-1.070998 -0.176384 -0.336480 108 97 78 5 3
-1.031022 -0.178186 -0.340955 116 121 97 5 3
-1.066412 -0.183337 -0.337121 108 106 81 5 3
-1.045822 -0.173575 -0.342001 120 103 89 5 3
-1.034978 -0.190646 -0.335550 117 111 95 5 3
-0.701193 -0.097102 -0.811761 78 75 74 2 2
-0.694990 0.077996 -0.813115 77 65 47 2 2
-0.427510 -0.107481 -0.810158 101 87 88 2 2
-0.405259 0.170839 -0.806239 92 101 89 2 2
-0.373724 0.168866 -0.803090 109 111 98 2 2
-1.016636 0.065770 -0.337667 110 94 83 5 3
-0.994627 0.075535 -0.336780 107 97 83 5 3
-0.992795 0.054974 -0.337845 93 99 70 5 3
-0.504994 0.019875 -0.815283 92 81 77 2 2
-0.515976 0.033681 -0.811614 85 80 79 2 2
-0.955904 0.182302 -0.416824 96 65 68 5 3
-0.602131 -0.121619 -0.766828 56 62 58 7 7
-0.605713 -0.100416 -0.773871 47 46 46 7 7
-0.691964 0.340915 -0.807135 116 109 96 2 2
-0.711503 0.315763 -0.806619 114 101 95 2 2
-0.188226 0.181939 -0.800578 130 136 132 2 2
-0.889510 0.186272 -0.358326 95 90 64 5 3
-0.901985 0.204684 -0.357565 111 96 90 5 3
-0.909391 0.180113 -0.332896 91 81 67 5 3
-0.895145 0.176726 -0.360417 91 87 78 5 3
-0.165309 0.090209 -0.802806 106 124 112 2 2
-0.169053 0.068300 -0.802511 101 117 114 2 2
-0.052019 0.013695 -0.798209 59 67 58 2 2
-0.035881 -0.016419 -0.799117 63 61 42 2 2
-0.066335 -0.050444 -0.801045 71 67 66 2 2
-0.056487 -0.064161 -0.800942 79 83 66 2 2
-0.203028 -0.321750 -0.797551 59 62 68 2 2
-0.184710 -0.318907 -0.790687 75 82 80 2 2
-0.212075 -0.308780 -0.794753 39 43 45 2 2
-0.677757 0.147054 -0.469618 60 54 52 7 7
-0.379101 -0.289999 -0.809120 106 104 100 2 2
-0.191105 0.140698 -0.800545 103 104 100 2 2
-0.816378 -0.240107 -0.356585 62 53 40 0 0
-0.809251 -0.228327 -0.357085 66 50 35 0 0
-0.803639 -0.224650 -0.348493 56 51 43 0 0
-0.813773 -0.245490 -0.347651 60 49 37 0 0
-0.818278 -0.240913 -0.337855 73 59 53 5 3
-0.540366 -0.034190 -0.807718 96 92 85 2 2
-0.548729 -0.066619 -0.808371 91 86 79 2 2
-0.557328 -0.061118 -0.808889 86 80 70 2 2
-0.667935 0.169726 -0.741701 65 57 58 7 7
-0.806118 -0.004490 -0.338810 81 76 57 5 3
-0.796143 0.019180 -0.349074 107 103 92 5 3
-0.792086 -0.001105 -0.356081 122 113 99 5 3
-0.800226 -0.001245 -0.342990 82 74 57 5 3
-0.805592 0.014371 -0.338325 76 73 46 5 3
-1.012832 -0.085053 -0.337958 98 99 73 5 3
-1.007013 -0.106331 -0.344478 109 102 79 5 3
-1.015851 -0.089953 -0.344282 98 91 79 5 3
-0.896012 0.104200 -0.333969 95 88 67 5 3
-0.898034 0.123517 -0.333404 96 85 72 5 3
-0.625127 0.132914 -0.466062 48 53 38 7 7
-0.630968 0.127024 -0.457982 29 31 23 7 7
-0.468562 0.264219 -0.803078 123 120 108 2 2
-0.472090 0.254737 -0.804152 108 112 103 2 2
-0.458361 0.245616 -0.805466 109 112 109 2 2
-0.205623 0.112224 -0.802229 122 131 124 2 2
-0.149102 -0.329271 -0.734475 67 71 76 5 5
-0.162599 -0.347130 -0.728507 62 64 68 5 5
-0.153184 -0.346505 -0.734347 68 70 76 5 5
-0.161440 -0.329593 -0.727986 77 82 85 5 5
-0.119614 0.098598 -0.356514 240 252 254 5 4
-0.098948 0.093314 -0.354664 204 207 219 5 4
-0.095463 0.112820 -0.355401 222 229 246 5 4
-0.357250 0.398477 -0.401713 221 208 213 5 4
-0.342377 0.400078 -0.405139 213 202 206 5 4
-0.603970 0.460920 -0.796685 171 166 160 2 2
-0.606661 0.440728 -0.800816 152 149 145 2 2
-0.616838 0.241106 -0.532665 66 73 77 7 7
-0.618046 0.243264 -0.490125 66 74 74 7 7
-0.631409 0.252585 -0.516519 60 64 69 7 7
-0.596822 -0.058906 -0.760904 74 82 94 7 7
-0.672034 0.219268 -0.534503 73 79 68 7 7
-0.670417 0.199810 -0.544422 43 49 58 7 7
-0.670502 0.215347 -0.545234 56 62 62 7 7
-0.663556 0.083610 -0.811305 75 71 71 2 2
-0.640409 0.091267 -0.808877 77 74 72 2 2
-0.666049 0.094285 -0.810762 88 79 84 2 2
-0.128882 0.603824 -0.788987 245 253 247 2 2
-0.376468 0.076372 -0.805104 97 95 96 2 2
-0.351306 0.085943 -0.805761 96 103 95 2 2
-0.389766 0.079723 -0.803981 102 105 100 2 2
-0.363428 0.063988 -0.804522 105 105 106 2 2
-0.673401 0.160605 -0.596025 45 50 56 7 7
-0.673032 0.146205 -0.590094 42 50 48 7 7
-0.672854 0.146303 -0.613938 42 54 55 7 7
-0.637547 0.111832 -0.780698 61 53 58 7 7
-0.631212 0.101428 -0.798291 67 64 67 7 7
-0.632185 0.104393 -0.804814 83 83 76 7 7
-0.636661 0.094679 -0.785139 74 68 73 7 7
-0.202695 0.256763 -0.802504 165 173 170 2 2
-0.219946 0.274384 -0.802197 188 192 185 2 2
-0.103397 0.193184 -0.799805 112 114 101 2 2
-0.070990 0.204519 -0.799338 104 104 99 2 2
-0.678546 0.218819 -0.403384 73 81 82 7 7
-0.680761 0.208173 -0.433428 70 86 87 7 7
-0.677249 0.229659 -0.413002 75 77 83 7 7
-0.676393 0.230493 -0.425244 79 88 86 7 7
-0.737636 -0.065515 -0.811450 76 76 68 2 2
-0.052479 0.313279 -0.797491 123 117 111 2 2
-0.383687 -0.327518 -0.350071 96 89 83 5 5
-0.368409 -0.324656 -0.346544 94 79 81 5 5
-0.618715 0.144907 -0.474743 73 77 75 7 7
-0.617714 0.158188 -0.474812 169 175 173 7 7
-0.001152 0.425479 -0.791712 214 220 213 2 2
0.014747 0.437599 -0.790326 211 217 211 2 2
-0.186828 0.234660 -0.374256 147 112 114 5 4
-0.615909 0.168212 -0.463223 182 182 185 7 7
-0.282518 -0.358399 -0.305247 32 46 48 5 5
-0.734623 0.111203 -0.809148 75 64 43 2 2
-0.716283 0.099288 -0.809438 76 65 55 2 2
-0.532197 0.551595 -0.794220 177 181 180 2 2
-0.515447 0.563159 -0.792593 209 216 210 2 2
-0.841969 -0.281176 -0.344082 63 65 49 5 3
-0.846864 -0.280350 -0.342234 81 78 52 5 3
-0.823444 -0.258735 -0.347482 64 59 40 0 0
