ply
format ascii 1.0
element vertex 1090
property float x
property float y
property float z
property uchar red
property uchar green
property uchar blue
property uchar semantic_label
property uchar instance_label
end_header
1.072778 0.298421 0.428740 204 255 254 9 14
1.071131 0.267932 0.401076 194 254 253 9 14
1.070615 0.297114 0.413633 201 254 254 9 14
0.689236 0.838142 0.744537 120 73 55 3 5
0.686092 0.828906 0.712927 123 75 45 3 5
0.684781 0.817661 0.729536 128 77 42 3 5
0.688968 0.852157 0.719169 125 77 45 3 5
1.071921 0.462355 0.477201 116 122 143 9 14
1.039738 0.489038 0.475482 188 190 194 9 14
1.057594 0.475042 0.484375 192 194 199 9 14
1.004263 0.271050 1.092221 178 167 137 1 8
0.999725 0.280065 0.940074 195 182 155 9 14
0.992349 0.292134 0.945628 193 182 158 1 8
0.991636 0.272562 0.948741 194 183 156 1 8
0.982737 0.275574 0.962165 194 182 153 1 8
1.004457 0.240601 1.087563 178 166 138 1 8
1.077448 -0.154583 0.894390 104 114 121 9 14
0.691031 0.640873 0.876390 146 91 55 3 5
0.689633 0.642742 0.899366 139 87 54 3 5
0.699328 0.635918 0.357370 127 88 58 3 5
0.716219 0.632291 0.383476 135 117 119 3 5
0.701204 0.635761 0.383837 132 115 121 3 5
0.693197 0.645740 0.390321 134 87 65 3 5
0.697221 0.637885 0.402150 130 88 60 3 5
1.074307 0.036197 0.501058 158 240 247 9 14
1.071764 0.027686 0.510474 150 225 234 9 14
0.999159 0.101248 1.081252 181 172 139 1 8
0.999171 0.092541 1.073191 182 170 140 1 8
0.999746 0.078265 1.105901 182 171 146 1 8
1.000335 0.091109 1.092312 185 170 142 1 8
0.688302 0.805529 0.801164 130 80 45 3 5
0.689317 0.788070 0.796129 133 83 51 3 5
0.687383 0.744119 0.550362 127 81 46 3 5
0.688747 0.756906 0.564779 123 77 52 3 5
0.983407 0.254557 0.962373 194 183 160 9 14
0.999483 0.236667 0.942740 198 183 162 9 14
1.068303 0.290449 0.567887 202 255 252 9 14
1.068237 0.281058 0.532814 198 254 253 9 14
1.068666 0.296687 0.541596 203 254 254 9 14
1.070602 0.396189 0.346041 173 253 254 9 14
1.073626 0.404892 0.353778 182 254 254 9 14
1.071618 0.416650 0.337430 168 251 253 9 14
1.073554 0.420544 0.367618 180 255 253 9 14
1.073736 0.430055 0.342568 154 248 251 9 14
1.076350 0.035223 0.769242 200 253 253 0 0
0.707123 0.632160 0.646069 137 110 115 3 5
0.980243 0.634629 0.306976 146 133 120 1 8
0.983274 0.623305 0.309984 160 134 115 1 8
0.694699 0.636083 0.638596 143 90 59 3 5
0.952062 0.665606 0.328520 132 111 93 3 5
0.979161 0.679135 0.323185 131 112 102 3 5
0.955962 0.677482 0.328062 130 111 97 3 5
0.978634 0.661323 0.323870 131 112 98 3 5
1.066311 0.267738 0.535310 211 254 255 9 14
1.071730 0.238328 0.548931 255 254 255 9 14
1.069300 0.248748 0.537360 217 254 254 9 14
1.072633 0.249800 0.526781 231 254 255 9 14
1.068546 0.262000 0.550670 229 253 254 9 14
1.073654 0.248056 0.558135 248 255 255 9 14
1.004091 0.254853 1.107220 183 163 138 1 8
1.006243 0.232568 1.113907 181 166 139 1 8
1.006999 0.243700 1.123719 180 165 138 1 8
0.993883 0.520356 0.409235 229 224 209 9 14
0.980695 0.531698 0.426399 233 224 196 1 8
1.068259 0.269835 0.594007 205 255 254 9 14
1.071130 0.291514 0.604170 196 255 254 9 14
1.071159 0.268724 0.604571 214 254 253 9 14
1.070269 0.273982 0.616082 210 254 253 9 14
1.069651 0.291858 0.594527 197 254 253 9 14
1.007255 0.225862 1.094692 182 169 140 1 8
1.006351 0.213319 1.068011 182 166 144 1 8
0.694475 0.816295 1.019850 105 68 42 3 5
0.955397 0.618167 1.037389 116 90 68 3 5
0.960283 0.617637 1.024458 117 91 64 3 5
0.980809 0.596260 0.561243 224 207 175 1 8
0.984306 0.456240 0.949723 185 171 142 1 8
0.985687 0.478326 0.950432 184 173 146 1 8
1.079195 0.174837 0.867280 91 104 124 9 14
1.077834 0.180084 0.849549 100 119 152 9 14
1.076833 0.201255 0.861219 86 97 111 9 14
1.079539 0.187507 0.874436 86 97 111 9 14
1.077133 0.201993 0.847455 96 109 137 9 14
1.034759 -0.012024 0.474200 232 224 203 9 14
1.070307 0.357778 0.678655 195 254 255 9 14
1.069530 0.385098 0.667577 222 253 254 9 14
1.068931 0.384260 0.688560 203 255 252 9 14
1.069067 0.355307 0.668712 198 255 253 9 14
1.071327 0.366589 0.673799 198 255 253 9 14
1.058594 0.471790 0.679442 143 147 154 9 14
1.070368 0.461413 0.685343 117 136 176 9 14
1.069936 -0.122908 0.459959 110 167 186 9 14
1.067515 -0.118581 0.474416 101 160 182 9 14
1.073931 -0.144402 0.479768 103 159 185 9 14
1.070293 -0.124909 0.492242 107 178 203 9 14
0.865272 0.625079 0.487337 152 126 102 3 5
1.064982 -0.113273 0.527372 127 125 128 9 14
1.062402 -0.110030 0.556331 123 122 120 9 14
1.051955 -0.098003 0.549519 200 201 197 9 14
1.074002 0.035928 0.742333 199 254 254 9 14
1.046460 -0.004239 0.639619 202 194 177 9 14
1.062083 0.007117 0.645999 129 131 128 9 14
0.998796 0.056215 1.100735 184 168 142 1 8
1.001460 0.061992 1.116022 183 171 145 1 8
0.999835 0.054462 1.144899 184 171 143 1 8
1.020511 0.501512 0.838601 192 184 164 9 14
1.074266 0.425185 0.485943 188 254 252 9 14
1.076944 0.172554 0.524546 185 253 253 9 14
1.076939 0.150382 0.506343 177 253 253 9 14
0.995262 0.519206 0.609863 226 225 219 9 14
1.017802 0.506035 0.635400 224 226 226 9 14
1.006829 0.512803 0.592096 226 225 228 9 14
1.030678 0.463505 0.914529 146 140 124 1 8
1.026552 0.491561 0.904655 148 140 126 9 14
1.021100 0.477375 0.922718 165 153 137 1 8
0.978182 0.593985 0.674221 207 191 162 1 8
1.067123 0.308710 0.679593 160 223 252 9 14
1.070727 0.326955 0.665099 175 238 253 9 14
1.069247 0.316109 0.654058 184 248 253 9 14
0.981928 0.609486 0.777337 156 134 113 1 8
0.981604 0.613540 0.775295 134 110 85 3 5
0.695718 0.810976 1.000879 111 66 46 3 5
0.916603 0.619740 0.976337 121 95 73 3 5
0.933106 0.619646 0.968014 119 94 74 3 5
1.067606 0.417023 0.801255 162 219 251 9 14
1.066477 0.398849 0.792768 157 224 252 9 14
1.069702 0.425321 0.815904 144 198 247 9 14
1.064337 0.405227 0.785689 163 226 251 9 14
1.065763 0.011450 0.618238 125 131 139 9 14
1.072023 0.021363 0.593676 123 171 186 9 14
0.976060 0.594536 0.861337 140 120 100 1 8
0.979677 0.613504 0.859810 119 94 74 1 8
0.980254 0.609500 0.855337 123 99 81 1 8
0.980035 0.607502 0.876837 134 111 89 1 8
1.069166 -0.123574 0.451000 91 145 167 9 14
0.999364 0.095615 1.177212 183 167 139 1 8
0.999555 0.073661 1.143535 183 165 144 1 8
0.999833 0.093652 1.154486 180 167 138 1 8
0.998927 0.094268 1.137508 182 169 145 1 8
1.007740 0.259277 0.940299 193 181 159 9 14
0.997782 0.299811 0.941377 187 177 154 9 14
0.829499 0.624147 1.043418 119 93 74 3 5
1.070737 0.436420 0.719705 164 234 254 9 14
1.070072 0.433014 0.740605 186 251 254 9 14
1.071628 0.423870 0.745347 186 251 253 9 14
1.072687 0.448286 0.740765 157 224 250 9 14
1.071808 0.455026 0.752261 136 193 247 9 14
0.980883 -0.045987 0.986249 194 186 156 1 8
0.980836 -0.023904 0.980131 194 180 154 1 8
0.981064 -0.042264 1.006752 192 180 153 1 8
0.688708 0.709548 0.551087 134 86 50 3 5
0.688612 0.689863 0.565108 128 81 53 3 5
1.074461 0.348870 0.344735 171 254 254 9 14
1.074564 0.336095 0.360404 195 253 255 9 14
0.958801 0.621346 0.654261 142 117 94 3 5
0.927900 0.623380 0.658471 143 121 95 3 5
0.925588 0.621914 0.640332 143 118 94 3 5
1.065620 0.040239 0.322119 84 121 148 9 14
1.066232 0.025955 0.313220 79 118 149 9 14
1.065274 0.020825 0.298785 86 116 153 9 14
1.061040 0.015361 0.301575 95 115 146 9 14
0.686963 0.829568 0.446337 118 75 47 3 5
1.067927 0.192093 0.336160 82 151 196 9 14
1.069725 0.186241 0.345554 75 149 186 9 14
1.068184 0.181012 0.359052 102 180 238 9 14
1.068264 0.162415 0.340209 81 136 184 9 14
1.070811 0.170213 0.349844 91 168 224 9 14
1.070363 0.206104 0.318375 84 138 170 9 14
1.067442 0.174726 0.334578 78 134 173 9 14
1.067764 0.175600 0.314812 79 138 175 9 14
1.068481 0.191706 0.310666 126 179 215 9 14
1.070558 0.266761 0.569030 218 254 252 9 14
1.069345 0.266513 0.582006 216 255 253 9 14
1.071655 0.254453 0.566925 238 255 254 9 14
0.976618 0.563030 0.723732 221 210 176 1 8
0.977333 0.586071 0.732874 219 209 176 1 8
0.812152 0.625882 0.372337 150 126 102 3 5
1.063458 -0.112707 0.704718 139 225 245 9 14
1.015148 -0.053087 0.405831 246 234 205 9 14
1.017555 -0.037392 0.425346 245 231 210 9 14
1.016191 -0.051385 0.420931 246 233 209 9 14
1.017509 -0.034327 0.406077 246 235 211 9 14
0.684339 0.810090 0.657337 122 75 49 3 5
0.686101 0.832826 0.681962 121 73 41 3 5
0.685638 0.838045 0.658048 121 72 47 3 5
0.685911 0.800882 0.636021 124 76 43 3 5
0.684824 0.802077 0.665287 125 71 46 3 5
1.077757 0.428068 0.436152 203 252 252 9 14
1.077776 0.442067 0.446465 148 224 250 9 14
1.081046 0.446921 0.457990 163 239 252 9 14
0.688633 0.798135 0.345269 117 72 46 3 5
0.688718 0.794636 0.361377 117 71 46 3 5
1.030958 -0.015836 0.774189 205 199 179 9 14
0.973510 0.584189 0.966178 138 121 100 1 8
0.975569 0.614658 0.991113 110 89 73 3 5
0.975600 0.595007 0.999446 134 118 93 1 8
0.978324 0.614072 1.008461 114 90 73 3 5
0.978378 0.607073 0.990600 113 94 77 1 8
0.986005 0.421302 1.025315 176 161 133 1 8
0.859482 0.622008 1.085724 114 91 65 3 5
1.073483 0.381483 0.413336 179 253 252 9 14
1.072626 0.368607 0.430920 161 251 254 9 14
1.075414 0.365828 0.403041 187 254 252 9 14
0.979273 0.375687 0.968695 191 175 143 1 8
0.984974 0.378531 0.949965 190 178 153 9 14
0.924722 0.623436 0.613538 146 121 97 3 5
0.710029 0.632352 0.359992 132 110 114 3 5
0.696734 0.637682 0.337880 134 94 62 3 5
0.709354 0.633108 0.332482 132 114 115 3 5
0.708523 0.633924 0.347437 132 113 112 3 5
0.979930 0.409593 0.963859 189 170 145 1 8
0.977210 0.534341 0.940346 185 174 140 1 8
0.974862 0.546355 0.952741 187 169 144 1 8
0.973854 0.545564 0.968819 184 169 146 1 8
1.046531 0.248186 0.919584 149 146 136 9 14
1.043478 0.263504 0.918462 153 145 137 9 14
1.035345 0.491436 0.539414 219 221 218 9 14
0.980155 0.394588 0.994937 184 169 145 1 8
0.979641 0.372087 0.991160 180 167 140 1 8
1.022871 -0.025558 0.479892 244 235 207 9 14
1.016229 -0.042230 0.484799 240 228 201 9 14
0.979267 0.361810 0.962409 192 177 146 9 14
0.980892 0.342830 0.960597 194 175 149 9 14
0.985917 0.345854 0.950469 197 177 154 9 14
0.897245 0.660197 0.329341 128 107 93 3 5
0.878262 0.651769 0.326583 127 104 90 3 5
0.912037 0.667809 0.330038 115 89 76 3 5
0.915364 0.674429 0.334360 121 94 82 3 5
0.891809 0.676434 0.336135 126 98 89 3 5
0.759012 0.828513 0.514081 101 55 28 0 0
0.772678 0.834369 0.524690 98 51 26 0 0
0.770771 0.823109 0.520215 99 52 26 0 0
0.724345 0.633863 0.630030 135 146 188 3 5
0.700745 0.634435 0.627306 135 124 144 3 5
0.796779 0.626108 0.910337 126 97 74 3 5
0.693454 0.715072 0.328059 126 84 61 3 5
1.023682 -0.027604 0.720488 218 211 190 9 14
1.026928 -0.019713 0.743469 216 208 185 9 14
1.015248 -0.049450 0.744237 216 210 184 9 14
1.017687 -0.033561 0.742796 211 202 182 9 14
0.937553 0.620241 0.920625 121 97 73 3 5
0.775042 0.627730 0.361837 146 120 109 3 5
0.784326 0.628038 0.402025 148 122 106 3 5
0.690745 0.645986 0.553635 124 83 54 3 5
0.963205 0.618445 1.002332 116 93 73 3 5
0.997925 -0.022581 1.159230 186 171 146 1 8
1.000652 -0.041950 1.147210 183 172 145 1 8
0.999133 -0.027911 1.114900 183 171 146 1 8
0.997448 0.008768 1.135694 186 169 149 1 8
0.997557 -0.021154 1.127883 186 170 147 1 8
1.000240 0.264942 0.942327 193 183 155 9 14
0.686922 0.788916 0.670025 121 75 47 3 5
0.687838 0.786765 0.654329 125 76 46 3 5
1.073987 0.208691 0.507263 244 253 255 9 14
1.073945 0.218469 0.509287 254 254 254 9 14
1.070835 0.226587 0.522486 253 253 255 9 14
0.981991 0.234077 0.970545 197 184 156 9 14
0.994935 0.200057 0.953039 195 186 160 9 14
0.989877 0.244106 0.949893 196 185 157 9 14
0.994849 0.215581 0.951556 199 185 158 9 14
0.986167 0.211527 0.967822 199 185 159 9 14
0.889017 0.622359 0.913087 123 101 75 3 5
0.893242 0.621662 0.899068 125 98 78 3 5
0.986112 0.203369 1.001908 192 178 146 1 8
0.986272 0.173318 0.985560 203 187 155 1 8
0.988463 0.189658 1.005364 199 184 156 1 8
0.984896 0.188312 0.975236 198 184 159 1 8
1.076425 0.329232 0.491165 196 255 253 9 14
1.077563 0.334377 0.521634 195 254 254 9 14
1.081224 0.358086 0.515333 192 252 250 9 14
0.690091 0.762038 0.482337 118 76 51 3 5
0.687749 0.777335 0.463544 117 76 46 3 5
0.688394 0.776179 0.489587 120 74 51 3 5
1.071445 0.418081 0.521437 222 254 252 9 14
1.071293 0.406535 0.513128 252 254 255 9 14
0.694873 0.636138 0.662740 141 89 54 3 5
0.704981 0.633248 0.679738 142 154 202 3 5
0.702253 0.633640 0.666025 140 94 75 3 5
0.725687 0.631879 0.688346 141 135 169 3 5
0.990749 0.170471 0.961594 200 189 158 1 8
0.996140 0.171093 0.952755 200 189 161 9 14
0.990275 0.211274 0.958813 201 187 161 9 14
0.991386 0.182335 0.956359 196 185 160 9 14
0.986581 0.191757 0.965367 198 186 158 9 14
1.001847 0.191526 0.949044 201 188 164 9 14
1.009307 0.178442 0.947295 202 189 164 9 14
1.086355 0.121907 0.633132 165 252 249 9 14
1.079195 0.120778 0.643507 233 255 252 9 14
1.076755 0.110910 0.640292 225 253 253 9 14
0.994911 0.810136 0.315863 124 112 93 1 8
0.986659 0.836696 0.332526 116 115 116 1 8
0.983180 0.823585 0.339634 121 110 111 1 8
0.990294 0.824433 0.304875 134 120 104 1 8
0.993685 0.821304 0.321620 124 108 82 1 8
0.988176 0.803647 0.299917 133 120 108 1 8
1.072050 0.054562 0.367657 87 158 189 9 14
1.071010 0.046085 0.377682 92 155 187 9 14
1.069461 0.070066 0.368875 85 155 184 9 14
1.070689 0.032077 0.401759 89 153 183 9 14
0.687362 0.827190 0.426712 116 71 49 3 5
0.935687 0.621026 0.810868 129 102 92 3 5
0.920495 0.621723 0.803587 134 105 88 3 5
0.930993 0.621469 0.776837 133 107 86 3 5
1.045616 -0.003613 0.539091 196 189 173 9 14
1.068007 0.367115 0.883114 115 116 109 9 14
1.062685 0.382027 0.895661 117 119 110 9 14
1.068733 0.390525 0.886958 118 115 112 9 14
1.054604 0.361591 0.901804 139 135 123 9 14
1.044227 0.380450 0.908544 147 137 123 9 14
1.096215 0.039693 0.819448 236 252 254 0 0
1.073519 0.034611 0.838068 253 254 255 9 14
1.082505 0.039321 0.831704 221 255 255 9 14
1.070729 0.033089 0.817563 245 254 254 0 0
0.980360 -0.008669 0.976189 196 185 153 1 8
0.979035 -0.000029 0.989928 193 185 156 1 8
0.981948 -0.025161 1.004210 191 181 152 1 8
0.979114 -0.000389 1.001570 190 179 150 1 8
1.040035 0.145395 0.927691 161 155 144 9 14
1.005677 0.151765 0.946442 188 179 162 9 14
1.022861 0.142666 0.935883 181 173 155 9 14
1.030681 0.153886 0.930159 163 158 145 9 14
1.024574 0.167114 0.935562 178 173 156 9 14
1.022298 0.155471 0.936926 175 169 152 9 14
0.949007 0.622183 0.565056 148 117 96 3 5
0.929502 0.622505 0.534837 147 120 102 3 5
0.791496 0.627527 0.850269 128 98 73 3 5
0.790927 0.627141 0.829837 125 101 75 3 5
0.821777 0.625805 0.827337 126 99 71 3 5
0.690963 0.668027 0.524837 128 83 58 3 5
0.690901 0.674575 0.549839 136 85 55 3 5
0.691687 0.650020 0.537337 136 86 52 3 5
0.794852 0.627689 0.467218 148 123 104 3 5
0.995669 -0.124235 1.193069 182 169 148 1 8
1.071211 0.404702 0.470630 226 254 253 9 14
1.069677 0.413856 0.497519 251 255 255 9 14
1.075735 0.403418 0.496493 242 255 253 9 14
1.069719 0.407753 0.483205 237 254 252 9 14
0.685545 0.840333 0.556568 109 73 37 3 5
0.684736 0.825560 0.553326 115 71 44 3 5
1.139319 0.042612 0.850854 57 82 112 0 0
1.134764 0.070508 0.849914 217 232 247 9 14
1.158175 0.060665 0.855462 177 206 230 0 0
1.147385 0.053612 0.854409 175 202 227 0 0
1.144031 0.056211 0.876043 97 133 168 9 14
1.143964 0.053829 0.861789 147 190 210 9 14
1.143334 0.046750 0.866387 56 81 111 9 14
1.140840 0.050238 0.875534 57 86 114 9 14
1.148625 0.064163 0.859895 159 191 212 9 14
1.138062 0.059442 0.860134 214 239 242 9 14
1.148469 0.052264 0.870772 84 128 173 9 14
1.141263 0.059448 0.870332 100 136 170 9 14
0.690155 0.712853 0.603697 128 84 56 3 5
0.773925 0.626772 0.979396 122 94 72 3 5
0.757033 0.626871 1.009046 125 96 76 3 5
0.775129 0.627228 0.995326 130 100 77 3 5
0.988323 0.674465 0.303317 148 132 122 1 8
0.989494 0.671464 0.313866 136 120 103 1 8
0.986874 0.655886 0.317727 140 120 104 1 8
0.983030 0.654355 0.309196 145 134 119 1 8
1.073401 0.329365 0.353290 181 252 252 9 14
1.070301 0.306466 0.363651 147 235 253 9 14
1.069119 0.299238 0.351251 118 197 250 9 14
1.068167 0.317405 0.358748 190 253 251 9 14
1.068806 0.314560 0.344034 175 251 249 9 14
1.019032 0.506777 0.360824 228 223 214 9 14
1.034698 0.492703 0.356112 225 222 212 9 14
1.011346 0.511613 0.479337 228 227 228 9 14
1.028234 0.496638 0.490645 231 228 216 9 14
1.040824 0.489428 0.496276 227 224 215 9 14
1.027490 0.496931 0.466942 229 227 215 9 14
1.044955 0.475743 0.880197 139 134 115 9 14
1.035862 0.487735 0.868830 168 168 145 9 14
1.043743 0.481561 0.859783 157 154 135 9 14
1.061654 0.466140 0.868547 97 97 94 9 14
1.065727 0.150344 0.347233 79 136 171 9 14
1.066204 0.154740 0.362647 89 146 192 9 14
1.066957 0.129570 0.333840 79 126 167 9 14
0.984516 0.613471 0.418570 173 148 124 1 8
0.981400 0.617629 0.417282 173 148 124 3 5
0.982101 0.613778 0.445606 173 147 121 1 8
0.983906 0.613110 0.388548 173 148 123 1 8
1.011176 0.217049 1.158804 180 166 141 1 8
0.765147 0.749588 0.503541 108 62 27 0 0
0.780822 0.763716 0.520273 82 43 28 0 0
0.769593 0.764228 0.522173 77 45 19 3 5
0.771766 0.765309 0.516689 96 56 22 0 0
0.789696 0.747135 0.514062 92 52 23 0 0
0.779149 0.756157 0.512233 92 50 30 0 0
0.765254 0.776220 0.515784 100 56 27 0 0
0.766455 0.761984 0.517194 102 55 31 3 5
0.793182 0.767464 0.522763 56 26 23 0 0
0.768841 0.751717 0.524245 80 47 25 3 5
0.690431 0.739538 0.834623 137 90 49 3 5
0.687079 0.714488 0.819252 133 89 48 3 5
0.782275 0.626529 0.950767 123 95 64 3 5
0.813641 0.624606 0.947712 120 94 69 3 5
0.834722 0.623735 0.968641 120 92 65 3 5
0.802561 0.625528 1.071219 119 90 71 3 5
0.825256 0.623354 1.067087 118 90 65 3 5
0.797097 0.625340 1.036659 117 91 62 3 5
0.789256 0.626552 0.858426 126 98 75 3 5
0.817756 0.625840 0.856914 124 97 72 3 5
0.694243 0.812409 0.985702 109 75 41 3 5
1.074795 0.399099 0.391467 172 253 253 9 14
1.072933 0.403492 0.368977 187 255 253 9 14
1.072808 0.414245 0.390223 176 254 251 9 14
0.996836 0.517327 0.660087 226 219 209 9 14
0.993045 0.519488 0.686103 223 216 207 9 14
0.686269 0.839204 0.694142 122 73 44 3 5
0.685201 0.801191 0.709541 124 78 46 3 5
0.685323 0.816426 0.694900 126 77 41 3 5
0.795139 0.628224 0.602760 139 122 112 3 5
0.791512 0.629003 0.726861 141 131 152 3 5
1.019712 0.502230 0.757731 204 199 183 9 14
1.010195 0.510183 0.777837 205 200 185 9 14
1.033742 0.490243 0.782859 205 200 189 9 14
1.077706 0.440793 0.411219 170 253 255 9 14
1.078359 0.451235 0.402799 119 163 228 9 14
0.801095 0.626583 0.352587 152 128 106 3 5
1.069840 0.231534 0.325017 84 156 195 9 14
1.071824 0.218110 0.321715 84 147 191 9 14
1.079529 0.442849 0.303785 99 173 227 9 14
0.692610 0.645794 0.936514 145 91 59 3 5
0.691645 0.661771 0.917837 140 87 62 3 5
1.045902 0.113813 0.925117 155 150 142 9 14
1.037700 0.101122 0.918937 151 147 139 9 14
1.060187 0.126639 0.917078 153 148 141 9 14
1.045745 0.133716 0.926039 154 147 143 9 14
0.974008 0.585315 0.948098 152 135 109 1 8
0.973361 0.584738 0.925427 153 136 110 1 8
0.977843 0.600726 0.937564 122 102 79 1 8
0.980884 0.608110 0.915439 116 93 74 1 8
0.697756 0.750282 1.079408 108 70 45 3 5
0.697518 0.722385 1.108246 110 72 49 3 5
0.697993 0.733968 1.094837 104 67 48 3 5
1.030949 0.800698 0.347487 102 80 67 1 8
1.016106 0.781056 0.343164 101 81 70 1 8
0.729130 0.630249 0.371034 140 129 131 3 5
0.745334 0.629195 0.371659 142 123 119 3 5
0.728713 0.631172 0.335735 135 125 126 3 5
0.751971 0.629457 0.356903 144 124 113 3 5
0.995607 0.090922 1.053563 186 172 145 1 8
0.998950 0.073882 1.068887 186 171 142 1 8
0.991508 0.075663 1.042553 185 171 147 1 8
0.973157 -0.417423 -0.092959 217 207 194 9 14
0.973782 -0.435667 -0.098667 190 183 169 9 14
0.971064 -0.449056 -0.083128 183 172 166 9 14
0.734782 -0.548857 -0.258099 219 225 247 0 0
0.722031 -0.532026 -0.251890 220 227 248 0 0
0.738526 -0.566106 -0.261781 230 237 252 0 0
0.746845 -0.530062 -0.249650 202 211 235 0 0
1.062402 -0.151487 0.087469 91 132 146 9 14
1.068222 -0.149914 0.118709 94 147 155 9 14
0.794127 -0.954380 -0.191804 136 129 116 0 0
0.795758 -0.957213 -0.180947 142 130 102 0 0
0.943502 -0.235328 -0.270354 157 134 98 12 3
0.918410 -0.265584 -0.274066 166 139 105 12 3
0.828347 -0.182098 -0.503966 62 59 53 34 4
0.816932 -0.177425 -0.512528 79 77 69 34 4
0.827416 -0.154305 -0.522310 132 127 110 34 4
0.826374 -0.163968 -0.514426 136 132 115 34 4
0.651805 -0.353204 -0.278802 196 195 210 12 3
1.084926 -0.299307 0.228887 75 116 139 9 14
1.080995 -0.290767 0.212555 71 116 135 9 14
1.080022 -0.293877 0.237260 76 123 136 9 14
1.084291 -0.314437 0.239670 80 128 143 9 14
1.076926 -0.275808 0.223302 75 129 141 9 14
1.078210 -0.290537 0.233589 71 118 136 9 14
0.738591 -0.471128 -0.257753 240 249 252 0 0
0.729910 -0.447030 -0.253384 238 248 254 0 0
0.728313 -0.456322 -0.252028 227 235 249 0 0
0.727665 -0.436640 -0.257151 247 253 255 0 0
0.966180 -0.937614 0.027559 200 184 159 1 8
0.963612 -0.928280 0.019791 173 162 140 1 8
0.682773 -0.712093 -0.167998 201 203 230 0 0
0.690440 -0.691392 -0.165740 182 183 194 0 0
0.684113 -0.718343 -0.164659 188 187 198 0 0
0.703669 -0.693873 -0.159738 183 179 179 0 0
0.689876 -0.703488 -0.160685 189 189 195 0 0
0.676481 -0.708934 -0.171614 204 208 233 0 0
0.907848 -0.633937 -0.256060 211 220 238 0 0
0.958325 -0.443298 -0.190047 161 142 130 1 8
0.956911 -0.421792 -0.188838 169 150 127 1 8
0.969416 -0.426156 -0.172358 184 167 137 1 8
0.642258 -0.545383 -0.176259 228 241 255 0 0
0.656380 -0.543154 -0.172675 225 232 255 0 0
0.719322 -0.735320 -0.270524 252 250 255 0 0
0.718723 -0.737574 -0.280872 253 252 254 0 0
0.716159 -0.761177 -0.283207 193 188 191 12 3
1.053906 -0.397786 0.175793 82 125 142 9 14
1.054239 -0.378758 0.142336 84 138 147 9 14
1.056230 -0.387294 0.161514 75 123 138 9 14
0.810127 -0.339262 -0.275114 183 172 155 12 3
0.786723 -0.368598 -0.276004 181 174 163 12 3
0.961545 -0.342026 0.000781 229 219 196 9 14
0.959180 -0.359886 -0.008389 229 218 200 9 14
0.963756 -0.355190 0.004690 229 221 197 9 14
0.966882 -0.331406 0.008479 232 223 209 9 14
0.977666 -0.360942 0.018505 253 250 251 9 14
0.806344 -0.938613 -0.221146 157 150 150 0 0
0.826719 -0.932189 -0.216570 110 95 79 0 0
0.821087 -0.937622 -0.222203 100 91 78 0 0
0.805924 -0.946715 -0.213362 150 145 136 0 0
0.837608 -0.925215 -0.221369 82 76 75 0 0
0.811451 -0.913691 -0.239726 87 81 78 0 0
0.830680 -0.931559 -0.230646 102 93 95 0 0
0.820329 -0.922658 -0.234861 45 44 43 0 0
0.810253 -0.925168 -0.230493 104 99 98 0 0
0.838683 -0.924490 -0.239893 121 117 125 0 0
1.071325 -0.190517 0.105938 94 142 159 9 14
0.969510 -0.370199 -0.174523 199 183 155 1 8
0.975012 -0.474713 -0.101164 209 200 193 1 8
0.994887 -0.552216 0.035801 253 247 235 9 14
0.989690 -0.585233 0.034791 253 249 239 9 14
0.979802 -0.582420 0.028017 252 252 245 9 14
0.996906 -0.586176 0.042809 249 242 226 9 14
0.742846 -1.054321 -0.104336 240 219 181 0 0
0.737718 -1.042099 -0.111628 215 199 170 0 0
0.734881 -1.060773 -0.109849 230 207 169 0 0
0.944749 -0.673277 -0.234024 92 82 79 0 0
0.945372 -0.678084 -0.240005 156 159 180 0 0
0.944357 -0.666924 -0.218018 94 89 83 0 0
0.941434 -0.677513 -0.213201 71 73 71 0 0
0.937647 -0.661088 -0.231493 121 121 127 0 0
0.840464 -0.197390 -0.347305 82 74 72 34 4
0.838669 -0.193133 -0.361223 50 43 35 34 4
0.841674 -0.188431 -0.337183 56 49 45 34 4
0.835321 -0.185942 -0.349442 47 44 39 34 4
0.831493 -0.201191 -0.357684 127 117 118 34 4
0.818034 -0.204114 -0.351163 120 110 110 34 4
0.838216 -0.201932 -0.333010 133 122 124 34 4
0.943218 -0.696236 -0.069975 77 79 80 0 0
0.945474 -0.703760 -0.054977 86 80 78 0 0
0.950284 -0.694998 -0.066560 114 108 96 0 0
1.078114 -0.249191 0.174099 97 164 188 9 14
1.072507 -0.270744 0.158520 82 137 149 9 14
1.078174 -0.243540 0.154164 90 143 165 9 14
1.069182 -0.272646 0.170171 102 174 175 9 14
1.075626 -0.263746 0.184478 96 161 175 9 14
0.963151 -0.711798 0.039207 202 190 169 9 14
0.954214 -0.695393 0.027337 212 198 179 9 14
0.964381 -0.715808 0.010438 197 185 168 9 14
1.047346 -0.455433 0.101488 88 132 151 9 14
1.050434 -0.450328 0.138216 82 128 149 9 14
1.047815 -0.465672 0.128832 89 130 148 9 14
1.049291 -0.445701 0.119069 79 127 140 9 14
0.827740 -0.712907 -0.070976 132 123 101 0 0
0.829146 -0.722806 -0.072513 141 128 113 0 0
0.840466 -0.705165 -0.054850 91 91 95 0 0
0.809085 -0.166173 -0.518769 90 83 69 34 4
0.786995 -0.164182 -0.518943 106 100 90 34 4
0.796290 -0.175269 -0.516675 78 72 66 34 4
0.809442 -0.156743 -0.527529 152 144 127 34 4
0.971004 -0.523454 -0.129242 216 209 196 9 14
1.080951 -0.237995 0.178173 76 124 148 9 14
1.078094 -0.215628 0.200991 74 113 140 9 14
1.078939 -0.222792 0.190372 78 122 149 9 14
1.079953 -0.239214 0.200066 73 112 136 9 14
1.078540 -0.235793 0.190443 72 123 146 9 14
0.949586 -0.658202 0.192119 234 221 194 9 14
0.952225 -0.650193 0.169153 234 223 192 9 14
0.950949 -0.645049 0.196593 235 223 200 9 14
0.769935 -0.878237 -0.248120 187 190 206 0 0
0.757991 -0.878481 -0.249199 194 197 209 0 0
0.760404 -0.865860 -0.247870 191 194 212 0 0
0.951803 -1.145595 0.243798 201 185 158 1 8
0.952283 -1.155905 0.230322 197 185 158 1 8
0.952961 -1.154079 0.213087 200 185 160 1 8
0.887199 -0.685044 -0.121817 65 70 60 0 0
0.863850 -0.681937 -0.128494 66 68 59 0 0
0.876523 -0.684801 -0.135841 70 67 68 0 0
0.884327 -0.689459 -0.133924 65 65 55 0 0
0.896843 -0.691529 -0.124858 65 68 60 0 0
0.874062 -0.681483 -0.114379 69 70 66 0 0
0.894475 -0.682176 -0.107177 85 92 85 0 0
0.865148 -1.029954 0.043030 230 191 59 0 0
0.888184 -1.035136 0.043718 201 170 93 0 0
0.841729 -0.159730 -0.384260 57 49 46 34 4
0.842981 -0.155517 -0.392824 73 66 66 34 4
0.836046 -0.178589 -0.374318 50 48 39 34 4
0.844330 -0.146670 -0.399880 104 96 99 34 4
0.840495 -0.171409 -0.391401 87 81 81 34 4
0.845126 -0.176772 -0.398955 99 95 97 34 4
0.845937 -0.159385 -0.358605 54 47 43 34 4
0.967694 -0.784443 0.055337 210 197 170 1 8
0.672919 -1.153472 -0.158424 186 176 157 0 0
0.660964 -1.146948 -0.167760 216 190 155 0 0
0.651170 -1.156621 -0.179597 211 188 159 0 0
0.669993 -1.136024 -0.162748 226 212 184 0 0
0.665954 -1.163060 -0.171015 167 160 145 0 0
0.973771 -0.362568 -0.093839 181 171 154 1 8
0.745361 -0.672469 -0.186557 195 190 200 0 0
0.717606 -0.691357 -0.206857 155 163 187 0 0
0.803112 -0.916300 -0.230637 101 95 94 0 0
0.817323 -0.888787 -0.236788 162 159 168 0 0
0.809181 -0.896654 -0.224335 136 134 137 0 0
0.804766 -0.902917 -0.235385 129 124 132 0 0
0.794138 -0.909918 -0.241421 107 96 96 0 0
0.968355 -0.304489 -0.084197 189 176 157 9 14
0.970852 -0.288907 -0.110880 203 191 171 1 8
0.965391 -0.831574 0.211236 226 210 192 1 8
0.964496 -0.846481 0.221008 224 212 187 1 8
0.725702 -1.086685 -0.118221 220 204 176 0 0
0.724726 -1.091129 -0.134820 207 188 145 0 0
0.719730 -1.100689 -0.144768 207 182 148 0 0
0.718991 -1.077504 -0.147909 213 194 151 0 0
0.695397 -0.415601 -0.277666 254 255 255 0 0
0.932085 -0.696680 -0.068039 97 100 100 0 0
0.894591 -0.695867 -0.063952 105 113 107 0 0
0.928288 -0.703237 -0.058469 122 121 121 0 0
0.905618 -0.704923 -0.053396 107 113 112 0 0
1.080599 -0.234525 0.227919 64 109 132 9 14
1.083482 -0.219924 0.224695 76 117 143 9 14
1.078109 -0.238381 0.217876 72 113 136 9 14
0.963179 -0.853094 0.172826 220 208 182 1 8
0.965935 -0.840880 0.191625 223 210 185 1 8
0.966085 -0.814680 0.185962 225 210 189 1 8
0.964900 -0.835921 0.179337 222 211 183 1 8
0.856879 -0.901083 -0.116163 128 115 94 0 0
0.862129 -0.913229 -0.110982 114 105 90 0 0
0.841949 -0.886042 -0.098979 143 129 104 0 0
0.855267 -0.892223 -0.106574 110 102 77 0 0
0.847606 -0.897837 -0.093369 120 104 85 0 0
0.966944 -0.660883 -0.148798 201 192 178 0 0
0.956186 -0.657484 -0.162125 169 156 137 0 0
0.648644 -0.822883 -0.185906 108 100 98 0 0
0.620755 -0.817105 -0.181004 136 126 115 0 0
1.034675 -0.140191 0.053330 244 236 230 9 14
0.671024 -0.627917 -0.177086 210 217 252 0 0
1.051615 -0.421562 0.209893 80 126 137 9 14
1.049479 -0.436412 0.204246 74 116 132 9 14
1.050740 -0.438050 0.231053 102 174 133 9 14
1.057016 -0.415380 0.220846 71 120 130 9 14
1.054353 -0.420538 0.229474 73 126 139 9 14
0.966267 -0.842904 0.140385 220 205 181 1 8
0.690748 -0.533465 -0.192763 218 222 237 0 0
0.964181 -0.989170 0.164962 212 198 171 1 8
0.963383 -1.020150 0.159948 209 195 171 1 8
0.720347 -1.034599 -0.152038 245 227 200 0 0
0.723872 -1.043427 -0.143740 237 222 190 0 0
0.728546 -1.018199 -0.146458 234 219 187 0 0
0.967575 -0.818593 0.097548 213 197 170 1 8
0.965902 -0.841057 0.096489 211 198 173 1 8
0.680808 -0.822880 -0.193481 151 154 167 0 0
0.690747 -0.824696 -0.182232 142 145 161 0 0
0.954816 -0.427325 -0.238227 150 135 98 12 3
0.954734 -0.406652 -0.202961 156 137 114 12 3
0.954571 -0.424095 -0.203797 155 138 112 12 3
0.954363 -0.413231 -0.237320 151 134 105 12 3
0.849879 -0.916467 -0.185348 105 106 101 0 0
0.856724 -0.912441 -0.198500 107 100 94 0 0
0.857247 -0.913910 -0.173047 96 92 80 0 0
0.858514 -0.917398 -0.182478 96 92 80 0 0
0.849477 -0.909544 -0.202414 90 82 80 0 0
0.727748 -0.794097 -0.209037 152 155 176 0 0
1.073257 -0.164996 0.142560 94 150 169 9 14
1.071437 -0.185150 0.140460 83 132 147 9 14
1.072209 -0.170351 0.123203 87 151 164 9 14
1.071862 -0.145607 0.139037 88 150 168 9 14
0.958889 -0.686585 -0.070831 136 127 120 9 14
0.953512 -0.687121 -0.058144 206 198 178 9 14
0.965740 -0.672085 -0.083154 145 139 130 9 14
0.837495 -0.775419 -0.007655 86 76 77 0 0
0.850095 -0.773792 -0.000841 92 94 75 0 0
0.862369 -0.783103 0.002400 93 93 90 0 0
0.692287 -0.451013 -0.187442 203 218 246 0 0
0.696866 -0.459516 -0.181436 182 195 218 0 0
0.693302 -0.439712 -0.207115 207 229 247 0 0
0.712357 -0.468322 -0.184963 206 219 252 0 0
0.694767 -0.446825 -0.197998 198 220 239 0 0
0.869732 -0.912690 -0.176426 100 91 77 0 0
1.046560 -0.528480 0.277791 95 157 176 9 14
1.047624 -0.526506 0.301947 91 152 175 9 14
1.046072 -0.512818 0.290370 95 155 180 9 14
1.048104 -0.512052 0.269325 89 140 164 9 14
1.048240 -0.499089 0.277807 86 144 170 9 14
0.845045 -1.100811 0.042868 79 107 71 0 0
0.820217 -1.109294 0.041922 60 91 59 0 0
0.813433 -1.135800 0.039286 58 89 66 0 0
0.837532 -1.130766 0.043243 69 98 67 0 0
0.646608 -0.201832 -0.308773 52 50 49 34 4
0.627901 -0.201057 -0.309745 50 49 49 34 4
0.967933 -0.866467 0.079475 210 195 174 1 8
0.966075 -0.857424 0.104592 211 195 172 1 8
0.961140 -1.063289 0.269411 208 195 171 1 8
0.703555 -0.496319 -0.263758 249 253 255 0 0
0.705500 -0.478837 -0.254383 244 248 255 0 0
0.694890 -0.484456 -0.261403 252 253 254 0 0
0.802797 -1.124508 0.036598 56 82 56 0 0
0.872342 -0.916608 -0.155314 106 95 70 0 0
0.809116 -0.197730 -0.431843 44 41 41 34 4
0.808579 -0.198568 -0.414846 63 55 58 34 4
0.635267 -0.188720 -0.284595 160 152 154 0 0
0.646081 -0.200225 -0.298545 144 137 141 0 0
0.654032 -0.190270 -0.278960 162 155 160 12 3
0.628276 -0.192127 -0.276152 169 160 163 12 3
0.631662 -0.190244 -0.289601 148 140 140 0 0
0.653641 -0.197112 -0.275346 188 181 188 12 3
1.015361 -0.476571 0.069878 205 216 238 9 14
0.792983 -0.691083 -0.238008 182 190 226 0 0
0.809440 -0.707771 -0.238279 141 149 179 0 0
0.791764 -0.717423 -0.240277 187 193 222 0 0
0.782470 -0.726924 -0.240850 183 191 220 0 0
1.050401 -0.265333 0.087503 156 176 192 9 14
1.066771 -0.261570 0.102867 107 140 156 9 14
1.059632 -0.276613 0.108028 114 148 165 9 14
0.952836 -1.139451 0.162170 193 182 148 1 8
0.956147 -1.125448 0.167855 200 186 158 1 8
0.950081 -1.139740 0.152674 191 180 151 0 0
0.864676 -0.939115 -0.035200 101 98 93 0 0
0.865515 -0.919729 -0.035269 94 93 85 0 0
0.869703 -0.933122 -0.024130 108 97 88 0 0
0.863481 -0.919540 -0.025755 103 93 84 0 0
0.864328 -0.942060 -0.021375 116 115 102 0 0
1.050612 -0.454509 0.215443 101 172 145 9 14
1.050090 -0.460549 0.230705 101 173 148 9 14
1.051180 -0.449288 0.239555 90 152 154 9 14
0.976204 -0.172960 -0.061458 214 202 180 9 14
0.628289 -1.148884 -0.176071 211 188 159 0 0
0.614121 -1.166562 -0.162083 229 215 196 0 0
0.730783 -1.156206 -0.141859 134 121 91 0 0
0.718384 -1.144759 -0.141928 188 174 124 0 0
0.722783 -1.140325 -0.139168 79 73 54 0 0
0.736663 -1.148276 -0.132436 82 70 53 0 0
0.722136 -1.156340 -0.144221 104 98 74 0 0
0.704945 -1.160931 -0.144021 161 151 112 0 0
0.737198 -0.910984 -0.223113 163 160 169 0 0
0.719113 -0.898578 -0.238254 174 171 178 0 0
0.713269 -0.908152 -0.224748 174 168 183 0 0
0.747045 -0.909274 -0.227065 170 167 169 0 0
0.721585 -0.912244 -0.233153 95 91 97 0 0
0.725651 -0.907594 -0.240997 188 182 189 0 0
0.954454 -1.123842 0.145948 193 180 157 1 8
0.946576 -1.133931 0.145805 179 165 142 0 0
0.944369 -1.123755 0.136736 181 166 137 0 0
0.952117 -1.116050 0.125823 194 181 155 0 0
0.958697 -1.112142 0.134710 196 181 151 1 8
0.902601 -0.634725 -0.140471 198 189 170 0 0
0.885684 -0.629548 -0.149410 196 186 168 0 0
0.967893 -0.944870 0.046906 204 188 164 1 8
0.972494 -0.496557 -0.097733 205 197 190 1 8
0.973246 -0.519220 -0.100372 193 187 185 1 8
1.051965 -0.438087 0.178383 74 114 129 9 14
1.049125 -0.455162 0.191570 76 117 137 9 14
1.049981 -0.447223 0.200835 69 116 134 9 14
0.910619 -0.516692 -0.256782 180 175 174 0 0
0.910707 -0.527308 -0.257610 177 175 177 0 0
0.818771 -0.790156 -0.174301 86 82 83 0 0
0.957666 -0.330502 -0.031843 230 217 197 9 14
0.960180 -0.321092 -0.006989 229 218 198 9 14
0.955205 -0.306571 -0.038353 228 217 197 9 14
0.718332 -0.789019 -0.202174 153 155 177 0 0
0.879060 -1.149310 0.056898 114 123 91 0 0
0.890917 -1.169131 0.066638 116 113 87 0 0
0.883503 -1.155658 0.076358 151 137 91 0 0
0.878241 -1.140020 0.053986 115 126 91 0 0
0.883892 -1.161166 0.051111 92 107 79 0 0
0.881932 -1.147926 0.077754 164 140 98 0 0
0.699662 -0.829591 -0.170327 120 108 104 0 0
0.709887 -0.832992 -0.166535 137 119 106 0 0
0.701246 -0.826419 -0.162990 137 117 106 0 0
0.705448 -0.828522 -0.182056 139 130 132 0 0
0.687406 -0.832999 -0.252025 245 241 248 12 3
0.687059 -0.844211 -0.251244 232 230 240 0 0
0.710503 -0.846652 -0.248417 221 218 231 0 0
0.700066 -0.833289 -0.258300 246 243 250 12 3
0.702724 -0.842697 -0.249633 237 233 243 0 0
0.627858 -0.481413 -0.237421 252 255 255 0 0
0.638626 -0.471996 -0.220121 196 193 218 0 0
0.645495 -0.489258 -0.214728 219 218 233 0 0
0.636385 -0.492110 -0.220270 223 224 246 0 0
0.632826 -0.471928 -0.225984 237 241 254 0 0
0.628182 -0.492107 -0.232231 245 250 254 0 0
0.768380 -0.234340 -0.274132 185 171 169 12 3
0.783507 -0.222018 -0.274159 180 170 161 12 3
0.948593 -0.676342 0.275613 238 225 198 9 14
0.888295 -0.691549 -0.198801 74 70 78 0 0
0.966085 -0.233933 -0.039419 220 213 187 9 14
0.960601 -0.249355 -0.025299 226 214 190 9 14
1.051857 -0.456871 0.282747 94 180 204 9 14
1.052879 -0.443119 0.279847 95 182 210 9 14
0.961470 -0.620454 0.099071 231 224 214 9 14
0.926835 -0.679323 -0.190636 88 92 89 0 0
0.915896 -0.680624 -0.191984 68 75 71 0 0
0.932496 -0.681044 -0.206454 64 66 63 0 0
0.910764 -0.696543 -0.197619 67 68 66 0 0
0.842291 -0.830293 -0.121395 76 66 54 0 0
0.828235 -0.855283 -0.114308 121 103 83 0 0
0.832725 -0.822682 -0.124459 114 101 90 0 0
0.813611 -0.824410 -0.130971 78 71 64 0 0
0.753090 -0.753704 -0.165672 161 149 144 0 0
0.771782 -0.990143 -0.121266 216 201 181 0 0
0.759711 -0.984002 -0.138568 217 201 176 0 0
0.750865 -0.992990 -0.114450 222 208 180 0 0
0.851542 -0.837554 0.008881 88 83 71 0 0
0.847471 -0.849710 0.012164 79 70 67 0 0
0.854775 -0.823533 0.005873 92 86 77 0 0
0.740479 -0.165198 -0.520604 147 143 145 34 4
0.751969 -0.177512 -0.518373 67 64 69 34 4
0.718317 -0.175056 -0.519585 72 71 76 34 4
0.726185 -0.144528 -0.524720 113 110 117 34 4
0.748565 -0.156627 -0.531499 114 109 107 34 4
0.973547 -0.355253 -0.162854 221 211 191 1 8
0.853137 -1.015253 0.036928 182 147 49 0 0
0.839506 -1.021476 0.022674 88 73 51 0 0
0.850717 -1.034368 0.038640 170 141 46 0 0
0.974332 -0.503149 -0.137213 226 216 199 1 8
0.974071 -0.497301 -0.127373 217 210 198 1 8
0.778902 -0.984545 -0.143099 179 172 154 0 0
0.805027 -0.984147 -0.130576 117 110 91 0 0
0.797681 -0.988335 -0.132256 141 129 114 0 0
0.677816 -0.747385 -0.197283 197 205 240 0 0
0.808127 -0.789493 -0.177771 128 126 122 0 0
0.829347 -0.798592 -0.177058 127 124 118 0 0
0.835159 -0.796581 -0.173338 126 122 117 0 0
0.667020 -0.738730 -0.196252 206 212 245 0 0
0.656686 -0.740871 -0.196648 201 209 247 0 0
0.825904 -0.815955 -0.165667 82 72 68 0 0
0.657566 -0.730275 -0.197624 203 213 247 0 0
0.662884 -0.736836 -0.177566 200 207 237 0 0
0.812020 -0.822220 -0.148930 80 74 68 0 0
0.733975 -0.849117 -0.248022 202 209 222 0 0
0.721480 -0.856535 -0.249638 204 210 220 0 0
0.743028 -0.860501 -0.246601 198 204 218 0 0
0.710955 -0.875502 -0.250143 152 145 136 0 0
0.731754 -0.869994 -0.252523 190 192 202 0 0
0.738780 -0.880223 -0.250796 189 189 188 0 0
0.710608 -0.883581 -0.235876 151 145 134 0 0
0.715958 -0.345745 -0.277501 192 192 202 12 3
0.681760 -0.349499 -0.278430 197 193 205 12 3
0.710546 -0.374184 -0.277493 194 188 193 12 3
0.844096 -0.855621 -0.070319 133 108 86 0 0
0.850372 -0.859826 -0.069363 131 106 82 0 0
0.968312 -0.178482 -0.238001 123 108 77 12 3
0.970166 -0.166125 -0.242670 128 108 71 12 3
0.962804 -0.162791 -0.265043 129 109 73 12 3
0.957183 -0.163419 -0.268597 129 110 72 12 3
0.968606 -0.163357 -0.258755 126 109 74 12 3
0.696760 -0.286955 -0.278044 193 188 198 12 3
1.055022 -0.424997 0.241014 78 125 138 9 14
1.050408 -0.431845 0.256755 77 132 145 9 14
1.052616 -0.414639 0.265382 82 159 172 9 14
1.055393 -0.419335 0.250045 76 129 141 9 14
1.059003 -0.408857 0.232271 75 126 136 9 14
0.884661 -0.154194 -0.274126 159 137 104 12 3
0.883315 -0.191927 -0.273107 157 136 102 12 3
0.988414 -0.186990 -0.098617 153 143 128 1 8
0.985366 -0.184242 -0.085218 162 149 135 9 14
0.989863 -0.145959 -0.088508 161 149 137 9 14
0.765133 -0.675825 -0.252709 186 194 225 0 0
0.758502 -0.688544 -0.255565 196 196 220 0 0
0.769870 -0.661996 -0.246492 177 191 221 0 0
0.772227 -0.667660 -0.236953 185 193 223 0 0
0.768537 -0.647396 -0.248254 179 190 222 0 0
0.773880 -0.673728 -0.242791 172 183 219 0 0
1.065038 -0.363455 0.203186 71 128 136 9 14
1.082022 -0.347584 0.196229 72 130 139 9 14
1.077682 -0.347343 0.184316 89 145 149 9 14
1.081762 -0.340197 0.202652 78 125 137 9 14
1.076713 -0.350048 0.204595 72 128 140 9 14
1.084084 -0.214798 0.278056 86 142 171 9 14
1.082362 -0.197474 0.279627 90 143 169 9 14
0.967109 -0.868441 0.054837 204 190 164 1 8
0.966679 -0.913939 0.068212 205 192 160 1 8
0.967056 -0.882408 0.031989 203 189 162 1 8
0.729363 -0.747475 -0.268638 237 235 246 0 0
0.751605 -0.765099 -0.262910 233 230 243 0 0
0.741578 -0.728472 -0.265195 225 224 240 0 0
0.884148 -0.702690 -0.051021 93 96 100 0 0
0.865793 -0.694992 -0.062066 83 89 85 0 0
0.724915 -0.430089 -0.267718 251 255 255 0 0
0.687674 -0.437715 -0.229923 238 247 249 0 0
0.687705 -0.452861 -0.237136 203 201 235 0 0
0.928033 -1.072392 0.042591 179 158 88 0 0
0.953353 -1.128331 0.237337 207 192 160 1 8
0.954306 -1.133054 0.217212 201 188 159 1 8
0.706288 -0.754969 -0.276272 210 201 203 12 3
0.962762 -0.954407 0.292337 216 204 175 1 8
0.952726 -0.527268 -0.246820 181 172 181 12 3
0.949548 -0.511180 -0.243404 153 133 115 12 3
0.947510 -0.503508 -0.257969 154 144 139 12 3
0.948974 -0.524676 -0.253516 184 193 233 12 3
0.935005 -0.519000 -0.258483 178 183 204 0 0
0.962635 -0.962656 0.273962 217 201 176 1 8
0.963325 -0.971017 0.249348 214 202 174 1 8
0.693946 -0.753741 -0.199016 181 185 212 0 0
0.686437 -0.740551 -0.199875 183 187 215 0 0
0.691787 -0.729906 -0.202004 160 162 185 0 0
0.703371 -0.204289 -0.301874 58 55 58 34 4
0.688783 -0.191834 -0.280466 157 154 155 12 3
0.715536 -0.194839 -0.279180 162 157 157 12 3
0.698121 -0.200308 -0.294278 61 56 62 0 0
0.987524 -0.604128 0.057122 244 238 224 9 14
0.844303 -0.572109 -0.050404 250 244 224 0 0
0.964972 -0.839758 0.242461 225 211 186 1 8
0.963519 -0.871381 0.260844 226 211 186 1 8
0.658786 -0.776932 -0.270869 211 206 215 12 3
0.663963 -0.761482 -0.267972 206 202 208 12 3
0.690921 -0.761218 -0.269130 215 209 213 12 3
1.024905 -0.378040 0.070266 239 240 247 9 14
0.674352 -0.492763 -0.169828 205 214 218 0 0
0.667606 -0.467207 -0.160863 210 226 252 0 0
0.659923 -0.477181 -0.148357 219 230 254 0 0
0.667400 -0.479490 -0.150487 223 232 255 0 0
0.664691 -0.490819 -0.149741 236 246 251 0 0
0.671783 -0.492664 -0.161787 234 245 252 0 0
0.683056 -0.485153 -0.168539 228 239 251 0 0
0.670047 -0.503917 -0.160053 238 249 253 0 0
0.973836 -0.471771 -0.148294 226 217 202 1 8
0.975119 -0.439380 -0.136724 225 218 199 1 8
0.753643 -0.931705 -0.225241 188 181 190 0 0
0.748543 -0.936352 -0.217090 207 185 166 0 0
0.765708 -0.933277 -0.217458 209 179 156 0 0
0.748152 -0.927796 -0.227686 147 134 130 0 0
0.765418 -0.931047 -0.225631 165 159 165 0 0
0.772028 -0.922016 -0.236642 150 147 148 0 0
0.758735 -0.914859 -0.231596 159 155 164 0 0
0.755777 -0.926579 -0.233906 98 90 91 0 0
0.752125 -0.932653 -0.214911 215 183 148 0 0
0.773695 -0.947213 -0.206182 211 176 124 0 0
0.753297 -0.923843 -0.227701 166 160 164 0 0
0.686278 -1.120598 -0.153013 233 218 186 0 0
0.712488 -1.131309 -0.144547 208 191 154 0 0
0.695726 -1.116285 -0.151985 234 219 188 0 0
0.676336 -1.117344 -0.159708 240 227 202 0 0
0.708021 -1.103519 -0.152393 242 228 207 0 0
0.658062 -0.433124 -0.231020 236 246 252 0 0
0.655255 -0.427033 -0.222308 219 235 252 0 0
0.691460 -0.433997 -0.224072 207 223 249 0 0
0.664181 -0.420187 -0.210897 206 222 248 0 0
0.681222 -0.422983 -0.210394 208 227 250 0 0
1.020805 -0.396838 0.065070 237 240 253 9 14
0.801001 -1.075104 -0.027675 121 115 97 0 0
0.794196 -1.095871 -0.022740 93 89 81 0 0
0.976249 -0.337994 -0.116541 224 213 191 1 8
0.830014 -0.786733 -0.022977 131 119 98 0 0
0.831248 -0.818082 -0.009811 135 117 99 0 0
0.830893 -0.805716 -0.010136 138 118 94 0 0
0.835463 -0.828008 -0.000418 100 93 76 0 0
0.836363 -0.793403 -0.000454 109 101 87 0 0
0.843549 -0.808328 0.002923 78 69 65 0 0
0.966573 -0.783319 0.036276 211 196 172 1 8
0.967218 -0.762428 0.037343 217 200 152 1 8
0.628242 -0.530852 -0.213111 199 202 229 0 0
0.629417 -0.540983 -0.215765 189 195 225 0 0
0.641885 -0.534882 -0.206707 222 225 244 0 0
0.628099 -0.550414 -0.207279 186 193 228 0 0
0.623491 -0.562288 -0.214044 203 203 226 0 0
0.700636 -0.605140 -0.174577 186 197 234 0 0
0.710830 -0.615144 -0.177001 178 193 228 0 0
0.678242 -0.622806 -0.172619 185 195 233 0 0
0.691664 -0.615049 -0.170858 182 190 228 0 0
0.960196 -1.065014 0.252212 210 194 171 1 8
0.960364 -1.062390 0.217337 209 196 166 1 8
0.959106 -1.108921 0.094586 181 171 144 1 8
1.013995 -0.377536 0.056301 246 240 223 9 14
1.009058 -0.347243 0.042768 243 235 216 9 14
0.669539 -0.513050 -0.218872 213 221 245 0 0
0.654621 -0.518841 -0.223322 218 227 250 0 0
0.666525 -0.527132 -0.226541 209 218 244 0 0
0.658113 -0.525365 -0.224106 227 228 249 0 0
0.650235 -0.507946 -0.214400 211 212 239 0 0
0.685939 -0.524754 -0.210840 193 197 222 0 0
0.788234 -0.949068 -0.204040 166 159 152 0 0
0.799797 -0.947556 -0.199240 104 97 86 0 0
0.962102 -1.023655 0.221765 211 200 170 1 8
0.962485 -1.034333 0.222644 209 198 167 1 8
0.969436 -0.740687 0.019666 209 198 170 1 8
0.967694 -0.723692 0.035251 212 200 177 9 14
0.968406 -0.737948 0.060587 214 199 173 1 8
0.959175 -1.087723 0.235544 208 194 167 1 8
0.957005 -1.106495 0.232043 208 191 165 1 8
0.956607 -1.107048 0.205245 208 191 168 1 8
0.656838 -0.199466 -0.322879 46 43 49 34 4
0.662038 -0.203067 -0.304233 46 48 49 34 4
0.663086 -0.728010 -0.176044 199 205 233 0 0
0.856097 -0.149936 -0.322059 52 47 39 34 4
0.964501 -0.860510 0.201716 220 210 184 1 8
0.963493 -0.882762 0.230054 223 209 182 1 8
0.654201 -0.747388 -0.269043 213 208 212 12 3
0.681142 -0.740897 -0.271958 190 185 187 12 3
0.664000 -0.737817 -0.271249 197 192 193 12 3
0.907735 -0.976816 0.000130 81 70 59 0 0
0.906902 -0.953443 -0.010332 124 116 110 0 0
0.878805 -0.959668 -0.005791 119 118 108 0 0
0.889249 -0.970822 -0.000849 74 69 66 0 0
0.882239 -0.947287 -0.010717 130 121 114 0 0
0.878805 -0.587736 -0.231977 248 252 252 0 0
0.881278 -0.590803 -0.227354 242 238 248 0 0
0.881725 -0.565863 -0.226917 233 236 246 0 0
0.984346 -0.195951 -0.170790 202 187 154 12 3
0.976863 -0.193237 -0.180894 201 185 158 12 3
0.971882 -0.213718 -0.189409 202 186 153 1 8
0.664136 -0.826287 -0.190605 141 140 154 0 0
0.661764 -0.820917 -0.194332 182 187 208 0 0
0.677797 -0.822087 -0.178668 126 126 131 0 0
0.648610 -0.825703 -0.178954 120 112 118 0 0
0.898299 -0.632415 -0.108663 198 190 173 0 0
0.930025 -0.641386 -0.106265 201 192 177 0 0
0.939081 -0.644049 -0.115714 201 192 177 0 0
0.921546 -0.638126 -0.090638 195 186 173 0 0
0.915128 -0.636815 -0.076546 196 188 172 0 0
0.937157 -0.642881 -0.089807 194 185 174 0 0
0.628219 -0.802114 -0.216831 214 210 225 0 0
0.631785 -0.812261 -0.238483 245 238 247 12 3
0.621691 -0.793266 -0.212293 202 201 218 0 0
0.686470 -0.329421 -0.278135 197 192 204 12 3
0.791308 -0.784554 -0.173946 143 140 132 0 0
0.791508 -0.776417 -0.174538 126 121 119 0 0
0.807306 -0.780600 -0.170914 124 119 119 0 0
0.775817 -0.786293 -0.173135 144 138 133 0 0
1.042408 -0.211301 0.065929 208 208 206 9 14
1.031009 -0.207964 0.050213 239 235 222 9 14
0.972580 -0.429697 -0.165728 227 214 196 1 8
0.848721 -0.144858 -0.481928 64 62 60 34 4
0.695375 -0.471990 -0.173207 202 219 246 0 0
0.709738 -0.478045 -0.175445 211 228 249 0 0
0.719699 -0.485991 -0.175568 202 215 237 0 0
0.699280 -0.481813 -0.169124 213 226 249 0 0
0.690547 -0.492787 -0.172782 224 235 242 0 0
0.680627 -0.475516 -0.165504 212 225 250 0 0
0.681610 -0.500768 -0.173773 203 212 217 0 0
0.677627 -0.901285 -0.215864 165 163 177 0 0
0.644068 -0.887042 -0.223966 187 181 197 0 0
0.667052 -0.884706 -0.231794 200 194 201 0 0
0.657649 -0.884529 -0.232178 189 181 199 0 0
0.682376 -0.894542 -0.209955 185 177 183 0 0
0.665746 -0.896897 -0.209393 171 168 178 0 0
0.754619 -0.686421 -0.174884 165 165 170 0 0
0.746598 -0.676662 -0.180821 177 175 182 0 0
0.963342 -1.056416 0.125587 206 193 167 1 8
0.962008 -1.076530 0.159150 206 189 163 1 8
0.963260 -1.009413 0.202337 212 197 171 1 8
0.889474 -0.555081 -0.114913 228 219 209 0 0
0.946544 -0.816422 -0.002033 93 88 78 1 8
0.946496 -0.814991 -0.010355 95 95 78 1 8
0.960000 -0.809111 0.009785 117 105 94 1 8
0.956779 -0.794278 0.004222 151 138 107 1 8
0.948451 -0.791130 -0.011527 100 95 85 1 8
0.955939 -0.815350 0.005282 95 87 80 1 8
0.943597 -0.806018 -0.011846 105 99 87 1 8
0.947158 -0.797398 -0.015046 92 88 80 1 8
0.675738 -0.704330 -0.201185 197 210 245 0 0
0.662023 -0.695908 -0.198293 201 213 246 0 0
0.654591 -0.717409 -0.196070 206 212 248 0 0
0.677650 -0.726598 -0.199877 197 202 233 0 0
0.687163 -0.695728 -0.174737 210 214 241 0 0
0.652790 -0.692535 -0.179122 213 220 248 0 0
0.651812 -0.476421 -0.261879 255 254 254 12 3
0.657797 -0.498985 -0.269687 255 255 254 12 3
0.964778 -0.900610 0.287386 222 207 182 1 8
0.965027 -0.876721 0.279069 224 210 186 1 8
0.873965 -0.556021 -0.086413 233 224 208 0 0
0.910720 -0.549927 -0.130864 211 203 184 0 0
0.902248 -0.554280 -0.141166 222 211 195 0 0
0.902281 -0.552720 -0.112764 213 205 194 0 0
0.954278 -0.356489 -0.229870 155 133 109 12 3
0.955495 -0.346823 -0.206415 153 134 100 12 3
0.801203 -0.925210 -0.240451 105 98 97 0 0
0.800960 -0.939323 -0.222262 124 122 123 0 0
0.788210 -0.946370 -0.215310 165 149 136 0 0
0.788790 -0.932375 -0.222795 191 177 168 0 0
0.790250 -0.925065 -0.224156 118 113 116 0 0
0.801502 -0.927830 -0.225147 74 71 71 0 0
0.780978 -0.938040 -0.223583 138 134 139 0 0
0.801442 -0.947378 -0.217339 156 155 145 0 0
0.900183 -0.858482 0.003439 89 85 76 0 0
0.919599 -0.862830 0.001569 79 78 68 0 0
0.930370 -0.866982 -0.000646 88 86 77 1 8
0.939981 -0.706261 -0.229212 130 137 166 0 0
0.907105 -0.692722 -0.083384 76 79 80 0 0
0.923116 -0.687273 -0.107641 105 108 104 0 0
0.914047 -0.694228 -0.099612 97 100 100 0 0
0.740564 -0.711647 -0.162599 180 177 178 0 0
0.768860 -0.703646 -0.176278 181 175 176 0 0
0.774153 -0.719174 -0.175410 136 133 134 0 0
0.745211 -0.692207 -0.168180 180 176 178 0 0
0.745398 -0.699037 -0.165302 175 172 170 0 0
0.765054 -0.721430 -0.170009 164 156 154 0 0
0.965688 -0.845350 0.266510 225 212 185 1 8
0.749484 -0.410235 -0.276087 220 216 228 0 0
0.882340 -1.068033 0.047199 222 184 46 0 0
0.868757 -1.072194 0.047770 223 185 43 0 0
0.909401 -1.074939 0.044516 201 171 77 0 0
0.944658 -0.284817 -0.264338 158 138 97 12 3
0.946834 -0.305845 -0.266716 162 136 101 12 3
0.947880 -0.285832 -0.256622 149 132 98 1 8
0.808935 -1.030271 -0.057246 133 126 106 0 0
0.653209 -0.501922 -0.206211 197 198 222 0 0
0.667845 -0.694706 -0.278003 254 254 255 0 0
0.684748 -0.676266 -0.271667 254 253 255 0 0
