ply
format ascii 1.0
element vertex 1111
property float x
property float y
property float z
property uchar red
property uchar green
property uchar blue
property uchar semantic_label
property uchar instance_label
end_header
1.324568 -1.334693 -1.342559 50 50 56 7 2
0.888879 -1.330153 -1.263059 87 38 48 6 6
0.900965 -1.337348 -1.269761 90 39 47 6 6
1.731023 -1.400309 -1.462569 31 31 31 7 2
1.734713 -1.424534 -1.460814 28 29 30 7 2
1.729866 -1.787257 -1.481562 31 28 30 7 2
1.730517 -1.772509 -1.465500 34 33 32 7 2
1.736667 -1.526509 -1.456595 36 36 37 7 2
1.741691 -1.537081 -1.450015 35 35 35 7 2
1.742567 -1.556482 -1.450204 34 34 36 7 2
1.730298 -1.819553 -1.481990 53 54 57 7 2
1.740360 -1.815082 -1.495714 44 44 47 7 2
1.722063 -1.827551 -1.460731 67 68 72 7 2
1.748927 -1.789835 -1.503153 36 37 37 7 2
1.733206 -1.791800 -1.520165 36 33 35 0 0
1.750202 -1.800939 -1.496884 35 35 34 7 2
1.742261 -1.815815 -1.508914 35 34 34 7 2
1.722951 -1.795784 -1.504833 44 44 47 0 0
1.732713 -1.792709 -1.501444 34 34 33 0 0
1.740937 -1.785893 -1.511810 36 37 37 0 0
1.717094 -1.806726 -1.521220 48 49 50 0 0
1.750749 -1.781119 -1.461124 36 32 35 7 2
1.758179 -1.784107 -1.440782 34 31 33 7 2
1.749934 -1.763333 -1.443408 32 31 30 7 2
1.734467 -1.732875 -1.819769 41 41 43 2 3
1.732611 -1.796709 -1.615049 32 31 33 0 0
1.726413 -1.801874 -1.590203 51 53 55 0 0
1.744109 -1.791097 -1.599194 35 35 36 0 0
1.743626 -1.793712 -1.618854 34 34 35 0 0
1.723349 -1.803998 -1.603101 54 56 58 0 0
1.739528 -1.792086 -1.582628 35 33 34 0 0
1.748626 -1.807113 -1.603240 30 30 30 7 2
1.767801 -1.656611 -1.413870 42 38 34 7 2
1.755799 -1.655941 -1.432781 41 37 35 7 2
1.771404 -1.613078 -1.406972 41 38 34 7 2
1.749200 -1.793601 -1.603940 37 38 39 7 2
1.728640 -1.797155 -1.577627 33 33 33 0 0
1.721012 -1.814211 -1.597126 55 55 57 0 0
1.750025 -1.793464 -1.567382 36 34 35 0 0
1.723545 -1.801877 -1.557237 55 55 58 0 0
1.748180 -1.807760 -1.572650 36 31 33 7 2
1.741709 -1.788926 -1.565707 45 44 45 0 0
1.838516 -1.443362 -1.829033 46 48 46 2 3
1.783909 -1.627611 -1.826996 45 43 46 2 3
1.802951 -1.627819 -1.826680 40 40 43 2 3
1.790951 -1.652372 -1.825353 44 43 45 2 3
1.772189 -1.533282 -1.828083 45 45 46 2 3
1.761624 -1.548250 -1.827221 43 43 45 2 3
1.822314 -1.564106 -1.827269 43 43 44 2 3
1.770954 -1.392484 -1.402855 143 132 112 7 2
1.739294 -1.390370 -1.457187 38 38 41 7 2
1.741914 -1.380086 -1.454250 37 36 39 7 2
1.735339 -1.362953 -1.461914 40 40 44 7 2
1.762446 -1.517380 -1.425841 39 38 39 7 2
1.729707 -1.824752 -1.571576 59 59 62 7 2
1.722749 -1.824291 -1.563234 63 62 64 0 0
1.738052 -1.819473 -1.564405 40 41 41 7 2
1.743043 -1.817314 -1.579401 33 33 34 7 2
1.721668 -1.818557 -1.579704 63 63 66 0 0
1.741688 -1.408386 -1.455896 40 40 42 7 2
1.746898 -1.393441 -1.448453 36 38 43 7 2
1.764078 -1.449637 -1.428209 40 40 45 7 2
1.743553 -1.752087 -1.451414 34 31 30 7 2
1.747773 -1.774435 -1.445946 32 28 32 7 2
1.742212 -1.768262 -1.450110 36 33 37 7 2
1.753937 -1.367224 -1.835841 51 59 60 2 3
1.720942 -1.524211 -1.828486 44 44 45 2 3
1.754081 -1.709451 -1.821752 45 43 45 2 3
1.761757 -1.687040 -1.823074 45 43 46 2 3
1.749080 -1.492104 -1.445056 37 35 37 7 2
1.745250 -1.513663 -1.450933 34 34 34 7 2
1.735500 -1.498632 -1.463777 36 35 37 7 2
1.752835 -1.793533 -1.729491 38 37 39 0 0
1.755967 -1.804078 -1.734846 47 48 52 7 2
1.755848 -1.799111 -1.732700 46 48 51 7 2
1.725118 -1.492816 -1.829170 43 42 42 2 3
1.717517 -1.465071 -1.829501 46 44 46 2 3
1.729638 -1.451082 -1.829836 42 41 41 2 3
1.729943 -1.642399 -1.826852 40 39 42 2 3
1.760522 -1.638881 -1.826002 41 39 43 2 3
1.720271 -1.809771 -1.570410 65 65 69 0 0
1.797168 -1.603051 -1.826459 43 45 44 2 3
1.840510 -1.411545 -1.832504 53 59 60 2 3
1.793111 -1.455161 -1.828335 46 46 45 2 3
1.737840 -1.655947 -1.454850 37 34 36 7 2
1.737355 -1.642406 -1.458002 39 37 39 7 2
1.744808 -1.637831 -1.447584 36 34 34 7 2
1.738210 -1.732879 -1.460915 34 33 32 7 2
1.772595 -1.724355 -1.403523 43 38 35 7 2
1.787328 -1.493387 -1.828131 46 45 46 2 3
1.762379 -1.487943 -1.826252 43 42 43 2 3
1.744232 -1.481551 -1.828277 44 43 42 2 3
1.776203 -1.470060 -1.827756 44 43 45 2 3
1.765537 -1.512196 -1.826902 45 44 45 2 3
1.773881 -1.702706 -1.400981 40 37 36 7 2
1.739288 -1.578741 -1.826331 45 44 47 2 3
1.740412 -1.550144 -1.828440 44 44 45 2 3
1.748410 -1.685027 -1.445738 36 36 37 7 2
1.726303 -1.824469 -1.552172 68 68 72 7 2
1.742974 -1.815682 -1.545164 46 47 47 7 2
1.719322 -1.814564 -1.557663 61 58 62 0 0
1.728057 -1.823697 -1.530441 61 61 64 7 2
1.742729 -1.817575 -1.755097 69 74 80 0 0
1.747905 -1.816841 -1.752236 68 73 78 7 2
1.745919 -1.512480 -1.828808 45 43 43 2 3
1.791709 -1.514473 -1.827947 44 43 45 2 3
1.787318 -1.375008 -1.834868 52 58 56 2 3
1.814089 -1.395073 -1.832976 50 57 55 2 3
1.736742 -1.459759 -1.450678 28 28 30 7 2
1.752737 -1.474675 -1.439475 38 37 42 7 2
1.738292 -1.467661 -1.456896 35 35 37 7 2
1.819607 -1.457060 -1.829981 44 43 43 2 3
1.791283 -1.403285 -1.832603 54 61 59 2 3
1.764639 -1.382891 -1.836027 51 59 58 2 3
1.761328 -1.400658 -1.835517 54 62 61 2 3
1.760062 -1.595389 -1.826939 46 47 48 2 3
1.734648 -1.600053 -1.827045 45 44 46 2 3
1.759784 -1.484914 -1.431872 39 37 41 7 2
1.804038 -1.579906 -1.827022 45 44 46 2 3
1.822684 -1.582776 -1.827667 51 48 50 2 3
1.796051 -1.546945 -1.827147 43 43 46 2 3
1.818825 -1.410776 -1.832746 53 62 61 2 3
1.771041 -1.421907 -1.833561 56 65 62 2 3
1.807201 -1.441007 -1.829198 55 65 62 2 3
1.793494 -1.416507 -1.832529 54 63 60 2 3
1.754164 -1.788875 -1.455262 37 35 36 7 2
1.754225 -1.802176 -1.442150 31 32 30 7 2
1.739844 -1.818382 -1.738243 68 73 79 0 0
1.750596 -1.817471 -1.732468 59 61 67 7 2
1.744093 -1.821992 -1.733107 66 74 78 7 2
1.736799 -1.820687 -1.727059 71 74 82 0 0
1.738360 -1.707020 -1.457395 37 34 35 7 2
1.740473 -1.697950 -1.452431 34 34 33 7 2
1.746327 -1.804862 -1.769697 66 71 77 0 0
1.744344 -1.801898 -1.762734 55 56 61 0 0
1.749869 -1.813012 -1.684246 52 54 56 7 2
1.742005 -1.819322 -1.675939 66 69 72 7 2
1.727992 -1.810626 -1.680795 70 74 78 0 0
1.731354 -1.826561 -1.665623 70 73 77 0 0
1.732261 -1.825030 -1.656158 73 75 80 7 2
1.746301 -1.820287 -1.650383 61 63 68 7 2
1.726558 -1.817071 -1.649668 71 71 76 0 0
1.771661 -1.478267 -1.401196 88 80 70 7 2
1.766435 -1.489628 -1.417866 52 44 41 7 2
1.766973 -1.471126 -1.419528 54 46 45 7 2
1.771224 -1.748054 -1.406127 35 33 32 7 2
1.765609 -1.773841 -1.416409 36 34 33 7 2
1.762060 -1.760762 -1.421005 36 35 33 7 2
1.772951 -1.779047 -1.406216 36 34 31 7 2
1.768274 -1.785396 -1.422374 37 34 32 7 2
1.770896 -1.421589 -1.402442 144 133 117 7 2
1.767030 -1.408545 -1.424156 40 41 43 7 2
1.731479 -1.542435 -1.460742 31 32 34 7 2
1.823167 -1.543648 -1.828524 43 45 45 2 3
1.824044 -1.522872 -1.828096 47 45 46 2 3
1.759973 -1.623523 -1.826915 51 48 51 2 3
1.719580 -1.817962 -1.536869 50 51 51 0 0
1.734717 -1.817816 -1.460334 57 58 60 7 2
1.735373 -1.816064 -1.441483 52 55 55 7 2
1.749955 -1.817972 -1.425483 34 34 35 7 2
1.742711 -1.777749 -1.463037 34 34 34 7 2
1.722451 -1.789622 -1.487079 74 77 83 0 0
1.747341 -1.810272 -1.472551 32 30 30 7 2
1.746144 -1.784294 -1.489362 35 34 34 7 2
1.750160 -1.563534 -1.442805 36 37 39 7 2
1.768607 -1.570300 -1.414237 46 43 40 7 2
1.762008 -1.581758 -1.427039 38 38 37 7 2
1.766719 -1.587792 -1.417367 40 38 37 7 2
1.719483 -1.822738 -1.479034 61 62 65 0 0
1.811772 -1.485006 -1.829141 44 43 42 2 3
1.762915 -1.397468 -1.429317 41 40 42 7 2
1.745059 -1.723649 -1.449190 35 33 36 7 2
1.754142 -1.717016 -1.435774 37 35 35 7 2
1.745654 -1.793274 -1.722975 50 51 56 0 0
1.735218 -1.810990 -1.733903 70 73 80 0 0
1.737406 -1.800436 -1.731421 55 55 60 0 0
1.771322 -1.796162 -1.410084 58 52 47 7 2
1.766484 -1.808475 -1.407246 53 51 45 7 2
1.769496 -1.801833 -1.395809 58 51 43 7 2
1.773591 -1.664246 -1.825076 42 41 43 2 3
1.733464 -1.706818 -1.821512 41 41 43 2 3
1.732908 -1.672119 -1.822982 46 46 46 2 3
1.746044 -1.669231 -1.824654 44 43 45 2 3
1.733100 -1.800171 -1.663160 39 41 42 0 0
1.748339 -1.791936 -1.660811 36 35 38 0 0
1.747882 -1.792348 -1.685414 36 35 38 0 0
1.728522 -1.811912 -1.668658 73 72 79 0 0
1.744983 -1.578350 -1.444690 35 35 38 7 2
1.741534 -1.589119 -1.454931 35 37 38 7 2
1.756271 -1.430431 -1.438336 38 39 41 7 2
1.754994 -1.410156 -1.439428 38 38 43 7 2
1.741698 -1.614264 -1.454332 37 36 38 7 2
1.751687 -1.809484 -1.652842 36 33 36 7 2
1.753561 -1.796333 -1.672941 38 36 37 7 2
1.781126 -1.582074 -1.828051 48 47 49 2 3
1.760014 -1.570143 -1.826434 45 47 47 2 3
1.744261 -1.429918 -1.831255 49 58 59 2 3
1.725522 -1.416507 -1.832293 49 59 59 2 3
1.739035 -1.394776 -1.834271 53 64 61 2 3
1.721051 -1.825176 -1.496001 61 62 65 7 2
1.717609 -1.822746 -1.516906 68 70 74 0 0
1.739571 -1.816708 -1.519623 70 70 75 7 2
1.752523 -1.455060 -1.439099 37 38 45 7 2
1.745057 -1.440235 -1.450127 39 41 46 7 2
1.734459 -1.438156 -1.459199 36 35 38 7 2
1.741212 -1.454018 -1.453617 38 39 43 7 2
1.746904 -1.813389 -1.450606 33 31 32 7 2
1.749683 -1.813293 -1.439915 34 34 35 7 2
1.751635 -1.799572 -1.698848 43 43 46 7 2
1.732285 -1.805657 -1.700266 71 74 78 0 0
1.737944 -1.795750 -1.680992 58 60 64 0 0
1.741194 -1.794341 -1.701331 65 68 71 0 0
1.735593 -1.478793 -1.462638 35 37 38 7 2
1.773207 -1.559146 -1.400605 69 63 55 7 2
1.769175 -1.539507 -1.410611 49 47 43 7 2
1.765166 -1.533904 -1.421536 47 45 42 7 2
1.752180 -1.795493 -1.481790 38 36 38 7 2
1.752470 -1.786048 -1.474628 39 38 41 7 2
1.843969 -1.471100 -1.828436 44 44 44 2 3
1.764476 -1.448427 -1.829291 44 45 44 2 3
1.752402 -1.450699 -1.828615 45 44 46 2 3
1.748361 -1.794624 -1.545580 44 43 44 7 2
1.724324 -1.798108 -1.523019 34 32 32 0 0
1.744609 -1.788108 -1.525820 36 34 34 0 0
1.738931 -1.789226 -1.549889 33 33 33 0 0
1.745188 -1.788802 -1.548378 43 40 43 0 0
1.749810 -1.795556 -1.519140 43 41 43 7 2
1.722803 -1.798354 -1.539801 35 36 35 0 0
1.748887 -1.807312 -1.548301 33 33 33 7 2
1.748067 -1.807636 -1.525612 42 40 42 7 2
1.750149 -1.816207 -1.714382 63 64 69 7 2
1.737761 -1.818917 -1.712229 73 76 83 0 0
1.733010 -1.820899 -1.690187 72 74 81 0 0
1.746002 -1.820741 -1.698502 58 61 64 7 2
1.769564 -1.459349 -1.400988 48 44 37 7 2
1.767030 -1.424342 -1.420587 44 41 43 7 2
1.767371 -1.448832 -1.417240 47 44 41 7 2
1.745428 -1.725001 -1.819644 41 39 40 2 3
1.709171 -1.711940 -1.824534 41 42 44 2 3
1.756600 -1.666872 -1.431073 36 35 37 7 2
1.739352 -1.669108 -1.457050 38 36 38 7 2
1.717283 -1.818476 -1.433557 208 212 208 7 2
1.758036 -1.817765 -1.407151 176 173 159 7 2
1.800124 -1.532748 -1.826716 45 46 46 2 3
1.727432 -1.824875 -1.628000 58 61 63 0 0
1.733394 -1.823301 -1.638732 66 66 72 7 2
1.715854 -1.808211 -1.498146 56 57 59 0 0
1.724080 -1.808044 -1.641748 57 58 63 0 0
1.741726 -1.794157 -1.637561 33 33 34 0 0
1.729664 -1.799541 -1.648502 34 35 38 0 0
1.740799 -1.792496 -1.657280 32 34 34 0 0
1.724400 -1.807746 -1.630361 54 57 61 0 0
1.745185 -1.818095 -1.637816 32 33 34 7 2
1.730651 -1.798479 -1.631272 63 63 70 0 0
1.746904 -1.799245 -1.629982 34 34 38 7 2
1.748175 -1.808242 -1.624008 32 32 33 7 2
1.840588 -1.511477 -1.827711 48 47 48 2 3
1.749449 -1.793450 -1.700458 39 39 40 0 0
1.752167 -1.812006 -1.706436 48 49 52 7 2
1.765717 -1.508831 -1.421845 42 39 42 7 2
1.771371 -1.496561 -1.399324 109 99 88 7 2
1.773605 -1.523586 -1.402967 93 85 75 7 2
1.756354 -1.615247 -1.434597 37 35 36 7 2
1.764540 -1.620329 -1.420516 36 36 36 7 2
1.767043 -1.604417 -1.418251 37 37 39 7 2
1.755009 -1.593915 -1.434101 37 36 36 7 2
1.773996 -1.607303 -1.400901 50 47 43 7 2
1.741690 -1.819358 -1.611467 56 59 61 7 2
1.745181 -1.818131 -1.620070 43 45 47 7 2
1.725707 -1.828278 -1.590591 59 60 63 0 0
1.734929 -1.822150 -1.594402 58 59 62 7 2
1.723748 -1.821372 -1.609125 60 61 64 0 0
1.729162 -1.826049 -1.611327 68 71 75 7 2
1.751851 -1.801797 -1.761018 63 67 71 7 2
1.762100 -1.726813 -1.421122 37 35 35 7 2
1.764231 -1.700696 -1.417428 37 36 36 7 2
1.769017 -1.691945 -1.411479 41 38 36 7 2
1.749268 -1.539111 -1.440524 37 37 38 7 2
1.750823 -1.549930 -1.438182 37 36 39 7 2
1.760906 -1.557034 -1.427549 37 37 37 7 2
1.757840 -1.534216 -1.434830 35 36 37 7 2
1.755450 -1.744703 -1.435723 34 33 32 7 2
1.754855 -1.528672 -1.382419 223 216 197 7 2
1.761359 -1.488030 -1.386837 188 178 158 7 2
1.741394 -1.572668 -1.381504 254 249 234 7 2
1.736096 -1.522706 -1.380835 253 249 238 7 2
1.747888 -1.741269 -1.382001 236 230 216 7 2
1.760237 -1.511613 -1.384966 207 198 179 7 2
1.754674 -1.476355 -1.383112 239 232 214 7 2
1.708503 -1.774088 -1.381114 241 235 224 7 2
1.738786 -1.440725 -1.381512 254 249 236 7 2
1.741938 -1.401150 -1.381948 251 249 240 7 2
1.723953 -1.383387 -1.381899 251 249 237 7 2
1.774264 -1.651129 -1.399264 116 107 92 7 2
1.768262 -1.660364 -1.390679 134 125 105 7 2
1.773156 -1.666011 -1.400185 111 104 88 7 2
1.773381 -1.754322 -1.400372 58 52 44 7 2
1.744160 -1.815626 -1.388952 242 236 226 7 2
1.709001 -1.818808 -1.394952 242 237 226 7 2
1.733652 -1.820466 -1.405244 204 203 191 7 2
1.761008 -1.809964 -1.390442 186 176 161 7 2
1.758662 -1.804491 -1.384587 131 124 109 7 2
1.766834 -1.792620 -1.387709 167 158 142 7 2
1.709985 -1.716814 -1.381283 246 242 231 7 2
1.751675 -1.791922 -1.381643 197 191 175 7 2
1.772743 -1.775333 -1.394931 113 105 89 7 2
1.757769 -1.750751 -1.383811 213 204 192 7 2
1.767631 -1.750560 -1.389357 145 133 118 7 2
1.762460 -1.561753 -1.386539 165 154 132 7 2
1.760934 -1.460202 -1.387625 150 137 115 7 2
1.766735 -1.438665 -1.394434 148 136 115 7 2
1.752863 -1.413417 -1.383059 215 206 187 7 2
1.766405 -1.396285 -1.391026 149 138 115 7 2
1.759423 -1.419722 -1.385431 250 244 226 7 2
1.727857 -1.807368 -1.382111 243 237 225 7 2
1.748375 -1.533015 -1.381264 243 237 220 7 2
1.741953 -1.681137 -1.381829 250 244 235 7 2
1.749954 -1.647387 -1.382284 250 247 236 7 2
1.737249 -1.784177 -1.380947 241 236 224 7 2
1.699926 -1.721897 -1.381865 244 238 229 7 2
1.737605 -1.750720 -1.381327 241 235 223 7 2
1.759945 -1.595549 -1.384986 152 141 118 7 2
1.758649 -1.637880 -1.384489 152 141 121 7 2
1.763907 -1.657236 -1.386755 149 139 116 7 2
1.767804 -1.373812 -1.394371 170 162 142 7 2
1.759420 -1.379436 -1.385756 252 248 236 7 2
1.764572 -1.725060 -1.385784 137 127 108 7 2
1.770549 -1.560784 -1.394852 135 127 108 7 2
1.727453 -1.637613 -1.381281 254 248 239 7 2
1.751952 -1.603387 -1.382430 245 239 223 7 2
1.731077 -1.593012 -1.381364 254 251 239 7 2
1.741822 -1.615650 -1.381674 254 251 239 7 2
1.770583 -1.514139 -1.395307 128 119 104 7 2
1.749127 -1.458641 -1.381765 250 243 230 7 2
1.740703 -1.479672 -1.381346 249 245 232 7 2
1.772847 -1.702534 -1.395007 107 100 84 7 2
1.757856 -1.679048 -1.383111 227 222 207 7 2
1.759150 -1.731968 -1.383163 224 220 206 7 2
1.772826 -1.613981 -1.396909 117 108 92 7 2
1.765603 -1.611214 -1.388886 133 124 105 7 2
1.729720 -1.293285 -1.837968 57 67 68 2 3
1.712702 -1.264781 -1.842538 55 65 66 2 3
1.767664 -0.984861 -1.426166 155 156 160 5 4
1.765741 -0.983094 -1.413500 164 164 167 5 4
1.809327 -0.986280 -1.544465 137 129 126 5 4
1.809952 -0.986614 -1.576840 134 125 120 5 4
1.743775 -1.172207 -1.439033 60 53 48 7 2
1.744938 -1.161982 -1.437829 53 48 46 0 0
1.747076 -1.148671 -1.437377 46 44 42 0 0
1.729426 -1.212508 -1.464818 67 63 63 7 2
1.752362 -1.112787 -1.528417 39 41 43 7 2
1.747545 -1.116646 -1.539697 37 39 41 7 2
1.754208 -1.123273 -1.531405 34 34 36 7 2
1.737207 -1.113906 -1.535407 77 64 59 0 0
1.759095 -1.172902 -1.442793 45 43 45 7 2
1.750100 -1.190789 -1.456676 41 40 45 7 2
1.742314 -1.185272 -1.460031 41 41 45 7 2
1.745522 -1.178531 -1.450326 43 42 45 7 2
1.735759 -1.184161 -1.453062 69 63 59 7 2
1.732910 -1.180531 -1.438896 83 76 66 7 2
1.725982 -1.192619 -1.462282 22 20 18 7 2
1.765307 -1.168397 -1.425409 48 44 44 7 2
1.724749 -1.133844 -1.682421 64 72 71 40 1
1.731904 -1.140546 -1.713524 66 72 74 40 1
1.749585 -1.143733 -1.715818 54 54 53 40 1
1.761266 -1.137237 -1.710758 34 35 37 40 1
1.761172 -1.119112 -1.684045 37 37 36 40 1
1.762449 -1.126673 -1.704634 38 40 39 40 1
1.754132 -1.120153 -1.716824 29 32 35 40 1
1.876265 -0.983390 -1.413465 181 179 177 5 4
1.724575 -1.178575 -1.842534 64 75 75 2 3
1.732001 -1.106627 -1.444856 42 40 40 7 2
1.748684 -1.100711 -1.437483 62 54 50 7 2
1.739760 -1.099247 -1.449881 49 47 46 7 2
1.755030 -1.110147 -1.444438 48 46 47 7 2
1.742134 -1.097963 -1.431432 59 53 50 0 0
1.760222 -1.363733 -1.431641 47 43 43 7 2
1.765579 -1.310498 -1.425490 84 75 67 7 2
1.807187 -1.343406 -1.834784 54 61 63 2 3
1.813399 -1.319472 -1.836364 52 61 62 2 3
1.755398 -0.983776 -1.442671 145 144 150 5 4
1.729354 -0.984473 -1.485830 142 141 143 5 4
1.783641 -0.984247 -1.470465 145 143 145 5 4
1.798266 -0.982583 -1.395652 182 179 178 5 4
1.751301 -1.131699 -1.486997 43 42 41 0 0
1.754930 -1.132989 -1.495136 37 38 38 0 0
1.742928 -1.131289 -1.474772 40 42 44 0 0
1.730253 -1.124884 -1.477584 34 32 32 0 0
1.728108 -1.110738 -1.479589 62 50 46 0 0
1.731506 -1.122484 -1.486995 74 62 57 0 0
1.738502 -1.101162 -1.732246 31 32 36 2 3
1.749068 -1.112297 -1.726913 30 33 36 40 1
1.732733 -1.085254 -1.686751 56 60 60 40 1
1.742355 -1.109282 -1.668869 43 44 48 40 1
1.703542 -0.986947 -1.650372 121 112 102 5 4
1.752232 -1.269327 -1.446310 39 39 40 7 2
1.798042 -0.983745 -1.415404 173 171 169 5 4
1.754990 -1.230338 -1.842503 60 72 76 2 3
1.785478 -1.248950 -1.840498 60 71 75 2 3
1.755065 -1.120121 -1.515631 43 43 43 7 2
1.756727 -1.126949 -1.507533 41 42 42 7 2
1.758652 -1.124209 -1.487472 38 40 43 7 2
1.751827 -1.112462 -1.506658 39 39 41 7 2
1.733581 -1.097203 -1.758914 34 39 41 2 3
1.721494 -1.101905 -1.748305 24 26 27 2 3
1.729357 -1.096371 -1.751005 30 32 35 2 3
1.722796 -1.097967 -1.770554 30 31 35 2 3
1.744841 -1.108329 -1.775403 28 31 34 2 3
1.749089 -1.109162 -1.758832 40 46 48 2 3
1.724678 -1.107024 -1.756616 30 33 36 2 3
1.732551 -1.145093 -1.706816 81 92 93 40 1
1.736903 -1.149690 -1.694688 83 94 95 40 1
1.747471 -1.152480 -1.687584 67 76 77 40 1
1.707642 -1.067113 -1.690175 76 84 82 40 1
1.719088 -1.063718 -1.702695 90 99 97 40 1
1.704634 -1.060801 -1.710450 96 105 104 40 1
1.748992 -1.374003 -1.449271 42 39 42 7 2
1.751033 -1.343907 -1.445041 40 40 43 7 2
1.763260 -1.346706 -1.426590 40 41 42 7 2
1.770146 -1.303344 -1.836160 57 65 66 2 3
1.775268 -1.327124 -1.836501 56 66 65 2 3
1.749542 -1.325432 -1.837963 50 60 59 2 3
1.739103 -0.983996 -1.410887 165 164 164 5 4
1.719849 -0.982827 -1.400532 159 159 161 5 4
1.742006 -0.987137 -1.426259 136 140 146 5 4
1.739543 -1.170826 -1.841717 71 82 83 2 3
1.718714 -1.200005 -1.842553 58 68 71 2 3
1.827229 -1.358926 -1.834960 53 63 62 2 3
1.721180 -1.115026 -1.455508 66 60 57 0 0
1.723210 -1.120384 -1.466935 86 73 69 0 0
1.760660 -0.985793 -1.633872 126 117 111 5 4
1.745388 -0.989158 -1.650056 122 113 104 5 4
1.723440 -0.990088 -1.668514 122 113 104 5 4
1.738340 -0.991466 -1.688887 123 114 105 5 4
1.748054 -1.300488 -1.837293 69 77 81 2 3
1.757569 -1.271899 -1.841059 66 75 77 2 3
1.814083 -0.984316 -1.443278 151 149 153 5 4
1.798827 -0.984560 -1.481590 156 156 159 5 4
1.730253 -0.985375 -1.460441 134 134 140 5 4
1.718643 -1.131236 -1.695708 67 72 74 40 1
1.717508 -1.126769 -1.712448 57 64 64 40 1
1.786135 -1.349516 -1.836449 56 63 63 2 3
1.806346 -1.369192 -1.835328 54 62 63 2 3
1.854953 -0.984953 -1.508215 158 150 149 5 4
1.733433 -1.108740 -1.784067 28 32 34 2 3
1.745655 -1.117751 -1.779215 27 31 34 2 3
1.737815 -1.114992 -1.796272 26 33 34 2 3
1.738848 -1.114235 -1.806011 28 32 37 2 3
1.734992 -1.098240 -1.421125 131 115 98 0 0
1.733952 -1.075379 -1.415887 166 151 133 0 0
1.715772 -1.089623 -1.412486 160 148 130 0 0
1.729483 -1.083429 -1.412985 203 192 172 0 0
1.743208 -1.083556 -1.426384 136 122 106 0 0
1.750800 -1.084475 -1.423728 125 123 116 7 2
1.728071 -1.108959 -1.427172 118 102 89 0 0
1.722708 -0.986918 -1.624328 120 106 98 5 4
1.740246 -0.988971 -1.625252 126 111 103 5 4
1.724087 -0.987991 -1.603111 123 111 102 5 4
1.737680 -0.986341 -1.603892 125 114 105 5 4
1.768119 -1.244738 -1.425465 45 42 40 7 2
1.754348 -1.251842 -1.445635 56 57 57 7 2
1.765699 -1.268646 -1.433915 39 39 39 7 2
1.764591 -1.250932 -1.431988 39 40 38 7 2
1.770233 -1.313329 -1.405843 126 115 100 7 2
1.768920 -1.275883 -1.420424 91 82 73 7 2
1.767258 -1.291827 -1.423801 88 79 68 7 2
1.769017 -1.287138 -1.396034 134 121 103 7 2
1.758706 -1.157943 -1.706648 85 95 95 40 1
1.769468 -1.157022 -1.692741 31 35 38 40 1
1.762514 -1.165734 -1.694297 77 87 86 40 1
1.763669 -1.152125 -1.708911 58 68 69 40 1
1.760054 -1.154862 -1.683091 67 77 77 40 1
1.737221 -1.123225 -1.669330 62 59 57 40 1
1.742145 -1.140306 -1.677237 89 79 72 40 1
1.717067 -1.116820 -1.683039 110 107 94 40 1
1.729413 -1.104052 -1.671374 110 107 95 40 1
1.753344 -1.122650 -1.666690 39 42 42 40 1
1.745500 -1.327361 -1.450923 38 38 40 7 2
1.742756 -1.359320 -1.453666 41 38 41 7 2
1.746165 -1.345520 -1.452834 38 38 41 7 2
1.735170 -0.984376 -1.437606 139 140 149 5 4
1.759353 -1.107663 -1.428128 62 54 50 7 2
1.764016 -1.129682 -1.422133 134 122 109 7 2
1.767544 -1.134066 -1.401473 143 127 108 7 2
1.745609 -1.103226 -1.496841 39 41 42 7 2
1.738421 -1.105459 -1.508779 32 32 34 7 2
1.732270 -1.202343 -1.463627 68 62 63 7 2
1.735152 -1.190835 -1.461293 43 40 41 7 2
1.737777 -1.118027 -1.767413 32 34 38 2 3
1.743153 -1.108561 -1.747457 27 31 34 2 3
1.737645 -1.120136 -1.746737 33 34 38 2 3
1.749428 -1.120833 -1.751938 30 32 35 2 3
1.748028 -1.115036 -1.765347 26 30 33 2 3
1.753071 -1.103608 -1.695992 55 63 64 40 1
1.730985 -1.075290 -1.707265 66 75 75 40 1
1.748248 -1.103975 -1.678157 40 44 46 40 1
1.742165 -1.089445 -1.707470 90 99 98 40 1
1.749583 -1.106246 -1.717371 37 40 42 40 1
1.736443 -1.092080 -1.714633 59 66 67 40 1
1.719319 -1.081231 -1.714688 65 73 74 40 1
1.807637 -1.298147 -1.835411 54 62 62 2 3
1.710844 -0.917908 -1.613964 79 72 65 5 4
1.776452 -0.985994 -1.545840 140 132 130 5 4
1.787452 -0.986206 -1.614840 133 122 118 5 4
1.810952 -0.985355 -1.595840 135 125 121 5 4
1.732827 -1.221387 -1.843075 61 70 75 2 3
1.757361 -1.117360 -1.459659 40 39 44 7 2
1.767823 -1.222183 -1.409643 77 71 63 7 2
1.768820 -1.208023 -1.399919 139 126 106 7 2
1.739794 -1.237514 -1.459223 42 41 40 7 2
1.738992 -1.221250 -1.459002 40 38 39 7 2
1.742022 -1.204475 -1.460112 38 39 42 7 2
1.747485 -1.234429 -1.453969 36 36 37 7 2
1.756881 -0.989005 -1.669046 126 117 110 5 4
1.725466 -0.986155 -1.508844 129 121 118 5 4
1.750452 -0.984543 -1.498340 134 129 130 5 4
1.713859 -0.989627 -1.503667 133 127 127 5 4
1.743848 -1.114066 -1.742102 32 33 37 2 3
1.733594 -1.113577 -1.742413 29 33 35 2 3
1.740555 -1.117245 -1.734157 31 34 37 40 1
1.749235 -1.123309 -1.719942 23 27 29 40 1
1.721045 -1.158941 -1.840617 67 76 77 2 3
1.757642 -1.110954 -1.705625 34 35 39 40 1
1.705800 -1.243823 -1.844963 54 65 66 2 3
1.735207 -1.267146 -1.840610 56 68 68 2 3
1.746958 -1.134110 -1.456005 39 38 39 0 0
1.735666 -1.140478 -1.421914 123 111 98 0 0
1.740454 -1.136286 -1.446333 44 42 42 0 0
1.735008 -1.127019 -1.437309 103 94 83 0 0
1.729322 -1.110552 -1.437030 91 77 75 0 0
1.731935 -1.127174 -1.460856 56 49 50 0 0
1.761953 -1.131198 -1.679358 33 36 36 40 1
1.759234 -1.143459 -1.442918 41 41 43 0 0
1.759540 -1.159879 -1.432507 42 40 43 7 2
1.749785 -1.108586 -1.480935 42 42 45 7 2
1.751261 -1.106920 -1.465303 41 42 46 7 2
1.735036 -1.103163 -1.486887 48 47 49 7 2
1.739098 -1.105003 -1.469146 61 57 50 7 2
1.731741 -1.101730 -1.461293 47 44 46 7 2
1.754452 -0.985437 -1.535840 140 132 129 5 4
1.723101 -1.093792 -1.777819 42 48 51 2 3
1.728679 -1.091009 -1.779417 42 48 51 2 3
1.726914 -1.095923 -1.789084 27 31 34 2 3
1.730736 -1.093284 -1.796674 43 48 50 2 3
1.742310 -1.104824 -1.793083 39 44 47 2 3
1.873860 -0.985067 -1.446479 168 167 167 5 4
1.755547 -0.986679 -1.620641 127 116 107 5 4
1.768740 -1.349698 -1.836262 54 64 63 2 3
1.726073 -1.318260 -1.837089 50 60 61 2 3
1.732538 -1.345734 -1.837418 52 61 62 2 3
1.759381 -1.279861 -1.436606 45 43 44 7 2
1.733293 -1.060308 -1.413568 182 182 174 0 0
1.721535 -1.047494 -1.414288 129 142 143 0 0
1.766834 -1.191300 -1.424477 40 39 39 7 2
1.761578 -1.201020 -1.445120 39 40 44 7 2
1.765229 -1.175708 -1.438024 41 41 44 7 2
1.761489 -1.183061 -1.449286 37 38 43 7 2
1.753087 -1.286921 -1.442546 40 38 37 7 2
1.743486 -1.271424 -1.453515 40 38 37 7 2
1.740138 -1.284537 -1.456582 48 48 50 7 2
1.747192 -1.293348 -1.451979 38 38 40 7 2
1.768992 -1.274223 -1.411047 111 101 86 7 2
1.767706 -1.257358 -1.424178 47 44 41 7 2
1.821104 -0.985004 -1.432203 166 164 167 5 4
1.778666 -1.271555 -1.840099 68 76 77 2 3
1.744253 -1.241983 -1.843175 56 67 70 2 3
1.735814 -1.165105 -1.422561 123 111 96 0 0
1.739844 -1.155237 -1.423206 130 117 103 0 0
1.756362 -1.311072 -1.440851 40 40 41 7 2
1.764477 -1.325632 -1.427674 40 39 42 7 2
1.761885 -1.092981 -1.400095 143 129 110 7 2
1.765933 -1.109097 -1.404808 137 125 110 7 2
1.756365 -1.088161 -1.396002 138 133 127 7 2
1.730512 -0.991365 -1.695539 123 115 107 5 4
1.842704 -0.985736 -1.530090 145 138 136 5 4
1.829390 -0.986308 -1.551215 141 133 132 5 4
1.772683 -0.983058 -1.436897 154 154 158 5 4
1.749474 -1.128985 -1.512377 35 33 33 0 0
1.738895 -1.107561 -1.522020 54 50 48 7 2
1.743685 -1.126348 -1.505147 36 38 38 0 0
1.742406 -1.123424 -1.523770 18 20 21 0 0
1.776766 -0.986701 -1.588906 132 123 114 5 4
1.728287 -0.987213 -1.562931 124 114 110 5 4
1.754049 -1.077338 -1.406792 132 138 137 7 2
1.864952 -0.984747 -1.468840 167 166 164 5 4
1.739627 -1.074173 -1.428229 131 131 126 0 0
1.733554 -1.057418 -1.408127 129 142 142 7 2
1.743659 -1.070770 -1.422496 131 131 125 7 2
1.741997 -1.076042 -1.396248 162 168 169 7 2
1.728493 -1.122430 -1.415375 136 124 114 0 0
1.724149 -1.108571 -1.419494 200 191 175 0 0
1.732509 -1.121539 -1.424898 111 97 88 0 0
1.731776 -1.136065 -1.412997 171 159 149 0 0
1.725151 -1.142596 -1.411892 227 220 206 0 0
1.763827 -1.142997 -1.436898 43 44 47 7 2
1.759321 -1.129221 -1.460945 39 40 45 7 2
1.761586 -1.138465 -1.447904 42 42 46 7 2
1.757917 -1.131495 -1.467610 41 41 44 7 2
1.840204 -0.985381 -1.476215 159 159 162 5 4
1.854452 -0.984079 -1.434840 166 165 166 5 4
1.740092 -1.314235 -1.458080 44 46 50 7 2
1.736492 -1.296072 -1.458590 42 41 45 7 2
1.822704 -0.985251 -1.509590 149 145 142 5 4
1.793453 -0.985644 -1.508652 151 146 144 5 4
1.753952 -0.984611 -1.520840 148 142 140 5 4
1.748006 -0.987120 -1.583510 123 112 103 5 4
1.769840 -1.360537 -1.405412 126 117 103 7 2
1.767483 -1.382551 -1.418048 94 87 77 7 2
1.768306 -1.336761 -1.414202 99 90 76 7 2
1.766714 -1.175612 -1.417018 127 117 103 7 2
1.767699 -1.199007 -1.421374 118 109 94 7 2
1.766507 -1.223630 -1.428018 43 41 41 7 2
1.746750 -1.214666 -1.454504 40 38 41 7 2
1.762130 -1.226580 -1.440181 40 39 41 7 2
1.756727 -1.240535 -1.442675 39 38 40 7 2
1.711807 -0.912636 -1.212872 208 185 184 5 4
1.767290 -1.160011 -1.399553 145 131 110 7 2
1.737703 -0.979217 -1.267902 202 187 181 5 4
1.738952 -0.980418 -1.297215 206 191 187 5 4
1.787827 -0.978493 -1.246155 209 193 183 5 4
1.839953 -0.984218 -1.422840 189 184 181 5 4
1.768613 -1.250742 -1.398741 170 159 139 7 2
1.852185 -0.976339 -1.204858 224 204 201 5 4
1.769861 -1.310922 -1.398311 140 127 108 7 2
1.735653 -0.917750 -1.211048 203 178 177 5 4
1.719383 -0.897375 -1.218810 69 48 41 5 4
1.727083 -0.913755 -1.218223 139 118 113 5 4
1.746753 -0.907958 -1.220102 49 37 30 5 4
1.774958 -0.923244 -1.177960 231 227 225 5 4
1.749575 -0.927640 -1.176601 222 220 221 5 4
1.779680 -0.941102 -1.178779 241 229 228 5 4
1.798140 -0.979512 -1.314777 206 194 186 5 4
1.751454 -0.981953 -1.362340 192 184 180 5 4
1.711952 -0.981460 -1.364840 197 187 182 5 4
1.739455 -0.980673 -1.343396 203 191 185 5 4
1.765846 -1.337750 -1.389586 150 137 117 7 2
1.763889 -1.302615 -1.389984 226 219 203 7 2
1.750644 -1.336523 -1.382829 252 248 235 7 2
1.719795 -0.913782 -1.205324 228 220 217 5 4
1.718054 -0.901048 -1.197574 207 204 200 5 4
1.744134 -0.900595 -1.196865 200 201 198 5 4
1.724693 -0.903503 -1.184716 171 174 173 5 4
1.732266 -0.898267 -1.193126 190 191 189 5 4
1.720453 -1.317387 -1.382913 251 248 237 7 2
1.882952 -0.982698 -1.385840 187 182 181 5 4
1.790745 -0.978373 -1.215645 209 193 184 5 4
1.805952 -0.979348 -1.252840 213 198 188 5 4
1.829016 -0.968198 -1.188222 244 223 223 5 4
1.825159 -0.976570 -1.203461 224 204 201 5 4
1.827323 -0.973822 -1.195175 227 207 202 5 4
1.853713 -0.971877 -1.193977 230 209 206 5 4
1.731453 -0.979105 -1.233340 202 187 180 5 4
1.732188 -0.975309 -1.196176 213 192 190 5 4
1.740308 -1.244983 -1.383626 254 248 239 7 2
1.740277 -1.118519 -1.386518 250 250 241 7 2
1.742436 -1.293817 -1.382162 252 247 235 7 2
1.748008 -0.891281 -1.219353 89 60 53 5 4
1.807953 -0.981821 -1.359402 195 186 183 5 4
1.785952 -0.982219 -1.379637 189 181 179 5 4
1.821953 -0.979452 -1.281840 206 193 184 5 4
1.749336 -1.224493 -1.383788 252 248 237 7 2
1.767078 -0.979275 -1.276090 205 192 185 5 4
1.789703 -0.979245 -1.280090 205 191 185 5 4
1.759991 -1.298067 -1.386916 237 232 215 7 2
1.755050 -1.265293 -1.384387 249 246 231 7 2
1.718733 -0.980297 -1.309752 205 190 186 5 4
1.739702 -0.980778 -1.319590 205 191 185 5 4
1.758097 -1.314088 -1.384329 251 248 235 7 2
1.760113 -1.357039 -1.384902 238 233 218 7 2
1.745902 -1.372747 -1.382916 252 250 238 7 2
1.769281 -1.358981 -1.398577 148 138 116 7 2
1.762017 -1.188135 -1.389191 205 198 174 7 2
1.764705 -1.138999 -1.394073 145 128 108 7 2
1.755674 -0.979523 -1.339322 204 193 184 5 4
1.768078 -0.979598 -1.313715 208 194 188 5 4
1.805515 -0.934807 -1.178328 239 230 228 5 4
1.746372 -1.099171 -1.387668 247 240 227 7 2
1.765764 -1.220268 -1.393803 149 136 116 7 2
1.716781 -0.936095 -1.178051 234 229 226 5 4
1.746900 -0.934952 -1.177173 234 228 226 5 4
1.725448 -0.926957 -1.176620 224 223 225 5 4
1.753444 -0.978295 -1.205180 208 190 185 5 4
1.763952 -0.977671 -1.226840 211 193 185 5 4
1.782149 -0.977024 -1.205162 219 199 197 5 4
1.731831 -0.964362 -1.185348 245 230 230 5 4
1.747731 -0.956116 -1.182525 242 229 229 5 4
1.721525 -0.972810 -1.190766 226 205 205 5 4
1.739417 -1.151392 -1.385896 250 246 234 7 2
1.754245 -1.143373 -1.387186 251 248 234 7 2
1.756953 -0.983082 -1.374840 190 181 179 5 4
1.869952 -0.979605 -1.244840 210 195 188 5 4
1.833203 -0.978569 -1.245652 209 194 184 5 4
1.762705 -1.240227 -1.388085 211 204 185 7 2
1.760391 -1.218897 -1.388179 237 232 215 7 2
1.756107 -1.241505 -1.384725 241 238 220 7 2
1.854854 -0.978552 -1.218321 215 196 191 5 4
1.831952 -0.977861 -1.214840 214 195 190 5 4
1.702251 -1.101359 -1.387669 251 250 239 7 2
1.741172 -0.899015 -1.188587 190 191 191 5 4
1.778003 -0.913940 -1.210819 220 208 204 5 4
1.777135 -0.906100 -1.200286 223 222 220 5 4
1.755574 -0.914972 -1.179146 202 203 202 5 4
1.731793 -1.260060 -1.383908 251 247 236 7 2
1.793534 -0.915926 -1.217273 175 148 139 5 4
1.792873 -0.916501 -1.210546 197 173 174 5 4
1.797186 -0.982256 -1.344238 207 195 186 5 4
1.765891 -0.964051 -1.186166 242 225 225 5 4
1.791617 -0.967155 -1.187953 236 215 216 5 4
1.753380 -0.973780 -1.192420 229 208 209 5 4
1.766615 -0.973436 -1.194013 225 206 206 5 4
1.795944 -0.972899 -1.194111 229 208 208 5 4
1.798907 -0.956465 -1.181934 242 224 224 5 4
1.859953 -0.981574 -1.342840 197 187 181 5 4
1.823703 -0.981100 -1.320590 208 195 188 5 4
1.762419 -0.899081 -1.219585 72 52 46 5 4
1.757184 -0.914348 -1.216520 176 149 147 5 4
1.775189 -0.911132 -1.218221 174 148 139 5 4
1.757901 -0.910716 -1.202163 203 182 180 5 4
1.741812 -0.917152 -1.207341 192 172 173 5 4
1.851952 -0.980151 -1.292840 209 195 187 5 4
1.878702 -0.981346 -1.318590 203 190 183 5 4
1.719952 -1.357387 -1.382173 251 248 238 7 2
1.752256 -1.353534 -1.382041 251 249 239 7 2
1.754008 -1.190250 -1.385333 252 249 232 7 2
1.774953 -0.981977 -1.353840 202 191 186 5 4
1.768289 -1.190633 -1.402208 143 128 108 7 2
1.757857 -1.106600 -1.391023 185 175 157 7 2
1.759166 -1.140278 -1.388913 233 226 208 7 2
1.375191 -1.704297 -1.304804 0 255 0 77 7
1.384987 -1.702290 -1.377794 0 255 0 77 7
1.351477 -1.682899 -1.344804 0 255 0 77 7
1.370281 -1.731879 -1.344804 0 255 0 77 7
1.397617 -1.681351 -1.338804 0 255 0 77 7
1.401879 -1.716104 -1.348804 0 255 0 77 7
1.353890 -1.709993 -1.364804 0 255 0 77 7
1.376698 -1.673947 -1.361802 0 255 0 77 7
1.354687 -1.710163 -1.328448 0 255 0 77 7
1.372663 -1.683313 -1.323637 0 255 0 77 7
1.385573 -1.718772 -1.325674 0 255 0 77 7
1.402021 -1.693643 -1.360804 0 255 0 77 7
1.382369 -1.724225 -1.365095 0 255 0 77 7
1.392278 -1.696842 -1.322804 0 255 0 77 7
1.352455 -1.720664 -1.346804 0 255 0 77 7
1.377071 -1.672196 -1.340804 0 255 0 77 7
1.346843 -1.702361 -1.344804 0 255 0 77 7
1.374580 -1.703156 -1.326804 0 255 0 77 7
1.404783 -1.700364 -1.338804 0 255 0 77 7
1.388285 -1.727527 -1.342804 0 255 0 77 7
1.355294 -1.691889 -1.328804 0 255 0 77 7
1.364688 -1.724556 -1.360804 0 255 0 77 7
1.368260 -1.723271 -1.329042 0 255 0 77 7
1.393521 -1.710238 -1.363841 0 255 0 77 7
1.387404 -1.686446 -1.368804 0 255 0 77 7
1.392414 -1.676965 -1.354804 0 255 0 77 7
1.390604 -1.709618 -1.338804 0 255 0 77 7
1.383985 -1.687764 -1.333790 0 255 0 77 7
1.366009 -1.714614 -1.373768 0 255 0 77 7
1.349555 -1.695830 -1.358804 0 255 0 77 7
1.361342 -1.678862 -1.333989 0 255 0 77 7
1.365301 -1.708329 -1.314984 0 255 0 77 7
1.364053 -1.714198 -1.339785 0 255 0 77 7
1.395101 -1.693183 -1.346804 0 255 0 77 7
1.377331 -1.719065 -1.339761 0 255 0 77 7
1.376706 -1.722008 -1.352804 0 255 0 77 7
1.379949 -1.697130 -1.316130 0 255 0 77 7
1.392638 -1.724008 -1.356804 0 255 0 77 7
1.366256 -1.694219 -1.320049 0 255 0 77 7
1.395612 -1.708638 -1.326804 0 255 0 77 7
1.407337 -1.702951 -1.351170 0 255 0 77 7
1.385442 -1.680912 -1.344804 0 255 0 77 7
1.394059 -1.698084 -1.369568 0 255 0 77 7
1.374119 -1.714945 -1.320804 0 255 0 77 7
1.362172 -1.674949 -1.345786 0 255 0 77 7
1.356553 -1.701385 -1.336804 0 255 0 77 7
1.394429 -1.720654 -1.334804 0 255 0 77 7
1.391182 -1.697473 -1.334804 0 255 0 77 7
1.353630 -1.709938 -1.352804 0 255 0 77 7
1.377949 -1.716160 -1.372804 0 255 0 77 7
1.383740 -1.708159 -1.320045 0 255 0 77 7
1.383985 -1.687764 -1.321996 0 255 0 77 7
1.396169 -1.702622 -1.354804 0 255 0 77 7
1.361665 -1.725439 -1.338804 0 255 0 77 7
1.381394 -1.676990 -1.330804 0 255 0 77 7
1.394599 -1.685931 -1.328724 0 255 0 77 7
1.349419 -1.713132 -1.338804 0 255 0 77 7
1.362997 -1.719166 -1.350804 0 255 0 77 7
1.400348 -1.685109 -1.352804 0 255 0 77 7
1.349634 -1.692731 -1.338804 0 255 0 77 7
1.390104 -1.716694 -1.348804 0 255 0 77 7
1.401346 -1.711901 -1.337194 0 255 0 77 7
1.381916 -1.726354 -1.332804 0 255 0 77 7
1.388508 -1.717351 -1.370804 0 255 0 77 7
1.382509 -1.673138 -1.352804 0 255 0 77 7
1.382378 -1.709914 -1.330804 0 255 0 77 7
1.364053 -1.714198 -1.324269 0 255 0 77 7
1.365717 -1.706373 -1.331782 0 255 0 77 7
1.358723 -1.700797 -1.323641 0 255 0 77 7
1.355624 -1.718540 -1.358804 0 255 0 77 7
1.380358 -1.695211 -1.304804 0 255 0 77 7
1.400481 -1.695360 -1.330804 0 255 0 77 7
1.348233 -1.692433 -1.349197 0 255 0 77 7
1.365337 -1.688924 -1.328804 0 255 0 77 7
1.371458 -1.674878 -1.332804 0 255 0 77 7
1.395199 -1.684014 -1.362804 0 255 0 77 7
1.386207 -1.677309 -1.362804 0 255 0 77 7
1.382890 -1.697755 -1.328804 0 255 0 77 7
1.383349 -1.729236 -1.354804 0 255 0 77 7
1.402592 -1.710122 -1.356804 0 255 0 77 7
1.405089 -1.694295 -1.346729 0 255 0 77 7
1.372785 -1.673116 -1.349771 0 255 0 77 7
1.372444 -1.722821 -1.366804 0 255 0 77 7
1.375622 -1.698255 -1.296753 0 255 0 77 7
1.396206 -1.702630 -1.342804 0 255 0 77 7
1.371242 -1.699618 -1.312804 0 255 0 77 7
1.362637 -1.715942 -1.364804 0 255 0 77 7
1.356150 -1.718652 -1.334804 0 255 0 77 7
1.372493 -1.712975 -1.332804 0 255 0 77 7
1.379165 -1.729678 -1.341367 0 255 0 77 7
1.390920 -1.707641 -1.372804 0 255 0 77 7
1.400089 -1.703455 -1.364804 0 255 0 77 7
1.401990 -1.689636 -1.338804 0 255 0 77 7
1.371090 -1.729194 -1.354804 0 255 0 77 7
1.374497 -1.693926 -1.325774 0 255 0 77 7
1.390066 -1.688010 -1.340804 0 255 0 77 7
1.353896 -1.685028 -1.334804 0 255 0 77 7
1.349897 -1.684608 -1.353772 0 255 0 77 7
1.390228 -1.677635 -1.334804 0 255 0 77 7
1.379987 -1.682825 -1.372804 0 255 0 77 7
1.356072 -1.708412 -1.342804 0 255 0 77 7
1.349014 -1.704867 -1.358804 0 255 0 77 7
1.373162 -1.728402 -1.334804 0 255 0 77 7
1.368412 -1.698767 -1.302804 0 255 0 77 7
1.350216 -1.698989 -1.330804 0 255 0 77 7
1.395684 -1.709681 -1.348804 0 255 0 77 7
1.391670 -1.685308 -1.350804 0 255 0 77 7
1.396856 -1.723406 -1.348804 0 255 0 77 7
1.398143 -1.717354 -1.359277 0 255 0 77 7
1.404917 -1.708571 -1.344804 0 255 0 77 7
1.395730 -1.677993 -1.346804 0 255 0 77 7
1.382989 -1.721312 -1.346804 0 255 0 77 7
1.373957 -1.706080 -1.318702 0 255 0 77 7
1.376549 -1.722752 -1.326804 0 255 0 77 7
1.367380 -1.698548 -1.327755 0 255 0 77 7
1.388940 -1.717443 -1.360804 0 255 0 77 7
1.376576 -1.684145 -1.331767 0 255 0 77 7
1.368867 -1.720415 -1.344804 0 255 0 77 7
1.401054 -1.703660 -1.331711 0 255 0 77 7
1.363344 -1.727152 -1.346804 0 255 0 77 7
1.384228 -1.715478 -1.336804 0 255 0 77 7
1.387119 -1.673023 -1.342804 0 255 0 77 7
1.394799 -1.690063 -1.356804 0 255 0 77 7
1.387189 -1.682311 -1.328174 0 255 0 77 7
1.349077 -1.704881 -1.336804 0 255 0 77 7
1.392407 -1.691599 -1.364804 0 255 0 77 7
1.368540 -1.673855 -1.340804 0 255 0 77 7
1.348313 -1.711299 -1.346804 0 255 0 77 7
1.381319 -1.681064 -1.337769 0 255 0 77 7
1.375668 -1.726890 -1.360877 0 255 0 77 7
1.388483 -1.705078 -1.331742 0 255 0 77 7
1.377024 -1.730130 -1.348804 0 255 0 77 7
1.366548 -1.702460 -1.319872 0 255 0 77 7
1.403425 -1.702120 -1.357976 0 255 0 77 7
1.367211 -1.680109 -1.328006 0 255 0 77 7
1.400882 -1.685222 -1.344985 0 255 0 77 7
1.371629 -1.707419 -1.310804 0 255 0 77 7
1.384932 -1.721784 -1.354804 0 255 0 77 7
1.360475 -1.697080 -1.330804 0 255 0 77 7
1.361559 -1.725936 -1.354057 0 255 0 77 7
1.393097 -1.716282 -1.328804 0 255 0 77 7
1.395052 -1.698295 -1.360804 0 255 0 77 7
1.347911 -1.700543 -1.352804 0 255 0 77 7
1.398596 -1.719495 -1.342804 0 255 0 77 7
1.389055 -1.703155 -1.320804 0 255 0 77 7
1.361388 -1.707497 -1.322530 0 255 0 77 7
1.389023 -1.692924 -1.371721 0 255 0 77 7
1.368442 -1.722407 -1.354804 0 255 0 77 7
1.356058 -1.694096 -1.335769 0 255 0 77 7
1.360802 -1.691015 -1.323510 0 255 0 77 7
1.367912 -1.705668 -1.300804 0 255 0 77 7
1.377284 -1.690429 -1.320165 0 255 0 77 7
1.375867 -1.677860 -1.367755 0 255 0 77 7
1.389980 -1.726897 -1.350804 0 255 0 77 7
1.357966 -1.713982 -1.348804 0 255 0 77 7
1.379727 -1.682770 -1.324804 0 255 0 77 7
1.394501 -1.710447 -1.356804 0 255 0 77 7
1.350534 -1.717458 -1.352804 0 255 0 77 7
1.385648 -1.679939 -1.351802 0 255 0 77 7
1.396893 -1.700732 -1.326804 0 255 0 77 7
1.388439 -1.724526 -1.334804 0 255 0 77 7
1.404672 -1.696251 -1.354253 0 255 0 77 7
1.361179 -1.708488 -1.336804 0 255 0 77 7
1.380246 -1.691059 -1.328804 0 255 0 77 7
1.359683 -1.717358 -1.328804 0 255 0 77 7
1.389192 -1.711363 -1.323145 0 255 0 77 7
1.377527 -1.702749 -1.312804 0 255 0 77 7
1.359926 -1.684695 -1.328804 0 255 0 77 7
1.397972 -1.694827 -1.352804 0 255 0 77 7
1.382541 -1.673145 -1.336804 0 255 0 77 7
1.355123 -1.722523 -1.352804 0 255 0 77 7
1.394336 -1.718590 -1.364804 0 255 0 77 7
1.380436 -1.675604 -1.346804 0 255 0 77 7
1.389146 -1.682727 -1.359939 0 255 0 77 7
1.353377 -1.701705 -1.342804 0 255 0 77 7
1.400468 -1.687178 -1.359442 0 255 0 77 7
1.387013 -1.717033 -1.342804 0 255 0 77 7
1.362386 -1.722046 -1.332804 0 255 0 77 7
1.376218 -1.695450 -1.310804 0 255 0 77 7
1.351813 -1.704452 -1.348804 0 255 0 77 7
1.356427 -1.711598 -1.358804 0 255 0 77 7
1.386235 -1.696421 -1.320069 0 255 0 77 7
1.392728 -1.694733 -1.340804 0 255 0 77 7
1.367982 -1.729346 -1.338804 0 255 0 77 7
1.388545 -1.724026 -1.362804 0 255 0 77 7
1.368798 -1.711117 -1.320225 0 255 0 77 7
1.356171 -1.722421 -1.340804 0 255 0 77 7
1.366950 -1.719808 -1.368804 0 255 0 77 7
1.369459 -1.688766 -1.321716 0 255 0 77 7
1.383225 -1.729821 -1.346804 0 255 0 77 7
1.396309 -1.706741 -1.369276 0 255 0 77 7
1.392487 -1.676621 -1.340804 0 255 0 77 7
1.380535 -1.713612 -1.321446 0 255 0 77 7
1.396329 -1.692433 -1.326804 0 255 0 77 7
1.399986 -1.709567 -1.362804 0 255 0 77 7
1.361464 -1.716758 -1.356804 0 255 0 77 7
1.353979 -1.703878 -1.327456 0 255 0 77 7
1.398590 -1.688824 -1.332804 0 255 0 77 7
1.382151 -1.677151 -1.357876 0 255 0 77 7
1.398803 -1.695003 -1.366146 0 255 0 77 7
1.389854 -1.689012 -1.324088 0 255 0 77 7
1.374428 -1.698001 -1.304804 0 255 0 77 7
1.406786 -1.700789 -1.344804 0 255 0 77 7
1.395909 -1.682120 -1.356804 0 255 0 77 7
1.404646 -1.710558 -1.350804 0 255 0 77 7
1.392048 -1.717168 -1.354804 0 255 0 77 7
1.375867 -1.677860 -1.337703 0 255 0 77 7
1.396590 -1.700667 -1.348804 0 255 0 77 7
1.374741 -1.721631 -1.346804 0 255 0 77 7
1.388664 -1.675376 -1.348804 0 255 0 77 7
1.391854 -1.703750 -1.336804 0 255 0 77 7
1.357819 -1.724288 -1.346804 0 255 0 77 7
1.371065 -1.719687 -1.324804 0 255 0 77 7
1.378873 -1.721437 -1.369649 0 255 0 77 7
1.383031 -1.701874 -1.318619 0 255 0 77 7
1.370925 -1.681875 -1.332804 0 255 0 77 7
1.374374 -1.704123 -1.298219 0 255 0 77 7
1.382614 -1.703831 -1.327755 0 255 0 77 7
1.369708 -1.716452 -1.338804 0 255 0 77 7
1.397662 -1.715208 -1.332804 0 255 0 77 7
1.372124 -1.695467 -1.318651 0 255 0 77 7
1.348942 -1.698718 -1.337553 0 255 0 77 7
1.375499 -1.708452 -1.329802 0 255 0 77 7
1.402444 -1.714179 -1.342804 0 255 0 77 7
1.378164 -1.715152 -1.333766 0 255 0 77 7
1.379281 -1.701077 -1.300804 0 255 0 77 7
1.377209 -1.729262 -1.355324 0 255 0 77 7
1.351022 -1.688936 -1.343773 0 255 0 77 7
1.375867 -1.677860 -1.328304 0 255 0 77 7
1.366624 -1.711729 -1.334804 0 255 0 77 7
1.403671 -1.706261 -1.336804 0 255 0 77 7
1.347731 -1.706639 -1.352804 0 255 0 77 7
1.350192 -1.696939 -1.344804 0 255 0 77 7
1.357061 -1.708622 -1.369795 0 255 0 77 7
1.386997 -1.683214 -1.338804 0 255 0 77 7
1.366623 -1.677940 -1.336804 0 255 0 77 7
1.387066 -1.692509 -1.331733 0 255 0 77 7
1.380594 -1.722955 -1.358804 0 255 0 77 7
1.384606 -1.718566 -1.364804 0 255 0 77 7
1.394984 -1.708504 -1.342804 0 255 0 77 7
1.373788 -1.687641 -1.327632 0 255 0 77 7
1.352022 -1.703462 -1.363790 0 255 0 77 7
1.393214 -1.714262 -1.368804 0 255 0 77 7
1.432193 -1.528303 -1.240157 255 255 0 89 8
1.373797 -1.524069 -1.383699 255 255 0 89 8
1.482538 -1.530825 -1.344804 255 255 0 89 8
1.423802 -1.596639 -1.306804 255 255 0 89 8
1.419278 -1.478530 -1.318804 255 255 0 89 8
1.435076 -1.582077 -1.383785 255 255 0 89 8
1.379268 -1.539545 -1.312804 255 255 0 89 8
1.450604 -1.480162 -1.382804 255 255 0 89 8
1.460852 -1.550752 -1.290804 255 255 0 89 8
1.389906 -1.568387 -1.356804 255 255 0 89 8
1.401847 -1.507539 -1.277995 255 255 0 89 8
1.464693 -1.500451 -1.305905 255 255 0 89 8
1.456372 -1.574336 -1.338804 255 255 0 89 8
1.412192 -1.556766 -1.276804 255 255 0 89 8
1.473445 -1.555473 -1.383746 255 255 0 89 8
1.478449 -1.512694 -1.382804 255 255 0 89 8
1.383115 -1.499469 -1.321777 255 255 0 89 8
1.467635 -1.490853 -1.346804 255 255 0 89 8
1.441637 -1.503107 -1.270804 255 255 0 89 8
1.408008 -1.565122 -1.322804 255 255 0 89 8
1.372656 -1.525871 -1.346804 255 255 0 89 8
1.422506 -1.583495 -1.350121 255 255 0 89 8
1.429872 -1.587316 -1.272804 255 255 0 89 8
1.438598 -1.565500 -1.310804 255 255 0 89 8
1.438134 -1.476404 -1.346804 255 255 0 89 8
1.476289 -1.531541 -1.312804 255 255 0 89 8
1.441301 -1.548641 -1.264804 255 255 0 89 8
1.405599 -1.530829 -1.256804 255 255 0 89 8
1.385998 -1.553243 -1.383795 255 255 0 89 8
1.389739 -1.535636 -1.284245 255 255 0 89 8
1.438906 -1.487097 -1.296804 255 255 0 89 8
1.405315 -1.577796 -1.381272 255 255 0 89 8
1.464447 -1.520846 -1.283741 255 255 0 89 8
1.474114 -1.557660 -1.354804 255 255 0 89 8
1.467388 -1.558275 -1.318804 255 255 0 89 8
1.456946 -1.574458 -1.368804 255 255 0 89 8
1.450165 -1.482227 -1.322804 255 255 0 89 8
1.377939 -1.552675 -1.336804 255 255 0 89 8
1.476293 -1.509051 -1.328804 255 255 0 89 8
1.395276 -1.557688 -1.298804 255 255 0 89 8
1.375779 -1.505119 -1.364804 255 255 0 89 8
1.386489 -1.512454 -1.298848 255 255 0 89 8
1.420008 -1.508669 -1.256804 255 255 0 89 8
1.436560 -1.565469 -1.284804 255 255 0 89 8
1.449206 -1.525219 -1.258804 255 255 0 89 8
1.481549 -1.534704 -1.370804 255 255 0 89 8
1.375293 -1.544834 -1.362804 255 255 0 89 8
1.430558 -1.597474 -1.330804 255 255 0 89 8
1.415676 -1.571820 -1.298804 255 255 0 89 8
1.473449 -1.512536 -1.358804 255 255 0 89 8
1.468610 -1.491645 -1.370804 255 255 0 89 8
1.419452 -1.492044 -1.282804 255 255 0 89 8
1.433032 -1.572447 -1.332804 255 255 0 89 8
1.421832 -1.546547 -1.252804 255 255 0 89 8
1.376529 -1.520560 -1.324804 255 255 0 89 8
1.428204 -1.566304 -1.263211 255 255 0 89 8
1.403468 -1.576862 -1.340804 255 255 0 89 8
1.387580 -1.559713 -1.318804 255 255 0 89 8
1.470308 -1.546628 -1.336804 255 255 0 89 8
1.450348 -1.505581 -1.290804 255 255 0 89 8
1.440840 -1.574198 -1.354804 255 255 0 89 8
1.434726 -1.473635 -1.370804 255 255 0 89 8
1.451752 -1.484377 -1.360804 255 255 0 89 8
1.449383 -1.534001 -1.277769 255 255 0 89 8
1.422409 -1.574326 -1.368804 255 255 0 89 8
1.421547 -1.578389 -1.316804 255 255 0 89 8
1.462491 -1.520430 -1.303784 255 255 0 89 8
1.407762 -1.537423 -1.275731 255 255 0 89 8
1.430452 -1.584593 -1.292804 255 255 0 89 8
1.461413 -1.496649 -1.328804 255 255 0 89 8
1.405222 -1.578237 -1.360804 255 255 0 89 8
1.456667 -1.564175 -1.304804 255 255 0 89 8
1.394727 -1.560269 -1.340804 255 255 0 89 8
1.452053 -1.573418 -1.320804 255 255 0 89 8
1.436948 -1.512956 -1.250804 255 255 0 89 8
1.470524 -1.534405 -1.294804 255 255 0 89 8
1.427523 -1.492551 -1.266233 255 255 0 89 8
1.374686 -1.524258 -1.364804 255 255 0 89 8
1.424736 -1.544139 -1.270804 255 255 0 89 8
1.390912 -1.568600 -1.375134 255 255 0 89 8
1.462866 -1.543001 -1.308804 255 255 0 89 8
1.471442 -1.526422 -1.329784 255 255 0 89 8
1.457256 -1.564300 -1.353771 255 255 0 89 8
1.422043 -1.556815 -1.291799 255 255 0 89 8
1.433871 -1.477542 -1.328804 255 255 0 89 8
1.443157 -1.549035 -1.284804 255 255 0 89 8
1.416042 -1.522825 -1.244804 255 255 0 89 8
1.388822 -1.530336 -1.300804 255 255 0 89 8
1.453080 -1.483670 -1.340804 255 255 0 89 8
1.433884 -1.534796 -1.256804 255 255 0 89 8
1.405683 -1.547204 -1.289804 255 255 0 89 8
1.375520 -1.536703 -1.330804 255 255 0 89 8
1.458308 -1.564524 -1.382804 255 255 0 89 8
1.398519 -1.523190 -1.271630 255 255 0 89 8
1.422014 -1.485245 -1.298804 255 255 0 89 8
1.450132 -1.492006 -1.308804 255 255 0 89 8
1.375167 -1.508003 -1.348010 255 255 0 89 8
1.374382 -1.540551 -1.379199 255 255 0 89 8
1.470986 -1.547804 -1.368804 255 255 0 89 8
1.435682 -1.483031 -1.312804 255 255 0 89 8
1.447836 -1.517315 -1.278804 255 255 0 89 8
1.474575 -1.512775 -1.312804 255 255 0 89 8
1.467719 -1.563168 -1.334804 255 255 0 89 8
1.387741 -1.554660 -1.366804 255 255 0 89 8
1.423631 -1.573511 -1.278804 255 255 0 89 8
1.477260 -1.505167 -1.344804 255 255 0 89 8
1.434728 -1.497133 -1.284804 255 255 0 89 8
1.409262 -1.559224 -1.306804 255 255 0 89 8
1.481084 -1.542784 -1.356804 255 255 0 89 8
1.417115 -1.579997 -1.332804 255 255 0 89 8
1.393992 -1.520183 -1.286804 255 255 0 89 8
1.440848 -1.574158 -1.370804 255 255 0 89 8
1.385382 -1.551068 -1.350804 255 255 0 89 8
1.477352 -1.544036 -1.322804 255 255 0 89 8
1.416230 -1.502418 -1.270804 255 255 0 89 8
1.392940 -1.544495 -1.306804 255 255 0 89 8
1.444393 -1.557477 -1.297753 255 255 0 89 8
1.474816 -1.539407 -1.383756 255 255 0 89 8
1.468573 -1.564661 -1.370804 255 255 0 89 8
1.473961 -1.529002 -1.358804 255 255 0 89 8
1.467682 -1.501086 -1.382804 255 255 0 89 8
1.394745 -1.569809 -1.328804 255 255 0 89 8
1.437847 -1.578653 -1.318804 255 255 0 89 8
1.437629 -1.517190 -1.266804 255 255 0 89 8
1.420353 -1.584006 -1.380804 255 255 0 89 8
1.382654 -1.520875 -1.310804 255 255 0 89 8
1.407449 -1.514864 -1.262804 255 255 0 89 8
1.449376 -1.576938 -1.382804 255 255 0 89 8
1.385475 -1.546079 -1.324804 255 255 0 89 8
1.373995 -1.542376 -1.346804 255 255 0 89 8
1.377301 -1.507579 -1.332804 255 255 0 89 8
1.395053 -1.501024 -1.294804 255 255 0 89 8
1.410531 -1.544145 -1.262804 255 255 0 89 8
1.472899 -1.519566 -1.344804 255 255 0 89 8
1.456270 -1.535465 -1.290804 255 255 0 89 8
1.441441 -1.581386 -1.340804 255 255 0 89 8
1.406488 -1.562660 -1.290804 255 255 0 89 8
1.453551 -1.562495 -1.330804 255 255 0 89 8
1.473696 -1.520767 -1.370804 255 255 0 89 8
1.422335 -1.565056 -1.309794 255 255 0 89 8
