ply
format ascii 1.0
element vertex 1141
property float x
property float y
property float z
property uchar red
property uchar green
property uchar blue
property uchar semantic_label
property uchar instance_label
end_header
0.446376 0.367117 -0.246078 56 50 46 0 0
0.448514 0.374483 -0.247093 46 40 37 0 0
0.450036 0.383635 -0.246674 66 57 54 0 0
0.443330 0.369157 -0.238545 65 55 49 0 0
-0.174442 0.373322 0.097314 75 60 46 1 1
-0.189139 0.371358 0.127913 80 58 60 1 1
-0.074519 0.405703 -0.074153 97 63 40 1 1
-0.075839 0.405759 -0.095711 94 68 46 1 1
-0.243497 0.389860 -0.231588 72 56 29 1 1
-0.259355 0.376963 -0.232190 74 55 36 14 2
-0.518667 0.336396 0.160421 41 51 44 1 1
-0.539507 0.338876 0.155420 46 52 48 1 1
-0.029788 0.151053 -0.267558 44 40 22 14 2
-0.057465 0.123069 -0.269107 45 35 27 14 2
-0.047183 0.136989 -0.268823 42 38 21 14 2
-0.023172 0.418751 -0.220895 84 64 40 1 1
-0.099240 -0.109919 -0.361576 30 32 12 14 2
-0.080305 -0.107598 -0.356803 30 30 13 14 2
-0.076005 -0.107255 -0.341577 35 30 15 14 2
-0.705600 0.320592 0.254429 108 84 81 1 1
0.549307 0.295917 -0.430065 30 24 13 14 2
-0.215589 0.154967 -0.111840 28 20 8 35 7
-0.515029 0.178476 -0.383507 7 6 4 14 2
0.272334 -0.025815 -0.538186 30 29 11 14 2
-0.686288 0.326076 0.207161 91 85 57 1 1
-0.666068 0.328989 0.201052 80 62 51 1 1
-0.692253 0.326438 0.193087 96 86 53 1 1
-0.708797 0.321001 0.187841 91 78 64 1 1
-0.117017 -0.115717 -0.341285 40 29 11 14 2
-0.093786 -0.111072 -0.347285 36 33 28 14 2
-0.717158 0.357112 -0.236272 37 28 18 1 1
-0.731883 0.357837 -0.253622 27 19 16 1 1
0.351561 0.448899 -0.233409 36 25 7 1 1
0.376665 0.450932 -0.240114 58 39 24 1 1
0.365317 0.444294 -0.246076 54 29 27 40 8
-0.246838 -0.128235 -0.343218 37 31 17 14 2
-0.245296 -0.129924 -0.334429 36 25 20 14 2
-0.225645 -0.120087 -0.347948 35 24 15 14 2
0.067928 -0.079006 -0.285385 53 46 39 14 2
0.048477 -0.068838 -0.281568 52 45 26 14 2
0.056836 -0.055176 -0.281007 55 42 37 14 2
0.080519 -0.067918 -0.283384 59 53 23 14 2
0.081498 0.155647 -0.272523 47 41 18 14 2
0.111020 0.129107 -0.274039 48 39 23 14 2
-0.323192 0.044535 0.365623 64 56 53 35 7
-0.316220 0.057384 0.380733 55 53 40 0 0
-0.308203 0.023486 0.368714 56 48 35 35 7
-0.316028 0.044310 0.348838 64 51 35 0 0
-0.329769 0.044866 0.349025 55 42 48 0 0
-0.304628 0.047528 0.362947 56 48 30 0 0
-0.320137 0.052082 0.364003 61 50 38 0 0
0.321481 0.255349 -0.307951 61 44 31 0 0
0.338308 0.241028 -0.302516 64 43 35 0 0
0.339856 0.223671 -0.307230 59 44 27 0 0
0.330908 0.245474 -0.307220 61 49 27 0 0
0.335227 0.244526 -0.297555 62 44 28 0 0
0.318524 0.244212 -0.297308 67 46 44 0 0
0.335277 0.230383 -0.298205 57 41 28 0 0
0.334051 0.253286 -0.301174 61 47 15 0 0
0.331040 0.257213 -0.307281 60 50 32 0 0
-0.356606 0.150627 -0.230316 25 22 18 14 2
0.102376 0.287923 -0.288363 58 46 36 0 0
0.138132 0.302001 -0.272256 49 38 16 14 2
0.119401 0.300960 -0.293153 61 49 31 0 0
0.092444 0.301527 -0.294884 60 47 29 0 0
-0.179865 0.389131 -0.135511 55 32 17 1 1
-0.665165 0.369771 -0.314174 24 13 11 1 1
-0.678670 0.369077 -0.341379 23 15 8 1 1
-0.366753 0.370586 0.388543 87 56 37 1 1
-0.499841 0.132573 -0.318157 37 28 12 14 2
-0.498426 0.144353 -0.338490 45 33 23 14 2
-0.508979 0.160093 -0.337239 39 30 22 14 2
-0.495891 0.122623 -0.328260 34 26 16 14 2
-0.495734 0.125698 -0.344442 34 27 20 14 2
-0.500785 0.128435 -0.328172 40 28 24 14 2
-0.494637 0.119857 -0.346987 47 30 22 14 2
0.463387 0.324821 -0.091926 97 79 56 40 8
0.469860 0.295160 -0.101352 122 103 84 40 8
0.469963 0.275327 -0.096589 173 154 139 40 8
0.468785 0.284193 -0.081931 149 128 107 40 8
0.466998 0.304413 -0.083075 103 82 58 40 8
0.463347 0.277999 -0.076650 167 146 126 40 8
0.015708 0.394642 0.378696 122 103 69 1 1
0.030334 0.391227 0.398912 128 99 73 1 1
-0.182734 0.090910 0.158813 97 83 76 35 7
-0.181117 0.089449 0.172712 88 87 57 35 7
-0.176821 0.097590 0.169269 93 71 70 35 7
-0.176346 0.106509 0.183617 92 83 68 35 7
-0.585222 0.349615 0.095619 62 56 49 1 1
-0.352522 0.376278 0.295753 66 52 23 1 1
-0.362277 0.374625 0.322164 71 51 26 1 1
-0.370559 0.373746 0.286227 29 22 20 1 1
-0.364396 0.369834 0.309945 74 51 32 1 1
0.497553 0.433751 -0.070108 65 32 18 1 1
0.543330 0.436091 -0.054481 72 34 16 1 1
0.521592 0.435682 -0.052778 70 36 18 1 1
0.462413 0.428624 0.057195 77 49 56 1 1
0.476589 0.427933 0.066834 96 52 50 1 1
0.467475 0.427310 0.077281 72 55 45 1 1
0.113432 0.052367 -0.277781 62 58 35 14 2
0.128431 0.010966 -0.281304 63 50 49 14 2
0.109458 0.009394 -0.278903 69 55 48 14 2
0.029693 0.223524 -0.288655 43 40 23 0 0
0.000598 0.217593 -0.292888 48 40 23 0 0
-0.032209 0.227622 -0.265039 47 41 24 14 2
-0.018635 0.220257 -0.291013 52 44 31 0 0
-0.011303 0.229824 -0.290130 47 41 25 0 0
-0.146242 0.131952 0.368850 59 45 18 35 7
-0.142137 0.126061 0.346959 72 52 28 35 7
-0.133614 0.116197 0.344412 79 57 30 35 7
-0.082638 0.374385 0.372365 95 79 69 1 1
-0.106916 0.369843 0.366736 88 66 59 1 1
-0.079619 0.376800 0.336489 110 84 73 1 1
-0.289176 0.384842 0.320342 101 78 44 1 1
-0.310815 0.383302 0.316826 97 70 53 1 1
-0.314755 0.384742 0.327670 89 66 41 1 1
-0.285329 0.385613 0.336149 101 80 46 1 1
-0.299169 0.385753 0.341476 103 80 56 1 1
-0.316561 0.373954 0.086581 84 78 55 1 1
-0.317068 0.375336 0.105802 94 77 75 1 1
-0.435772 0.341427 0.145087 50 48 48 1 1
-0.420577 0.345817 0.158245 52 52 55 1 1
-0.420019 0.352168 0.300290 47 25 16 1 1
-0.399582 0.350061 0.278206 43 28 23 1 1
-0.424868 0.355268 0.309584 54 27 20 1 1
-0.406523 0.348025 0.290844 55 39 34 1 1
-0.398622 0.361547 0.302227 34 18 9 1 1
-0.407975 0.355371 0.301018 36 18 9 1 1
0.240466 0.147125 -0.279044 63 54 39 14 2
0.534906 0.428764 -0.356829 28 12 15 1 1
0.530538 0.423613 -0.349362 27 11 6 14 2
-0.564172 0.364789 -0.221253 11 10 6 1 1
0.171183 0.255907 -0.309284 70 62 38 0 0
0.140525 0.239342 -0.308170 66 47 46 0 0
-0.244345 0.375427 0.174277 90 76 67 1 1
-0.233709 0.377231 0.163558 108 69 69 1 1
0.117525 0.332442 -0.263761 45 38 21 14 2
0.146514 -0.077249 -0.436437 32 25 15 14 2
0.122650 -0.076469 -0.442462 38 28 18 14 2
-0.137190 0.394052 -0.195811 47 22 21 1 1
0.261198 0.081879 -0.543348 10 9 5 14 2
0.260540 0.091625 -0.536711 8 8 5 14 2
0.261622 0.074669 -0.532931 6 10 6 14 2
-0.218081 0.070445 -0.239576 24 21 20 14 2
-0.210666 0.056480 -0.258924 23 26 19 14 2
-0.201444 0.056637 -0.252968 23 25 24 14 2
-0.302962 0.039045 -0.295502 34 33 20 0 0
-0.089089 0.302822 -0.291723 49 41 33 0 0
-0.290784 0.379344 0.005790 101 89 74 1 1
-0.310494 0.378553 -0.003384 95 92 68 1 1
-0.272430 0.383831 -0.001649 84 73 49 1 1
-0.320318 0.391831 -0.195382 68 58 42 1 1
-0.325676 0.394017 -0.177255 72 59 36 1 1
0.322307 0.428073 -0.222302 94 81 79 1 1
0.330552 0.436927 -0.225324 89 72 64 1 1
0.334844 0.443394 -0.230435 77 54 46 1 1
0.329236 0.440428 -0.206880 128 108 90 1 1
0.326405 0.426331 -0.205121 93 80 51 1 1
0.119670 0.291371 -0.307310 65 56 24 0 0
0.127432 0.299870 -0.295624 69 57 43 0 0
0.115630 0.303641 -0.299253 64 55 32 0 0
0.106342 0.297871 -0.305168 65 53 26 0 0
0.091424 0.291467 -0.303217 60 49 34 0 0
0.117125 0.294313 -0.317659 61 51 32 0 0
0.100790 0.281362 -0.309974 64 54 36 0 0
0.104048 0.290736 -0.310673 65 51 40 0 0
0.103986 0.298963 -0.299394 61 52 26 0 0
0.117171 0.287332 -0.312511 65 55 28 0 0
0.166503 0.404392 0.080758 88 60 60 1 1
0.139127 0.408368 -0.019140 66 34 33 1 1
0.159321 0.409071 -0.029688 63 28 22 1 1
0.123984 0.409542 -0.000916 66 36 28 1 1
-0.404416 0.367801 -0.002432 71 66 51 1 1
-0.388714 0.368644 0.009483 67 65 53 1 1
-0.417473 0.360272 0.003423 69 73 48 1 1
-0.401653 0.364487 0.019454 74 65 36 1 1
0.200919 0.416786 -0.232922 52 23 18 1 1
0.164751 0.400211 0.266780 109 73 37 1 1
0.182012 0.400887 0.271641 97 66 63 1 1
0.326630 0.344612 -0.248529 64 52 44 14 2
0.336266 0.344411 -0.235486 72 68 55 40 8
0.323198 0.356014 -0.242647 71 67 53 14 2
0.338427 0.328783 -0.252960 49 52 51 40 8
0.332723 0.331134 -0.262645 56 61 47 14 2
0.355553 0.336662 -0.230856 71 56 52 0 0
0.337393 0.335053 -0.240708 87 83 73 40 8
0.343379 0.351082 -0.231261 85 63 55 14 2
-0.258240 0.392752 -0.102396 80 60 35 1 1
-0.253160 0.392341 -0.085832 73 57 23 1 1
-0.250358 0.392744 -0.070518 69 60 33 1 1
-0.391886 0.357713 0.185272 64 57 67 1 1
-0.398916 0.352943 0.194970 59 60 38 1 1
-0.387528 0.350711 0.209212 53 58 35 1 1
-0.028042 0.418971 -0.153105 79 57 35 1 1
-0.004981 0.419949 -0.132933 81 57 40 1 1
0.553506 0.438556 -0.557068 34 15 11 1 1
0.539999 0.438619 -0.544794 35 12 10 1 1
-0.059230 0.334557 -0.238783 50 27 14 14 2
-0.082896 0.343097 -0.238558 47 25 17 14 2
0.461202 0.220447 -0.176447 130 119 115 40 8
0.455268 0.219095 -0.187218 122 112 112 40 8
0.451548 0.225600 -0.172779 130 120 114 40 8
-0.426091 0.358568 0.000063 68 65 61 1 1
-0.435444 0.357722 -0.025887 77 72 52 1 1
-0.296004 0.027085 0.330818 69 55 39 0 0
-0.104759 0.095872 0.378340 87 72 69 35 7
-0.105991 0.138592 0.373435 83 74 56 35 7
-0.108840 0.122774 0.397352 74 51 50 35 7
-0.425247 0.066415 -0.107143 11 10 12 40 10
-0.429840 0.087006 -0.114964 12 10 12 40 10
-0.427612 0.067186 -0.122976 11 9 10 40 10
-0.432486 0.083282 -0.131157 12 8 11 40 10
-0.410404 0.068966 -0.137796 13 8 11 40 10
0.158870 0.100024 -0.277535 56 50 25 14 2
0.144906 0.111041 -0.275559 53 44 28 14 2
0.051841 0.425647 -0.152844 90 69 41 1 1
-0.251902 0.092220 0.191033 64 62 53 35 7
0.098799 0.410592 0.096686 104 85 57 1 1
0.086152 0.409794 0.124286 116 98 72 1 1
0.082327 0.411193 0.107203 106 92 43 1 1
-0.092608 0.204734 -0.263042 35 34 16 14 2
-0.037684 0.391211 0.319466 120 98 78 1 1
-0.018037 0.394127 0.300439 133 102 74 1 1
-0.587610 0.349473 0.084193 60 48 47 1 1
-0.308893 0.372910 0.066634 86 83 58 1 1
-0.333494 0.383789 0.065287 88 80 66 1 1
-0.332481 0.382888 0.080293 82 71 60 1 1
-0.185732 0.187693 -0.286681 28 21 11 0 0
-0.187045 0.176386 -0.292829 32 22 19 0 0
-0.171414 0.173161 -0.290887 32 25 13 0 0
-0.186598 0.167677 -0.298005 31 26 17 0 0
-0.196926 0.175094 -0.291639 34 25 21 0 0
0.386275 0.437924 -0.047446 106 81 69 1 1
0.362842 0.436267 -0.059093 101 77 53 1 1
0.052031 0.395491 0.395553 129 103 87 1 1
-0.423974 0.035731 -0.141088 11 9 10 40 10
-0.421052 0.036560 -0.126579 11 9 10 40 10
-0.412180 0.027180 -0.103988 14 9 10 40 10
-0.252568 -0.077942 -0.300721 39 33 22 0 0
-0.185221 0.064819 0.362697 99 80 62 35 7
-0.181687 0.065485 0.351192 79 63 51 35 7
-0.180559 0.055118 0.362752 101 77 46 0 0
-0.184225 0.063968 0.388420 99 74 53 0 0
-0.183479 0.059103 0.369298 98 69 71 35 7
0.258142 0.327503 -0.272908 40 35 14 14 2
0.262855 0.339119 -0.268607 40 37 17 14 2
0.246211 0.350591 -0.263076 47 36 28 14 2
0.230210 0.345813 -0.266493 46 39 29 14 2
-0.302237 -0.082665 -0.290003 51 49 31 0 0
-0.297182 -0.084070 -0.267159 48 37 22 14 2
-0.366922 0.031449 -0.256142 31 35 18 14 2
-0.360652 0.006473 -0.256020 39 31 32 14 2
-0.367905 -0.001413 -0.256252 28 33 21 14 2
-0.385969 0.372115 0.319587 78 52 26 1 1
-0.582965 0.335320 0.245749 80 68 60 1 1
-0.582593 0.335215 0.234372 74 62 51 1 1
0.006019 0.420974 -0.108360 90 59 38 1 1
-0.010255 0.419288 -0.118829 87 60 39 1 1
-0.255848 0.381268 0.395878 101 78 44 1 1
-0.267855 0.381433 0.406958 103 78 53 1 1
-0.269691 0.381153 0.381382 91 64 30 1 1
-0.231306 0.383149 0.393414 97 69 43 1 1
-0.608480 0.377706 -0.411872 19 11 18 1 1
-0.404212 0.345631 0.205096 62 59 53 1 1
0.062415 0.399531 0.289567 122 106 87 1 1
-0.244026 0.271844 -0.276738 27 22 15 0 0
-0.251128 0.284133 -0.263345 31 24 17 0 0
-0.250325 0.279152 -0.273826 23 21 18 0 0
-0.249860 0.274530 -0.268065 27 20 22 0 0
-0.624647 0.377866 -0.430079 27 16 10 1 1
-0.644730 0.375710 -0.423814 27 18 6 1 1
-0.631960 0.375446 -0.393674 27 14 13 1 1
0.372895 0.425301 0.349584 169 138 96 1 1
0.367734 0.427303 0.327613 167 131 105 1 1
0.376045 0.429360 0.319240 177 141 103 1 1
0.384187 0.430511 0.307748 169 139 107 1 1
0.332200 0.055199 -0.284472 73 75 43 14 2
0.316246 0.076995 -0.282197 74 66 36 14 2
0.340614 0.068681 -0.285008 68 62 35 14 2
0.033858 0.194306 -0.270157 45 39 28 14 2
0.067664 0.168079 -0.272285 44 39 21 14 2
-0.306998 0.274969 -0.282167 23 17 16 0 0
-0.319029 0.271898 -0.278962 22 20 15 0 0
-0.331803 0.277301 -0.275782 21 18 13 0 0
-0.320093 0.246753 -0.269282 22 19 17 0 0
-0.314616 0.272731 -0.274709 21 18 10 0 0
-0.305649 0.284029 -0.274448 24 19 14 0 0
-0.322961 0.262625 -0.274411 20 19 16 0 0
-0.248884 -0.129212 -0.304964 32 23 10 14 2
-0.445654 0.111372 -0.217548 38 35 29 40 10
-0.447533 0.120645 -0.205640 28 24 18 40 10
-0.083671 0.379529 0.269464 104 74 48 1 1
-0.149889 0.371609 0.224116 86 59 58 1 1
-0.366915 0.394192 -0.183682 66 52 24 1 1
-0.358826 0.396206 -0.165244 64 53 26 1 1
-0.302553 0.292273 -0.222512 32 20 16 14 2
-0.282936 0.292451 -0.220715 52 44 28 14 2
-0.285591 0.303828 -0.219965 47 40 26 14 2
-0.303138 0.304186 -0.218951 47 35 20 14 2
-0.294602 0.319485 -0.221503 54 41 31 14 2
-0.320174 0.307025 -0.215154 55 42 24 14 2
-0.038433 0.239731 -0.288779 47 37 27 0 0
-0.050411 0.261035 -0.286201 44 37 20 0 0
-0.024973 0.281736 -0.264602 41 36 14 14 2
-0.037729 0.279772 -0.285871 45 38 26 0 0
-0.053549 0.273270 -0.285263 45 33 36 0 0
-0.061221 0.277303 -0.283150 50 44 28 0 0
0.168436 0.314510 -0.272654 51 41 27 14 2
0.181546 0.306555 -0.294702 64 53 38 0 0
0.199173 0.325921 -0.271845 42 39 31 14 2
0.395710 0.445379 -0.168358 90 70 54 1 1
0.413369 0.449936 -0.171530 86 66 49 1 1
0.401598 0.439814 -0.181797 113 95 81 1 1
-0.535294 0.372569 -0.341060 10 7 8 0 0
-0.563078 0.369811 -0.353107 11 7 10 0 0
-0.557220 0.371774 -0.356701 12 8 4 0 0
-0.553896 0.372031 -0.332826 10 6 4 0 0
-0.280641 -0.026060 -0.263989 40 36 37 14 2
-0.214477 0.387807 -0.054947 64 42 28 1 1
-0.298486 0.377764 0.149630 89 85 50 1 1
-0.308812 0.379225 0.170671 99 86 56 1 1
-0.314496 0.383972 0.142908 85 78 47 1 1
-0.261018 0.353838 -0.229602 69 52 36 14 2
-0.257978 0.326882 -0.223316 68 47 30 14 2
-0.246791 0.319242 -0.223054 65 51 34 14 2
0.009483 0.337895 -0.327429 43 37 18 0 0
0.373884 0.434775 -0.117545 96 77 52 1 1
0.394732 0.420501 -0.119454 92 72 49 1 1
0.397108 0.422762 -0.104283 93 71 48 1 1
0.395500 0.440794 -0.132407 87 66 43 1 1
0.456766 0.427194 0.205553 86 60 51 1 1
-0.403871 0.368239 -0.093293 53 38 27 1 1
-0.423032 0.361671 -0.092950 44 30 24 1 1
-0.408204 0.365233 -0.082564 44 30 30 1 1
-0.368014 0.163306 -0.240512 23 17 14 14 2
-0.358570 0.115515 -0.244156 21 17 13 14 2
-0.369455 0.128445 -0.234485 25 25 19 14 2
-0.352484 0.137911 -0.227149 22 22 18 14 2
-0.384989 0.139735 -0.238044 25 26 16 14 2
0.408833 0.447368 -0.101318 93 71 52 1 1
0.402078 0.426217 -0.088111 97 75 59 1 1
0.411238 0.441054 -0.086510 97 75 57 1 1
-0.508160 0.178810 -0.280251 10 6 5 14 2
-0.508526 0.182436 -0.266828 11 6 5 14 2
0.540194 0.356606 -0.446828 30 21 19 14 2
0.539040 0.351466 -0.429175 30 23 17 14 2
0.532576 0.364338 -0.432407 29 26 11 14 2
0.148928 0.404034 0.092677 95 59 59 1 1
0.134047 0.406174 0.081290 90 56 56 1 1
0.142662 0.402227 0.113678 83 63 42 1 1
0.134238 0.402691 0.125190 85 59 64 1 1
0.520370 0.326656 -0.255503 64 57 40 14 2
0.515914 0.327781 -0.250642 45 35 22 14 2
0.530021 0.337735 -0.262251 43 32 24 14 2
0.508654 0.348052 -0.251130 58 44 41 14 2
0.513748 0.360341 -0.256855 49 38 29 14 2
-0.681629 0.340026 0.020988 80 71 57 1 1
-0.712456 0.334417 0.039985 81 75 43 1 1
-0.612392 0.372726 -0.273877 26 19 10 1 1
-0.597867 0.373268 -0.240510 24 21 10 1 1
-0.623499 0.372997 -0.235999 19 17 10 1 1
-0.239740 0.080938 0.160232 64 57 47 35 7
-0.253383 0.098125 0.159886 68 63 55 35 7
-0.230968 0.073674 0.161881 71 62 58 35 7
-0.514884 0.242213 -0.231493 13 8 4 14 2
-0.515782 0.245773 -0.248367 11 7 7 14 2
0.094893 -0.046382 -0.282341 49 44 27 14 2
0.107529 -0.051794 -0.282410 54 42 42 14 2
0.069781 -0.041336 -0.281344 49 44 39 14 2
0.093382 -0.066015 -0.284908 54 52 41 14 2
0.266326 0.032659 -0.515657 10 5 4 14 2
-0.177601 0.215852 -0.299740 39 32 22 0 0
-0.193149 0.220522 -0.302576 37 32 20 0 0
-0.195786 0.226891 -0.303850 37 31 18 0 0
-0.195840 0.224768 -0.290624 37 31 18 0 0
-0.203503 0.225274 -0.298571 37 31 17 0 0
0.396396 0.429709 0.256609 142 104 71 1 1
-0.230477 0.204365 -0.278210 21 16 13 0 0
-0.238284 0.217107 -0.279580 22 18 11 0 0
-0.250140 0.215403 -0.273609 22 16 13 0 0
-0.252337 0.202875 -0.278441 24 22 20 0 0
-0.248743 0.206424 -0.291582 24 23 18 0 0
-0.238414 0.220111 -0.285973 24 20 15 0 0
-0.249606 0.218804 -0.291905 26 20 11 0 0
-0.244985 0.227829 -0.293718 25 21 15 0 0
-0.261119 0.217212 -0.286294 22 21 17 0 0
-0.024909 0.047586 -0.271147 39 33 13 14 2
-0.058134 0.070173 -0.270624 32 27 16 14 2
-0.551058 0.339867 0.176191 51 56 47 1 1
-0.579441 0.342610 0.170461 84 64 50 1 1
0.431611 0.439051 -0.042588 104 78 50 1 1
0.406571 0.439997 -0.039857 100 75 40 1 1
0.427655 0.433496 -0.066887 103 82 45 1 1
0.449153 0.433372 -0.063094 66 35 21 1 1
0.431884 0.438266 -0.057939 99 71 51 1 1
0.357339 0.222614 -0.284991 63 45 31 14 2
0.386053 0.194627 -0.285388 64 54 31 14 2
0.008890 0.284849 -0.316799 50 38 15 0 0
0.002627 0.267594 -0.306275 54 41 18 0 0
-0.014618 0.276115 -0.300112 48 38 24 0 0
0.000669 0.286432 -0.307789 53 38 23 0 0
-0.025003 0.281567 -0.309370 49 36 22 0 0
0.003739 0.275068 -0.311217 46 32 21 0 0
-0.005594 0.267073 -0.308513 45 35 24 0 0
-0.008462 0.280213 -0.302371 51 44 20 0 0
-0.002897 0.289043 -0.309256 44 31 25 0 0
0.568587 0.423283 0.410496 115 71 31 1 1
-0.173836 0.005127 0.290563 96 87 61 35 7
-0.189164 0.023246 0.315382 97 84 67 0 0
-0.181103 0.012146 0.298222 103 85 78 0 0
-0.172842 0.021671 0.296369 101 88 69 0 0
-0.184358 -0.003851 0.296044 101 86 56 35 7
-0.174790 -0.120482 -0.290847 44 41 19 14 2
-0.132747 -0.110785 -0.283168 57 56 36 14 2
-0.142347 -0.104328 -0.278375 55 50 29 14 2
-0.161091 -0.118495 -0.285534 55 47 30 14 2
-0.163195 -0.112439 -0.278316 48 45 33 14 2
0.249573 0.408829 0.239761 114 70 67 1 1
0.228822 0.403859 0.220098 100 62 46 1 1
-0.290987 0.011287 0.381513 66 64 65 35 7
0.103596 0.404060 0.250032 109 88 60 1 1
0.106211 0.404037 0.224186 104 94 60 1 1
0.075801 0.402628 0.240318 118 92 84 1 1
0.424236 0.431912 0.160433 118 94 70 1 1
0.421491 0.434816 0.135769 98 73 54 1 1
0.439977 0.431546 0.147362 89 59 49 1 1
0.456103 0.427928 0.127746 92 58 51 1 1
-0.582870 0.386661 -0.579349 10 4 5 1 1
-0.581391 0.384689 -0.560083 7 7 4 1 1
-0.571466 0.384711 -0.574198 6 5 6 1 1
-0.561963 0.381545 -0.564520 5 5 5 1 1
-0.556020 0.380689 -0.552394 6 6 6 1 1
-0.129916 -0.041761 -0.272370 46 45 36 14 2
0.470916 0.217647 -0.189074 160 147 138 40 8
0.413373 0.346518 -0.240922 72 70 60 0 0
0.425441 0.359303 -0.240164 46 41 25 0 0
-0.395499 0.369873 0.351771 69 49 34 1 1
-0.408254 0.363103 0.338440 77 64 30 1 1
-0.409681 0.358972 0.366954 53 37 19 1 1
-0.435384 0.178804 -0.069272 12 11 12 40 10
-0.550933 0.369119 -0.065266 21 12 22 1 1
-0.524452 0.366234 -0.054437 24 41 18 1 1
-0.553968 0.369495 -0.046041 37 31 17 1 1
-0.148707 0.387126 -0.058578 59 28 19 1 1
-0.175493 0.380252 -0.039150 55 29 15 1 1
-0.160890 0.383903 -0.048648 57 32 20 1 1
0.318610 0.232109 -0.298369 67 53 40 0 0
0.324290 0.235103 -0.310208 57 48 26 0 0
0.305092 0.219523 -0.302040 68 53 38 0 0
-0.039514 0.411088 -0.041712 92 64 51 1 1
-0.055138 0.410243 -0.065771 94 70 41 1 1
-0.058457 0.408089 -0.039569 88 64 42 1 1
-0.022972 0.411921 -0.046762 89 59 52 1 1
-0.322596 0.362756 -0.234510 55 46 32 14 2
-0.090890 0.214252 -0.292410 48 40 20 0 0
-0.086804 0.221909 -0.287156 47 44 25 0 0
-0.100634 0.225657 -0.282174 52 38 35 0 0
-0.062166 0.405527 -0.232699 62 37 25 14 2
0.542975 0.437172 -0.022403 74 31 15 1 1
0.450729 0.428101 0.298953 98 64 37 1 1
0.449168 0.426027 0.317098 94 61 43 1 1
0.249684 0.165330 -0.280192 66 56 28 14 2
0.240764 0.195586 -0.280703 65 57 32 14 2
0.228954 0.173945 -0.277869 59 48 27 14 2
0.220035 0.196644 -0.279046 65 50 32 14 2
0.208407 0.185070 -0.278241 65 55 34 14 2
0.088790 0.203165 -0.308014 54 47 28 0 0
0.073026 0.222787 -0.305520 54 45 17 0 0
0.082543 0.198669 -0.301174 58 47 33 0 0
0.081893 0.208228 -0.302728 56 47 16 0 0
0.081121 0.212115 -0.298348 55 45 30 0 0
0.065744 0.208442 -0.300402 48 37 31 0 0
0.068157 0.213530 -0.291608 53 38 27 0 0
-0.229087 0.210588 -0.304166 35 26 20 0 0
-0.236887 0.202890 -0.299510 33 24 19 0 0
-0.241938 0.215721 -0.296987 33 24 22 0 0
0.480707 0.417718 -0.251867 60 47 36 14 2
0.503615 0.414631 -0.248040 53 36 33 14 2
0.495757 0.429325 -0.242620 55 32 20 14 2
0.484524 0.408409 -0.255259 59 51 42 14 2
0.497105 0.406624 -0.250599 60 48 35 14 2
-0.143868 0.128322 0.381184 77 47 37 35 7
-0.145941 0.128025 0.392900 82 50 42 35 7
-0.152805 0.143940 0.400592 75 50 47 35 7
-0.153020 0.117866 0.408252 82 53 36 35 7
-0.362815 0.377119 0.213205 56 58 47 1 1
-0.364812 0.374352 0.197631 49 60 53 1 1
-0.376559 0.361227 0.196540 66 54 55 1 1
-0.186740 0.074014 0.381703 73 52 32 35 7
-0.156669 0.101160 0.395244 100 78 60 35 7
-0.177392 0.084614 0.390736 100 78 60 35 7
-0.185443 0.077670 0.394413 73 48 30 35 7
0.525806 0.377172 -0.339471 31 24 23 14 2
0.520406 0.408370 -0.334837 31 23 9 14 2
0.520331 0.392835 -0.325916 33 23 20 14 2
0.523734 0.390465 -0.349783 32 22 17 14 2
-0.328544 0.383121 0.039323 88 78 77 1 1
-0.338436 0.386185 0.036829 70 51 33 1 1
-0.364526 0.386308 0.035748 75 53 33 1 1
-0.355882 0.388420 0.030442 76 72 58 1 1
-0.349772 0.387321 0.046616 77 72 42 1 1
-0.430671 0.237559 -0.229954 21 21 17 40 10
-0.434877 0.245856 -0.225100 26 18 25 14 2
-0.433852 0.269102 -0.225527 25 18 21 14 2
-0.117687 0.020877 0.341262 109 92 67 35 7
-0.108232 0.040055 0.351846 106 100 75 35 7
-0.553330 0.326746 0.345827 60 59 48 1 1
-0.536005 0.323893 0.357710 57 53 51 1 1
0.524743 0.406929 -0.492043 25 18 15 14 2
-0.496333 0.334683 0.197544 51 52 24 1 1
-0.489143 0.333902 0.212356 52 50 57 1 1
-0.209090 0.244787 -0.223673 32 24 12 35 7
-0.006205 0.412867 -0.041300 84 58 42 1 1
-0.014466 0.411804 -0.015635 83 62 30 1 1
-0.027075 0.409306 0.001620 89 62 40 1 1
0.018092 0.412412 -0.026118 86 58 52 1 1
-0.276652 0.383715 0.303039 98 70 48 1 1
-0.259914 0.379185 0.281603 96 70 55 1 1
-0.265124 0.379218 0.291312 94 77 49 1 1
-0.240835 0.379241 0.287776 88 63 46 1 1
-0.250290 0.383038 0.302812 86 69 39 1 1
0.139621 0.400379 0.213948 98 63 35 1 1
0.135197 0.400352 0.233959 92 72 60 1 1
0.115815 0.403255 0.247409 99 66 67 1 1
-0.446306 0.149916 -0.144392 28 20 10 40 10
-0.442071 0.123086 -0.162801 15 13 19 40 10
-0.443546 0.138708 -0.157206 29 30 41 40 10
-0.304306 0.388791 -0.150273 66 48 31 1 1
-0.286946 0.391511 -0.135362 71 53 33 1 1
-0.223606 0.384717 0.338617 76 42 23 1 1
-0.220122 0.384353 0.354913 80 62 45 1 1
-0.208132 0.381841 0.349748 79 59 24 1 1
-0.219171 0.381854 0.370829 82 59 40 1 1
-0.203588 0.376540 0.354910 74 59 59 1 1
-0.628454 0.379590 -0.509832 11 11 4 1 1
-0.684885 0.327669 0.163242 88 69 61 1 1
-0.702756 0.326063 0.146061 92 72 54 1 1
-0.681943 0.328219 0.184299 102 78 38 1 1
0.137127 0.406116 0.027339 73 32 33 1 1
0.132089 0.406271 0.060501 61 52 31 1 1
0.156815 0.406286 0.046553 68 37 24 1 1
0.146067 0.404933 0.053460 71 37 36 1 1
0.440343 0.433587 -0.193233 79 54 54 1 1
0.426492 0.447083 -0.174428 79 59 34 1 1
0.449982 0.434167 -0.186244 71 51 23 1 1
0.440455 0.444056 -0.177890 71 52 20 1 1
0.416506 0.441098 -0.186879 77 56 30 1 1
0.428900 0.439735 -0.186463 80 56 44 1 1
-0.339294 0.349279 -0.229191 48 38 24 14 2
-0.292224 0.199664 -0.225310 45 36 25 14 2
-0.306157 0.210008 -0.228091 42 33 29 14 2
0.447675 0.378324 -0.231829 58 40 37 0 0
0.439386 0.369256 -0.228848 42 34 33 0 0
0.099925 0.182211 -0.273267 48 39 24 14 2
0.055908 0.193137 -0.271734 44 34 39 14 2
0.072028 0.197231 -0.271822 53 37 31 14 2
0.077828 0.213887 -0.271345 46 36 25 14 2
0.009240 -0.099097 -0.401950 33 27 21 14 2
-0.019890 -0.097855 -0.380561 34 27 15 14 2
0.419653 0.342074 -0.188248 103 93 76 0 0
0.427255 0.345148 -0.174021 173 161 147 0 0
0.436337 0.359377 -0.185622 150 135 122 0 0
-0.164654 0.170068 -0.300584 19 15 10 0 0
-0.158342 0.160586 -0.296634 27 21 12 0 0
-0.179388 0.160325 -0.299900 38 30 18 0 0
-0.139835 0.159089 -0.291926 28 23 11 0 0
-0.151723 0.164557 -0.305159 33 27 13 0 0
-0.142684 0.151401 -0.297572 29 24 14 0 0
-0.429041 0.340650 0.186440 53 46 45 1 1
-0.442139 0.338661 0.205275 60 54 48 1 1
-0.663509 0.367602 -0.248143 43 29 17 1 1
-0.683172 0.366175 -0.232564 38 24 13 1 1
0.503911 0.428110 0.124993 94 57 50 1 1
-0.024512 0.340171 -0.237255 54 38 30 14 2
-0.046748 0.347540 -0.236217 58 34 25 14 2
-0.005269 0.349656 -0.235665 59 39 27 14 2
-0.022795 0.314538 -0.254663 42 42 14 14 2
0.000542 0.336289 -0.238820 51 41 18 14 2
-0.684032 0.362083 -0.151430 31 22 14 1 1
-0.664093 0.362928 -0.145624 46 33 15 1 1
-0.335121 0.373049 0.287795 79 62 49 1 1
-0.362211 0.374803 0.287113 79 59 41 1 1
-0.336752 0.375748 0.247772 89 80 54 1 1
-0.354218 0.375018 0.256630 74 75 66 1 1
-0.339639 0.375692 0.270540 72 50 47 1 1
0.446236 0.432673 0.004844 71 42 37 1 1
0.442391 0.433767 0.023058 69 44 31 1 1
0.428113 0.436342 0.013497 106 84 64 1 1
0.145053 0.415538 -0.214039 57 23 18 1 1
0.144104 0.416870 -0.233820 58 25 16 1 1
0.462356 0.238749 -0.156911 179 165 153 40 8
0.459175 0.231306 -0.162352 171 156 152 40 8
-0.154724 0.369321 0.249468 89 67 52 1 1
-0.474495 0.345866 0.082053 55 50 46 1 1
-0.488215 0.345816 0.103760 48 46 59 1 1
-0.475908 0.343428 0.112958 59 47 55 1 1
-0.238821 0.394022 -0.109408 70 45 28 1 1
-0.148281 0.086783 0.352538 85 63 47 35 7
-0.112417 0.085646 0.308712 75 47 32 35 7
-0.136471 0.081258 0.318462 60 42 25 35 7
-0.141517 0.091123 0.335557 85 60 33 35 7
-0.130367 0.090841 0.320258 90 68 44 35 7
-0.172713 0.065771 0.341920 90 62 43 35 7
-0.159398 0.087109 0.371068 96 73 46 35 7
-0.172399 0.079906 0.370415 98 74 50 35 7
0.164924 0.417185 -0.215621 55 24 15 1 1
0.180247 0.418642 -0.226911 51 23 13 1 1
0.361450 0.407605 -0.246086 44 30 20 40 8
-0.225139 0.392959 -0.203911 54 39 18 1 1
-0.537679 0.357753 -0.234609 23 14 19 1 1
-0.526142 0.368652 -0.242850 35 28 17 1 1
-0.539917 0.355891 -0.229984 25 16 25 1 1
-0.111033 0.052334 0.372342 107 86 75 35 7
-0.291505 0.110812 -0.235536 22 20 11 14 2
-0.302571 0.106865 -0.252063 19 15 13 14 2
-0.304877 0.111222 -0.245575 23 19 13 14 2
-0.287610 0.091619 -0.258673 20 17 12 14 2
-0.278184 0.107593 -0.250560 24 20 17 14 2
-0.015508 0.403026 0.134851 116 106 66 1 1
0.013904 0.406281 0.115224 121 107 81 1 1
0.014116 0.404205 0.142270 125 105 82 1 1
-0.005040 0.402922 0.146878 115 108 62 1 1
-0.391239 0.037372 -0.270344 31 32 19 0 0
-0.409188 0.068172 -0.261749 31 27 18 0 0
-0.407433 0.057445 -0.261059 23 22 11 0 0
-0.215005 0.104340 0.269557 75 65 68 35 7
-0.209108 0.098647 0.255607 71 68 57 35 7
-0.217172 0.096135 0.251261 70 66 51 35 7
-0.279162 0.374182 0.079031 96 87 72 1 1
-0.705661 0.339703 -0.041376 94 68 49 1 1
-0.701723 0.338230 -0.046388 85 64 27 1 1
-0.710837 0.332065 -0.063050 80 61 28 1 1
-0.672139 0.339182 -0.062508 75 57 41 1 1
-0.694180 0.343844 -0.075024 63 52 38 1 1
-0.692701 0.334944 -0.063079 71 61 34 1 1
-0.671180 0.342910 -0.040830 87 65 33 1 1
-0.530566 0.234881 -0.528837 6 5 5 14 2
-0.204915 0.362005 0.398111 85 64 43 1 1
-0.220579 0.378282 0.391261 85 70 63 1 1
0.527314 0.419033 -0.442664 21 8 13 14 2
0.529088 0.405748 -0.458139 28 15 19 14 2
-0.252803 -0.023795 0.334396 83 75 50 35 7
-0.253111 -0.035766 0.315301 84 79 39 35 7
-0.193926 -0.009333 0.382483 105 81 89 35 7
-0.198621 -0.003551 0.404925 99 79 72 35 7
-0.178663 0.000844 0.394686 98 88 67 35 7
-0.176699 -0.004383 0.375461 98 88 67 35 7
0.509772 0.426198 0.213483 96 61 41 1 1
0.513337 0.426932 0.236864 104 57 41 1 1
0.231881 0.196561 -0.298802 70 59 34 0 0
0.244997 0.214144 -0.304537 67 55 37 0 0
0.237545 0.203685 -0.306172 69 57 38 0 0
0.255939 0.199405 -0.304292 72 60 39 0 0
0.254348 0.189817 -0.297835 69 58 34 0 0
0.247634 0.207748 -0.297319 69 55 40 0 0
0.224257 0.204358 -0.298450 65 57 35 0 0
-0.341640 0.150699 -0.219734 36 30 25 14 2
-0.340657 0.165237 -0.221185 33 30 22 14 2
-0.350403 0.164975 -0.225882 32 31 29 14 2
-0.361065 0.166472 -0.239860 33 28 31 14 2
0.364912 0.285673 -0.180561 112 104 92 40 8
0.371673 0.271830 -0.182833 115 106 95 40 8
0.375618 0.278523 -0.163031 125 114 101 40 8
-0.063380 0.380574 0.380054 123 95 78 1 1
-0.060925 0.384948 0.355573 128 96 71 1 1
-0.054842 0.387852 0.347196 137 107 75 1 1
-0.218860 0.383076 0.320589 78 45 33 1 1
-0.202086 0.382789 0.311118 94 62 49 1 1
-0.202893 0.381874 0.329746 80 55 38 1 1
-0.218100 0.150257 0.126428 86 72 51 35 7
-0.667131 0.372415 -0.508200 10 8 6 1 1
-0.676532 0.357335 -0.483716 12 10 12 1 1
-0.674114 0.361749 -0.501114 13 10 10 1 1
-0.184993 -0.021440 -0.268934 43 42 32 14 2
-0.166920 -0.017888 -0.269021 43 39 28 14 2
-0.141210 -0.021554 -0.271242 39 36 23 14 2
0.284562 0.374842 -0.241193 90 77 58 14 2
0.287403 0.405283 -0.240636 87 75 48 14 2
-0.224503 0.375571 0.173818 88 73 67 1 1
-0.023678 0.407028 0.037004 92 75 48 1 1
-0.049741 0.402533 0.034073 109 87 65 1 1
-0.037023 0.403721 0.042400 126 104 94 1 1
0.493363 0.234374 -0.256483 116 112 119 40 8
0.486183 0.224262 -0.257020 130 123 116 40 8
-0.082477 0.258307 -0.286437 52 42 29 0 0
-0.063739 0.256324 -0.289045 55 41 31 0 0
-0.080423 0.245274 -0.284126 50 43 24 0 0
-0.057084 0.246084 -0.287043 53 41 29 0 0
-0.065636 0.241479 -0.285238 53 41 30 0 0
-0.385822 0.365980 0.032380 63 63 52 1 1
-0.373920 0.381322 0.049484 63 62 50 1 1
-0.382081 0.375277 0.039449 63 62 50 1 1
-0.466331 0.348909 0.064857 56 60 45 1 1
-0.486181 0.346395 0.087250 60 56 44 1 1
-0.463978 0.351599 0.042814 63 52 65 1 1
-0.138530 0.073565 -0.265388 24 20 10 14 2
-0.145750 0.095758 -0.263946 24 20 11 14 2
-0.634553 0.369418 -0.194715 31 19 19 1 1
0.021591 0.188753 -0.298780 46 37 23 0 0
0.032137 0.196384 -0.295866 45 37 17 0 0
0.033095 0.214046 -0.298114 48 35 26 0 0
-0.606165 0.371746 -0.205382 28 22 20 1 1
-0.591410 0.373625 -0.213704 54 42 37 1 1
-0.592975 0.372688 -0.223144 16 10 8 1 1
-0.578105 0.370535 -0.212565 15 9 12 1 1
-0.330058 -0.057469 -0.380407 43 39 35 0 0
-0.336422 -0.045586 -0.360214 33 25 7 0 0
-0.448817 0.159385 -0.162186 8 7 6 40 10
-0.422077 0.148951 -0.153478 16 10 9 40 10
-0.425922 0.163453 -0.154112 12 10 9 40 10
-0.433942 0.185370 -0.139237 18 16 12 40 10
-0.688815 0.365047 -0.257882 33 22 9 1 1
-0.670594 0.366804 -0.269335 35 18 13 1 1
-0.682374 0.366486 -0.284749 38 19 15 1 1
-0.511684 0.350518 -0.239174 36 25 20 1 1
-0.509472 0.334848 -0.240672 26 24 15 14 2
-0.511329 0.366779 -0.251040 27 24 15 1 1
-0.240168 0.164183 0.028751 42 27 30 0 0
-0.244525 0.162762 -0.015803 27 23 20 0 0
-0.240283 0.172533 0.001156 32 24 17 0 0
-0.259025 0.161940 0.003675 29 21 21 0 0
-0.247372 0.164189 0.005929 38 28 19 0 0
-0.247727 0.161208 0.017615 31 36 29 0 0
-0.492227 0.135357 -0.261213 34 22 18 14 2
-0.495000 0.148709 -0.298853 39 35 21 14 2
-0.491814 0.148798 -0.262773 25 17 12 14 2
-0.497593 0.136006 -0.280369 28 26 17 14 2
-0.493211 0.137495 -0.283208 56 44 19 14 2
-0.267903 0.152366 0.007831 37 33 28 35 7
-0.665060 0.371504 -0.355292 25 15 10 1 1
-0.669163 0.374380 -0.407749 22 16 7 1 1
-0.055307 -0.095626 -0.422954 27 25 17 14 2
-0.045787 -0.099436 -0.396905 35 27 20 14 2
-0.235551 0.210633 -0.286119 22 22 12 0 0
-0.233727 0.231725 -0.287805 23 20 11 0 0
-0.226019 0.244311 -0.293943 32 25 17 0 0
-0.240128 0.235976 -0.294790 22 15 10 0 0
-0.226121 0.224699 -0.278083 22 21 10 0 0
-0.239370 0.231087 -0.280941 24 21 12 0 0
-0.225726 0.214601 -0.286128 21 19 12 0 0
-0.224833 0.230332 -0.287771 23 20 16 0 0
-0.234992 0.220578 -0.291270 22 19 14 0 0
-0.222482 0.238352 -0.289162 24 20 12 0 0
-0.235165 0.244080 -0.286318 22 19 10 0 0
-0.241949 0.233941 -0.268600 22 18 5 0 0
-0.230950 0.233369 -0.269094 23 19 8 0 0
-0.215348 0.223090 -0.289674 22 16 10 0 0
-0.223974 0.224805 -0.289541 22 20 12 0 0
-0.240392 0.224439 -0.275287 19 20 10 0 0
-0.229290 0.235471 -0.288773 24 21 16 0 0
-0.222967 0.232127 -0.280024 23 21 10 0 0
-0.215384 0.225907 -0.296226 25 21 11 0 0
-0.160574 0.065544 0.326499 88 62 42 35 7
-0.161995 0.075078 0.344312 99 73 51 35 7
-0.141356 0.075180 0.325591 90 64 52 35 7
-0.155975 0.059334 0.317755 93 65 58 35 7
-0.150767 0.009827 0.370368 106 89 85 35 7
0.167767 0.154979 -0.277009 52 44 32 14 2
0.396183 0.260573 -0.164084 125 114 103 40 8
0.397108 0.254033 -0.173475 107 103 96 40 8
0.381368 0.264698 -0.174663 112 104 92 40 8
0.268508 0.429035 -0.125490 91 66 46 1 1
0.243302 0.423085 -0.137556 64 38 24 1 1
0.253626 0.425331 -0.106901 67 40 27 1 1
-0.031342 0.395452 0.268837 121 99 70 1 1
-0.016162 0.395941 0.264586 129 103 84 1 1
-0.242162 0.226685 -0.227073 28 23 20 14 2
-0.262275 0.206967 -0.227885 32 24 23 35 7
-0.254583 0.197566 -0.218579 22 22 18 35 7
-0.240998 0.204854 -0.219537 26 23 19 35 7
-0.579925 0.382767 -0.519626 9 6 6 1 1
-0.590164 0.380423 -0.501671 8 7 5 1 1
-0.517298 0.281060 -0.315906 11 6 5 14 2
-0.667579 0.345641 -0.018591 101 78 61 1 1
-0.648708 0.346570 -0.024495 79 79 51 1 1
-0.656879 0.344554 0.000739 86 71 50 1 1
0.446273 0.221910 -0.235685 94 85 90 40 8
0.458081 0.218075 -0.221075 102 98 99 40 8
0.449296 0.219514 -0.206340 94 88 93 40 8
0.429224 0.227739 -0.194780 97 95 72 40 8
0.429642 0.227594 -0.214020 93 89 85 40 8
0.266085 0.427959 -0.056318 92 65 51 1 1
-0.258388 0.280098 -0.288040 28 24 23 0 0
-0.280501 0.277064 -0.287306 23 21 13 0 0
-0.267827 0.280841 -0.287740 26 22 13 0 0
-0.261327 0.255816 -0.265495 21 15 12 0 0
-0.258540 0.280850 -0.263861 16 18 15 0 0
-0.275926 0.292896 -0.281050 20 19 9 0 0
-0.284508 0.281709 -0.275210 24 20 12 0 0
-0.268273 0.282642 -0.281389 28 24 15 0 0
-0.282506 0.281238 -0.279795 26 22 14 0 0
-0.285477 0.265397 -0.269727 24 19 10 0 0
-0.277395 0.272238 -0.272121 24 19 9 0 0
-0.277622 0.280301 -0.271607 21 20 9 0 0
-0.294608 0.272377 -0.272991 22 16 11 0 0
-0.259327 0.265577 -0.291699 18 17 10 0 0
-0.284959 0.270386 -0.285074 18 16 8 0 0
-0.279459 0.260809 -0.286832 19 17 11 0 0
-0.251911 0.269749 -0.279459 27 25 8 0 0
-0.262755 0.277131 -0.279043 27 23 15 0 0
-0.263173 0.251978 -0.268612 22 15 10 0 0
-0.262027 0.264116 -0.273880 23 17 8 0 0
-0.257801 0.279302 -0.274845 20 18 12 0 0
-0.119243 0.378303 0.103019 79 59 53 1 1
0.412231 0.189174 -0.286359 55 42 37 14 2
0.038308 0.241871 -0.292162 52 44 19 0 0
0.029314 0.235952 -0.290852 48 38 22 0 0
0.061508 0.238153 -0.290103 48 40 25 0 0
0.054755 0.245578 -0.288888 48 40 24 0 0
0.047471 0.227772 -0.292047 50 39 19 0 0
0.045759 0.211689 -0.292910 51 38 25 0 0
0.572030 0.431694 0.251804 102 78 70 1 1
0.553746 0.426565 0.273974 95 59 64 1 1
0.457580 0.350842 -0.231169 39 36 29 0 0
0.010108 0.401506 0.220080 129 103 73 1 1
-0.003283 0.399852 0.217536 130 106 83 1 1
-0.367682 0.003498 -0.276697 42 33 27 0 0
-0.373854 0.014821 -0.274379 28 31 15 0 0
0.298233 0.435895 -0.093966 113 96 69 1 1
0.291623 0.429362 -0.063920 99 76 53 1 1
0.280656 0.429643 -0.082566 112 87 74 1 1
0.318552 0.434649 -0.079870 141 122 104 1 1
0.283370 0.432129 -0.097148 146 129 109 1 1
0.298691 0.431692 -0.085263 149 125 114 1 1
0.489833 0.434961 -0.196323 51 22 19 1 1
0.499016 0.430281 -0.182854 55 21 15 1 1
-0.231562 0.218797 -0.300412 32 22 23 0 0
0.196394 -0.082539 -0.408872 30 23 18 14 2
0.489575 0.231161 -0.197690 132 126 121 40 8
0.491883 0.236450 -0.230464 120 118 122 40 8
0.484320 0.224776 -0.213020 135 128 127 40 8
0.150420 0.226832 -0.304356 65 46 40 0 0
0.127842 0.217121 -0.306892 65 50 37 0 0
0.142231 0.222817 -0.303702 60 49 32 0 0
0.113575 0.236312 -0.314633 64 47 33 0 0
0.129160 0.207930 -0.311497 66 52 37 0 0
0.122310 0.223676 -0.296877 56 51 22 0 0
0.114832 0.235292 -0.298369 59 53 27 0 0
0.130449 0.230021 -0.303851 59 48 34 0 0
0.122836 0.238472 -0.306317 62 49 35 0 0
0.124450 0.220496 -0.311437 57 51 36 0 0
0.124257 0.235585 -0.301848 60 51 43 0 0
-0.259801 0.396235 -0.217587 74 56 34 1 1
-0.243806 0.395773 -0.223520 66 50 26 1 1
-0.240600 0.396350 -0.208075 60 44 23 1 1
-0.256695 0.394158 -0.224904 74 54 34 14 2
-0.267462 0.385551 -0.228725 75 56 34 1 1
-0.112281 0.323193 -0.243507 49 28 27 14 2
-0.096176 0.315419 -0.246617 47 32 26 14 2
-0.080904 0.325844 -0.241854 51 30 20 14 2
-0.576343 0.337574 0.204621 72 54 52 1 1
-0.551700 0.338747 0.198097 62 55 49 1 1
-0.564607 0.339399 0.195205 58 57 29 1 1
-0.572820 0.341058 0.186559 59 59 55 1 1
0.322948 0.425660 0.232417 128 100 67 1 1
0.339052 0.427102 0.234875 125 102 71 1 1
0.090348 -0.081696 -0.290668 63 55 40 14 2
0.540618 0.430970 -0.324279 55 23 17 1 1
0.542906 0.429962 -0.301815 40 21 10 1 1
0.579203 0.436552 -0.326397 78 35 24 1 1
0.557132 0.432959 -0.292040 40 23 13 1 1
0.555396 0.439964 -0.456770 34 11 11 1 1
-0.454084 0.351701 0.375039 38 21 9 1 1
-0.446284 0.350163 0.412750 36 19 14 1 1
0.566094 0.437650 0.031053 80 49 29 1 1
0.540773 0.434249 0.044340 84 47 35 1 1
0.179744 0.400252 0.219360 94 68 51 1 1
0.289821 0.250100 -0.284788 63 55 25 14 2
-0.396759 0.122805 -0.239985 65 67 63 40 10
-0.398379 0.139259 -0.235027 37 40 45 40 10
-0.028237 -0.100120 -0.298289 27 27 21 14 2
0.003762 -0.097649 -0.298812 30 29 18 14 2
-0.413384 0.163431 -0.204873 20 15 21 40 10
-0.422074 0.189052 -0.210359 24 25 21 40 10
-0.408809 0.172765 -0.219492 37 35 27 40 10
0.501161 0.256881 -0.237004 116 105 108 40 8
0.506807 0.258940 -0.258964 98 92 88 40 8
0.521308 0.280746 -0.258507 107 105 94 14 2
-0.374365 0.380535 0.112813 38 45 45 1 1
-0.376193 0.376448 0.099890 54 49 37 1 1
-0.377981 0.374066 0.126063 47 45 40 1 1
-0.228024 0.377897 0.282892 76 52 41 1 1
-0.216201 0.378119 0.297405 71 49 23 1 1
0.254226 0.183080 -0.304235 68 57 38 0 0
-0.234107 0.174669 0.003727 36 24 18 35 7
-0.227491 0.168789 0.021220 48 35 22 35 7
-0.454342 0.182670 -0.215352 7 6 3 40 10
-0.454555 0.175860 -0.208532 8 5 4 40 10
-0.457686 0.160338 -0.213984 8 5 7 40 10
-0.454280 0.193631 -0.201676 9 6 7 40 10
-0.452727 0.199770 -0.216947 23 22 15 40 10
-0.457222 0.177941 -0.221722 11 7 10 40 10
-0.249842 -0.115507 -0.429044 27 28 12 14 2
0.044422 -0.078475 -0.456536 40 27 15 0 0
0.041930 -0.081846 -0.447170 30 32 17 14 2
0.219960 0.403336 0.234993 121 72 68 1 1
-0.072199 0.087556 0.314201 93 69 74 35 7
-0.084321 0.096572 0.333300 100 76 55 35 7
-0.252566 0.159291 -0.068748 35 20 23 0 0
-0.250290 0.160549 -0.058984 31 21 14 0 0
-0.264119 0.162659 -0.062906 36 21 17 0 0
-0.258841 0.160496 -0.036475 31 24 15 0 0
-0.266882 0.158086 -0.042953 39 27 20 0 0
-0.325344 0.291037 -0.217594 35 22 20 14 2
0.267824 0.418387 0.169158 127 101 88 1 1
0.253401 0.414175 0.179449 120 97 79 1 1
0.212714 -0.073965 -0.452864 28 31 15 14 2
0.192187 -0.073619 -0.444269 32 27 19 14 2
-0.326168 0.369940 0.239108 90 76 74 1 1
-0.307821 0.368218 0.220791 101 84 74 1 1
-0.314447 0.365982 0.204803 81 65 48 1 1
-0.333902 0.372251 0.227263 81 65 48 1 1
-0.316438 0.366686 0.229965 92 78 71 1 1
-0.315122 0.365848 0.241969 100 83 83 1 1
-0.516724 0.281366 -0.278106 11 7 7 14 2
-0.242525 0.037972 0.394077 83 64 52 0 0
-0.206322 0.108275 0.253312 82 72 65 35 7
-0.212432 0.112687 0.268461 72 77 57 35 7
-0.220675 0.129363 0.275021 95 84 69 35 7
-0.219323 0.114887 0.276506 94 83 69 35 7
0.396772 0.247013 -0.213447 81 77 63 40 8
0.381296 0.260023 -0.190331 89 86 71 40 8
-0.555565 0.350248 0.083689 56 55 27 1 1
-0.569542 0.354561 0.056065 66 47 60 1 1
-0.554603 0.352531 0.074816 66 47 60 1 1
-0.571885 0.349101 0.084826 46 53 42 1 1
0.295004 0.439085 -0.143634 113 92 53 1 1
0.279237 0.436568 -0.113891 110 94 66 1 1
0.290521 0.438363 -0.106602 105 94 68 1 1
0.270117 0.428626 -0.104056 98 76 51 1 1
0.203451 0.233024 -0.297748 65 58 33 0 0
0.197050 0.247459 -0.292212 66 56 40 0 0
0.208424 0.277892 -0.290926 69 58 46 0 0
0.181843 0.247576 -0.276247 58 51 22 14 2
0.523184 0.402807 -0.306956 35 26 13 14 2
0.524954 0.372012 -0.304112 34 26 12 14 2
0.522065 0.374693 -0.316013 32 25 22 14 2
-0.394625 0.361455 0.041934 70 75 78 1 1
-0.387396 0.363051 0.048537 76 65 61 1 1
-0.433185 0.352768 0.041059 67 73 62 1 1
-0.408229 0.356070 0.047802 74 72 54 1 1
0.473541 0.419955 0.400685 106 67 51 1 1
-0.191482 0.373888 0.100868 77 61 26 1 1
0.268344 0.053548 -0.554240 6 6 7 14 2
0.039087 -0.040770 -0.278526 51 39 36 14 2
0.030435 -0.000301 -0.276947 56 47 35 14 2
0.518200 0.426200 0.156178 91 53 39 1 1
0.521375 0.427625 0.127553 95 59 31 1 1
0.553910 0.428373 0.130100 85 57 45 1 1
-0.460319 0.170602 -0.235362 9 4 6 14 2
-0.469576 0.178909 -0.237294 11 4 7 14 2
-0.457310 0.190811 -0.235397 12 6 8 14 2
-0.456313 0.166506 -0.229703 23 19 19 40 10
0.452029 0.293875 -0.065813 173 150 136 40 8
0.026925 0.365449 -0.238545 73 54 24 14 2
0.000140 0.370811 -0.236737 73 54 24 14 2
0.247496 0.405459 0.281397 101 70 44 1 1
0.231773 0.400312 0.307125 117 78 66 1 1
-0.539005 0.372903 -0.355676 9 7 7 0 0
-0.543387 0.374975 -0.379112 8 7 5 0 0
0.027902 0.399646 0.201075 134 111 73 1 1
0.452439 0.267646 -0.079267 187 168 153 40 8
0.458126 0.260355 -0.091895 187 169 153 40 8
0.464837 0.262477 -0.094338 177 160 145 40 8
0.447860 0.264391 -0.089530 191 173 155 40 8
0.466524 0.268947 -0.083983 184 166 149 40 8
-0.025675 0.414395 -0.072983 90 62 38 1 1
0.568999 0.434232 -0.391451 40 16 8 1 1
0.574017 0.433671 -0.364306 62 32 18 1 1
0.558255 0.432357 -0.373771 62 28 18 1 1
0.548227 0.432310 -0.355848 40 13 13 1 1
0.536931 0.429972 -0.377618 40 13 13 1 1
-0.140705 0.368536 0.268384 87 57 61 1 1
-0.455347 0.352586 0.350910 30 20 14 1 1
-0.484523 0.347076 0.351635 55 49 36 1 1
-0.485392 0.340257 0.372808 63 52 35 1 1
-0.474519 0.347570 0.371060 45 32 30 1 1
0.114219 0.400777 0.324884 98 71 53 1 1
0.063977 0.404001 0.181525 122 103 85 1 1
0.041852 0.401728 0.215366 131 105 82 1 1
0.058047 0.404443 0.207560 120 105 76 1 1
-0.221520 0.110000 -0.166557 40 36 26 35 7
-0.192821 0.116270 -0.193446 35 29 20 35 7
-0.192869 0.105268 -0.174574 30 21 21 35 7
-0.207390 0.127159 -0.177564 29 19 18 35 7
-0.200256 0.117987 -0.177330 40 26 24 35 7
-0.209836 0.096913 -0.176115 40 35 26 35 7
-0.416729 0.289241 -0.223646 29 24 16 14 2
-0.402170 0.263620 -0.230576 30 29 23 14 2
-0.027584 -0.099018 -0.403124 30 28 17 14 2
-0.630058 0.322106 0.382720 109 92 71 1 1
-0.658108 0.318708 0.384952 109 92 63 1 1
-0.638166 0.321414 0.404480 111 83 54 1 1
-0.196199 0.011001 0.305081 106 87 41 0 0
0.132458 -0.087764 -0.351452 32 30 20 14 2
0.116345 -0.089805 -0.365617 33 29 25 14 2
0.276484 0.242186 -0.296207 66 55 35 0 0
0.293071 0.243645 -0.299155 66 55 40 0 0
0.280972 0.254124 -0.296333 71 56 46 0 0
0.309464 0.253332 -0.310985 53 41 22 0 0
0.285962 0.262495 -0.315901 57 44 23 0 0
-0.090984 0.373122 0.334778 104 79 53 1 1
0.029148 0.413244 0.005947 98 75 59 1 1
0.065238 0.415715 0.011642 98 73 57 1 1
0.059730 0.412574 0.027095 96 72 46 1 1
0.027325 0.410639 0.023544 96 74 43 1 1
0.044001 0.412796 0.006503 93 70 46 1 1
-0.014823 0.327536 -0.243970 48 39 23 14 2
-0.046391 0.324077 -0.243787 47 39 20 14 2
-0.058677 0.326013 -0.242031 45 34 20 14 2
-0.071373 0.314627 -0.247468 41 36 15 14 2
0.528903 0.374523 -0.361547 29 22 19 14 2
0.524765 0.397408 -0.383153 31 24 15 14 2
0.337554 0.428975 0.085034 117 100 70 1 1
0.349309 0.428725 0.122802 130 99 88 1 1
0.339630 0.430510 0.112554 127 102 81 1 1
0.323972 0.427802 0.122445 126 105 61 1 1
-0.478324 0.356347 -0.018695 51 60 55 1 1
-0.493112 0.357971 -0.033345 55 55 50 1 1
-0.169540 0.287532 -0.252617 36 32 25 14 2
-0.171909 0.303091 -0.243974 41 37 23 14 2
-0.156442 0.313215 -0.242176 65 51 26 14 2
0.517942 0.436819 -0.018596 73 29 23 1 1
0.409813 0.432112 0.170210 115 102 78 1 1
-0.231190 0.167793 0.052621 81 73 53 35 7
-0.230930 0.169805 0.077291 87 75 75 35 7
-0.225315 0.164559 0.085158 88 75 68 35 7
-0.161953 0.301920 -0.297853 46 40 27 0 0
-0.147865 0.286221 -0.306733 50 38 27 0 0
-0.146155 0.296796 -0.300640 41 41 26 0 0
-0.167444 0.281525 -0.298769 50 39 33 0 0
-0.178680 0.286996 -0.295643 49 39 33 0 0
-0.514131 0.287954 -0.226656 11 10 10 14 2
-0.516905 0.281994 -0.218707 17 13 11 14 2
-0.479900 0.265904 -0.231732 9 9 13 14 2
-0.507027 0.258223 -0.203155 10 10 14 14 2
-0.497697 0.271087 -0.207717 14 8 8 14 2
-0.517991 0.279490 -0.206616 13 10 14 14 2
-0.497525 0.260426 -0.211914 10 8 8 14 2
-0.510681 0.273818 -0.202688 11 11 11 14 2
-0.040372 0.416187 -0.166804 87 63 43 1 1
-0.045166 0.416204 -0.135877 82 57 44 1 1
-0.060639 0.414757 -0.166728 86 61 43 1 1
-0.228573 0.088169 0.144113 56 58 46 35 7
-0.237309 0.101132 0.137929 50 55 46 35 7
-0.240849 0.091631 0.151891 60 54 57 35 7
-0.206404 0.091084 0.143986 68 69 59 35 7
-0.224468 0.076349 0.155885 56 55 60 35 7
-0.223971 0.098832 0.128562 60 63 49 35 7
-0.523743 0.353495 -0.029065 53 51 43 1 1
-0.533175 0.351014 -0.020586 48 51 37 1 1
-0.293920 0.368139 0.209690 88 81 49 1 1
-0.310101 0.366281 0.196550 83 75 55 1 1
-0.318531 0.377660 0.184313 89 80 73 1 1
-0.191194 -0.106164 -0.274100 41 47 25 14 2
-0.215276 -0.098654 -0.270753 43 43 29 14 2
-0.223882 -0.123783 -0.278800 54 51 46 14 2
-0.195704 -0.117834 -0.278470 53 51 42 14 2
-0.206721 -0.111549 -0.274040 52 50 40 14 2
-0.310088 0.245573 -0.267838 22 20 14 0 0
-0.316854 0.258862 -0.269241 24 21 18 0 0
-0.299926 0.235547 -0.268330 22 20 14 0 0
-0.292085 0.261031 -0.265551 20 17 13 14 2
-0.291053 0.270946 -0.262829 21 18 13 0 0
-0.285967 0.248253 -0.285872 22 16 11 0 0
-0.284187 0.238244 -0.280319 22 18 13 0 0
-0.295876 0.246059 -0.279689 21 17 15 0 0
-0.298324 0.252147 -0.271900 23 21 16 0 0
-0.294363 0.261498 -0.273822 20 18 11 0 0
-0.274663 0.254940 -0.266354 20 18 11 0 0
-0.309985 0.256504 -0.279095 23 19 17 0 0
-0.288363 0.250197 -0.267511 20 18 11 0 0
-0.279523 0.259078 -0.270277 19 18 10 0 0
-0.304703 0.243201 -0.279163 21 18 15 0 0
-0.269049 0.384234 0.353840 101 77 50 1 1
-0.310507 0.380541 0.350042 98 70 43 1 1
-0.293882 0.385376 0.356303 95 67 33 1 1
-0.288180 0.377911 0.387329 110 81 56 1 1
-0.296371 0.380321 0.370909 93 65 41 1 1
-0.129891 0.188020 0.362234 85 67 67 35 7
-0.122266 0.195400 0.344977 80 67 56 35 7
0.181022 0.406186 0.072492 86 60 38 1 1
0.158969 0.405857 0.067508 75 52 44 1 1
-0.085685 -0.089473 -0.278375 50 46 34 14 2
-0.122819 -0.093072 -0.276190 52 46 32 14 2
-0.707680 0.367207 -0.353321 28 16 12 1 1
0.207871 0.418461 -0.143447 56 26 10 1 1
0.004607 -0.098115 -0.381101 34 27 16 14 2
-0.247672 0.124016 0.104810 59 55 49 35 7
-0.235802 0.111140 0.092728 69 64 55 35 7
-0.236617 0.110223 0.122272 65 60 58 35 7
-0.255721 0.135831 0.095706 59 54 42 35 7
-0.177140 0.366727 0.222288 82 65 31 1 1
-0.193101 0.367999 0.221458 78 59 33 1 1
-0.163511 0.368410 0.239838 91 59 43 1 1
-0.171688 0.367303 0.245664 82 61 59 1 1
0.482851 0.425813 0.129728 80 59 43 1 1
0.486953 0.424813 0.137262 87 57 50 1 1
0.479632 0.424862 0.163054 93 55 47 1 1
0.464594 0.426557 0.142895 89 56 44 1 1
-0.278330 0.014071 0.323003 76 55 64 0 0
-0.279426 0.008922 0.316605 69 63 37 0 0
-0.283729 -0.001020 0.353292 81 69 55 35 7
-0.273199 0.022873 0.339224 73 58 45 0 0
-0.243603 0.125766 -0.014235 45 37 44 35 7
-0.256138 0.128755 0.014266 43 38 28 35 7
-0.231107 0.114722 0.017411 47 47 34 35 7
0.534114 0.340221 -0.478629 30 23 15 14 2
-0.516943 0.373309 -0.314299 10 6 5 1 1
-0.525922 0.372421 -0.309878 11 7 6 1 1
-0.451583 0.232783 -0.210908 27 29 23 40 10
-0.451309 0.247280 -0.219319 21 19 24 40 10
-0.442663 0.245887 -0.218762 18 16 17 14 2
-0.452404 0.221197 -0.225814 28 28 18 40 10
-0.444594 0.231710 -0.209722 14 14 21 40 10
-0.432933 0.217634 -0.210322 18 15 21 40 10
-0.453096 0.209459 -0.205744 15 7 12 40 10
0.268355 0.423479 0.045841 93 70 45 1 1
0.299009 0.429006 0.027643 99 74 56 1 1
0.301560 0.429442 0.037609 106 85 50 1 1
0.262028 0.423786 -0.003978 91 69 60 1 1
0.246040 0.417254 0.003547 87 68 37 1 1
-0.176836 0.377513 0.021420 58 35 27 1 1
-0.178334 0.377947 -0.004652 64 39 38 1 1
0.217419 0.238005 -0.293517 73 58 40 0 0
0.199093 0.230262 -0.277632 63 52 34 14 2
0.230769 0.232012 -0.281186 64 51 36 14 2
0.215444 0.247003 -0.280320 64 57 40 14 2
-0.383308 0.372999 0.345634 70 56 38 1 1
-0.385672 0.373751 0.361342 69 53 40 1 1
0.219870 -0.078882 -0.351107 34 30 13 14 2
-0.140459 0.187401 -0.284460 40 36 25 0 0
-0.133941 0.171097 -0.291320 39 31 20 0 0
-0.119823 0.188600 -0.286671 41 36 29 0 0
-0.149208 0.185437 -0.287556 35 31 21 0 0
-0.166944 0.189306 -0.286534 34 31 23 0 0
-0.635445 0.368501 -0.170724 24 13 18 1 1
-0.645749 0.367834 -0.165668 34 20 6 1 1
-0.613370 0.367680 -0.154004 18 13 8 1 1
-0.648124 0.365842 -0.142984 38 24 16 1 1
0.063667 -0.024237 -0.475550 33 31 15 0 0
