ply
format ascii 1.0
element vertex 1093
property float x
property float y
property float z
property uchar red
property uchar green
property uchar blue
property uchar semantic_label
property uchar instance_label
end_header
-1.031109 0.312367 -0.508563 41 39 38 0 0
-1.018919 0.389278 -0.143679 130 112 101 1 7
-0.823398 0.223694 -0.258241 46 43 44 14 3
-0.812629 0.227527 -0.256043 45 43 46 14 3
-0.843303 0.212924 -0.254122 45 46 45 14 3
-0.835662 0.235817 -0.257061 46 44 45 14 3
-0.828702 0.243626 -0.255348 57 53 53 14 3
-1.048324 -0.182530 -0.357007 133 126 123 1 7
-0.891663 0.032299 -0.173405 68 65 60 5 5
-0.863522 0.050886 -0.181113 45 48 53 5 5
-0.882449 0.021788 -0.163030 30 28 30 5 5
-0.878235 0.041290 -0.162881 36 33 34 5 5
-0.875134 0.048917 -0.170061 28 29 32 5 5
-0.882070 0.034652 -0.160533 27 25 26 5 5
-0.866786 0.031749 -0.164734 33 33 33 5 5
-1.032778 -0.105264 -0.054485 140 133 125 1 7
-1.030901 -0.100468 -0.041497 143 134 131 1 7
-1.047330 -0.136685 -0.506897 127 122 118 1 7
-1.014919 0.322185 -0.020735 132 118 106 1 7
-1.015159 0.318431 0.005947 135 122 109 1 7
-1.015902 0.300535 -0.002713 136 125 110 1 7
-1.029990 -0.025272 -0.093397 135 128 121 1 7
-1.007608 0.278119 0.237353 157 148 140 1 7
-1.008936 0.257468 0.213103 164 154 149 1 7
-1.006592 0.293271 0.214675 159 149 141 1 7
-1.020681 0.033138 0.038603 141 134 126 1 7
-1.018431 0.006842 0.074603 151 143 135 1 7
-1.021223 0.002444 0.043853 142 133 126 1 7
-1.017635 0.024881 0.069060 151 141 134 1 7
-0.876916 0.316472 -0.258016 83 70 62 14 3
-0.888973 0.335838 -0.255762 78 66 59 14 3
-1.154199 -0.471270 0.008892 189 186 177 0 0
-1.157456 -0.461931 0.008202 148 143 134 0 0
-1.151887 -0.463354 0.004803 148 143 134 0 0
-0.986835 0.296377 -0.391857 48 51 55 14 3
-1.001677 0.320440 -0.397287 52 54 61 14 3
-0.992909 0.310392 -0.391499 46 46 52 14 3
-0.983380 0.313335 -0.376424 42 43 49 14 3
-0.984382 0.309100 -0.383293 45 45 51 14 3
-0.994137 0.306818 -0.396632 50 52 59 14 3
-1.021009 -0.184590 0.401998 161 163 160 1 7
-1.019563 -0.184531 0.415573 155 155 155 1 7
-1.013070 0.033476 0.144603 172 167 161 1 7
-1.013504 0.019023 0.165555 174 171 167 1 7
-1.013565 0.018941 0.143701 172 167 163 1 7
-0.967658 0.388107 -0.256419 46 37 33 14 3
-0.919496 0.136430 -0.251737 95 79 66 14 3
-1.036173 -0.171872 -0.002081 145 138 132 1 7
-1.036189 -0.177616 0.019131 145 139 133 1 7
-1.015557 -0.067756 0.303627 171 165 163 1 7
-1.090954 -0.453838 -0.106307 209 208 206 0 0
-1.012692 -0.032924 0.298285 170 165 164 1 7
-1.100097 -0.454625 -0.119332 233 232 230 0 0
-1.014241 -0.067906 0.318011 168 162 162 1 7
-1.084863 -0.445763 -0.094642 131 126 124 0 0
-1.040311 -0.257761 0.026866 149 140 136 1 7
-1.041034 -0.236414 0.019024 147 140 135 1 7
-1.041088 -0.233801 0.035808 148 140 135 1 7
-1.041105 -0.227565 0.011939 144 139 134 1 7
-1.005924 0.268368 0.295421 157 149 142 1 7
-0.765060 0.388690 -0.262383 37 31 30 14 3
-0.742223 0.371956 -0.262870 35 30 28 14 3
-1.042871 0.359977 -0.548776 59 62 73 0 0
-1.054528 0.365727 -0.552544 39 40 40 0 0
-1.051054 0.364393 -0.541751 39 40 40 0 0
-1.010734 0.412716 0.023353 138 124 112 1 7
-1.011911 0.396865 0.000587 135 121 109 1 7
-1.011429 0.100589 0.179103 171 164 158 1 7
-1.011139 0.114406 0.169346 168 163 156 1 7
-1.009965 0.128199 0.194830 169 162 155 1 7
-1.011531 0.093936 0.200770 166 161 154 1 7
-1.106338 -0.208503 -0.164415 88 78 69 0 0
-1.109564 -0.224096 -0.160550 85 76 67 0 0
-1.111559 -0.220834 -0.154685 86 78 68 0 0
-1.108364 -0.229794 -0.171918 87 77 70 0 0
-1.116692 -0.238043 -0.156878 82 71 63 0 0
-1.108466 -0.237882 -0.165566 86 79 70 0 0
-0.894076 0.035931 -0.287495 26 25 28 5 5
-0.904685 0.051327 -0.283852 25 24 31 5 5
-0.909082 0.057755 -0.276135 26 26 33 5 5
-0.913306 0.043717 -0.303083 37 39 42 5 5
-0.918205 0.053354 -0.304196 34 37 40 5 5
-0.914358 0.029961 -0.307708 25 24 29 5 5
-0.921869 0.025614 -0.302132 29 27 32 5 5
-0.922483 0.047424 -0.307546 34 37 43 5 5
-0.902285 0.038203 -0.303305 26 26 31 5 5
-0.915273 0.064237 -0.301316 24 23 26 5 5
-0.899498 0.037655 -0.293052 27 26 30 5 5
-0.905862 0.050936 -0.291053 25 24 28 5 5
-0.931882 0.029092 -0.304326 29 27 32 5 5
-1.042698 -0.480890 0.132087 124 123 121 1 7
-1.043507 -0.482475 0.116859 151 149 149 1 7
-1.044948 -0.484237 0.109706 184 182 181 1 7
-1.052419 -0.487769 0.113207 191 191 191 0 0
-1.043271 0.011525 -0.384897 110 105 106 1 7
-1.017087 0.305431 -0.051540 129 117 104 1 7
-1.017587 0.311009 -0.076897 130 118 105 1 7
-1.191205 -0.533990 -0.101518 138 134 123 9 6
-1.070237 -0.478644 -0.357947 255 255 252 9 6
-1.048065 -0.379182 0.046904 148 148 145 1 7
-1.050753 -0.398065 0.024382 151 149 148 1 7
-1.055305 -0.413382 0.009826 151 149 147 1 7
-1.056032 -0.393822 0.005900 154 150 148 1 7
-1.027141 0.295199 -0.191897 126 112 100 1 7
-1.029521 0.272506 -0.208315 79 75 74 1 7
-1.026530 0.278331 -0.186397 125 111 100 1 7
-1.053121 -0.376092 -0.303897 148 141 138 1 7
-0.708281 0.206388 -0.255712 48 43 42 14 3
-0.685901 0.220402 -0.261254 49 42 40 14 3
-0.714095 0.230376 -0.255541 46 41 40 14 3
-0.697523 0.223967 -0.257788 46 41 39 14 3
-1.050934 -0.317058 -0.262897 143 139 134 1 7
-1.050870 -0.340653 -0.252897 145 141 136 1 7
-1.050147 -0.325957 -0.234236 143 139 135 1 7
-1.051979 -0.347081 -0.276522 144 139 135 1 7
-0.715273 0.113913 -0.259505 51 48 50 14 3
-0.723125 0.126335 -0.259550 56 51 52 14 3
-0.715067 0.141942 -0.256727 58 51 51 14 3
-0.702615 0.122535 -0.259369 59 52 54 14 3
-0.697514 0.135969 -0.259654 58 53 53 14 3
-1.101557 -0.277875 -0.195697 86 78 71 0 0
-1.100746 -0.265624 -0.195728 84 75 68 0 0
-1.086499 -0.270751 -0.192956 84 76 69 0 0
-1.100801 -0.256546 -0.192778 87 78 71 0 0
-1.087638 -0.259908 -0.192998 88 79 72 0 0
-1.108102 -0.243286 -0.184804 90 79 72 0 0
-1.095197 -0.237121 -0.201861 86 76 67 0 0
-0.768038 0.358889 -0.262975 44 34 31 14 3
-0.758517 0.347711 -0.262742 28 24 21 14 3
-1.063686 -0.478351 -0.231195 255 255 253 9 6
-1.007219 0.151917 0.295603 163 153 150 1 7
-1.007419 0.156201 0.277103 161 155 147 1 7
-1.008665 0.125242 0.284973 162 154 150 1 7
-1.008790 0.143020 0.258103 164 159 152 1 7
-1.005656 0.162405 0.307683 162 154 148 1 7
-0.673025 0.218985 -0.261435 49 35 27 14 3
-0.690375 0.240114 -0.259876 53 38 27 14 3
-0.661858 0.249062 -0.262471 27 22 20 14 3
-1.047817 -0.219458 -0.223897 140 134 129 1 7
-1.029879 -0.053490 -0.055052 139 130 124 1 7
-1.028961 -0.035903 -0.022897 138 132 125 1 7
-1.035709 -0.395999 0.206848 118 114 111 1 7
-1.035216 -0.380688 0.226656 79 77 75 1 7
-1.013543 0.359566 -0.461773 40 46 48 0 0
-1.012611 0.376890 -0.469864 48 52 59 0 0
-1.007086 0.374093 -0.440408 46 50 54 0 0
-1.007663 0.389283 -0.450040 48 51 56 0 0
-1.015142 0.354859 -0.456648 49 50 59 0 0
-1.011557 0.373033 -0.447690 47 53 57 0 0
-1.015310 0.351371 -0.436475 43 43 51 14 3
-1.012312 0.363667 0.069103 150 137 127 1 7
-1.011384 0.382915 0.067103 149 134 124 1 7
-1.011252 0.382760 0.053929 152 136 125 1 7
-1.009563 0.152122 0.247103 165 159 154 1 7
-1.008096 0.171298 0.251412 163 158 150 1 7
-1.007246 0.175930 0.271228 164 157 151 1 7
-1.007777 0.368477 0.243958 155 145 136 1 7
-1.034223 -0.052478 -0.126255 133 125 121 1 7
-1.005274 0.434950 0.258603 151 137 128 1 7
-1.005273 0.455904 0.259103 149 138 126 1 7
-0.779846 0.022381 -0.398082 37 41 44 5 5
-0.795527 0.034331 -0.395298 43 47 54 5 5
-0.781790 0.026404 -0.386950 39 42 46 5 5
-0.796398 0.032899 -0.377815 41 41 45 5 5
-0.776307 0.021907 -0.410398 39 44 48 5 5
-0.771374 0.019081 -0.381137 35 39 45 5 5
-1.123695 -0.145437 -0.084142 66 59 51 0 0
-1.124402 -0.135742 -0.088378 64 57 49 0 0
-1.121378 -0.124848 -0.081282 63 56 48 0 0
-1.121690 -0.148014 -0.075753 62 56 48 0 0
-1.126638 -0.146970 -0.067360 56 52 43 0 0
-1.124570 -0.131950 -0.067520 58 51 43 0 0
-1.123134 -0.152507 -0.061583 50 44 37 0 0
-1.128608 -0.135733 -0.054480 49 44 38 0 0
-1.120223 -0.138361 -0.058316 49 44 38 0 0
-1.118621 -0.134785 -0.062973 48 43 37 0 0
-1.127774 -0.127689 -0.060085 49 44 37 0 0
-1.129615 -0.128423 -0.048709 49 43 37 0 0
-1.125531 -0.124228 -0.057937 50 44 37 0 0
-1.007546 0.356061 -0.415427 47 48 55 0 0
-1.007310 0.375915 -0.411163 47 46 54 0 0
-1.014143 0.359427 -0.427969 46 48 53 0 0
-1.008497 0.348551 -0.410352 46 49 55 0 0
-1.007658 0.372562 -0.425018 50 48 53 0 0
-1.003391 0.386281 -0.410022 48 52 58 0 0
-1.011280 0.362071 0.081978 164 154 143 1 7
-1.009661 0.376413 0.091126 163 153 143 1 7
-1.010426 0.148094 0.213516 167 162 155 1 7
-1.010936 0.140431 0.221953 167 161 153 1 7
-1.006415 0.380718 0.295103 152 141 133 1 7
-1.007292 0.359714 0.295103 151 142 134 1 7
-1.044879 -0.272398 -0.104267 143 139 134 1 7
-1.042495 -0.245132 -0.116872 141 138 133 1 7
-1.052773 -0.328692 -0.498647 137 134 130 1 7
-1.053965 -0.349417 -0.481897 141 136 132 1 7
-0.802922 -0.035091 -0.513624 29 36 42 5 5
-0.791514 -0.034890 -0.511359 54 59 65 5 5
-0.796158 -0.035833 -0.528645 30 34 41 5 5
-1.153093 -0.332658 0.012989 29 26 22 0 0
-1.154600 -0.314246 0.010978 29 24 20 0 0
-1.105436 -0.012709 -0.120734 32 28 23 0 0
-1.115621 -0.011825 -0.137175 57 50 44 0 0
-1.112747 -0.006323 -0.134056 52 45 38 0 0
-1.112655 -0.009643 -0.148931 59 52 43 0 0
-1.117409 -0.008761 -0.126631 32 27 24 0 0
-1.117718 -0.003820 -0.142803 51 43 36 0 0
-1.135153 -0.537300 -0.073650 228 229 225 9 6
-1.132377 -0.534373 -0.079437 253 253 248 9 6
-1.029331 0.046467 -0.230929 113 109 102 1 7
-1.031347 0.052467 -0.255445 109 105 99 1 7
-1.031222 0.040757 -0.220795 117 109 103 1 7
-1.025475 0.057267 -0.238278 116 107 103 1 7
-1.032771 0.189788 -0.471397 72 75 78 1 7
-1.033068 0.187305 -0.490897 75 75 79 1 7
-1.033133 0.164724 -0.484397 75 76 79 1 7
-0.936250 0.463704 -0.259967 103 83 69 14 3
-1.084245 -0.438141 -0.047058 157 153 154 0 0
-1.083542 -0.424192 -0.047790 158 154 155 0 0
-1.085533 -0.436930 -0.033285 156 151 150 0 0
-1.047898 -0.112544 -0.356897 121 119 115 1 7
-1.048489 -0.113496 -0.369897 126 120 119 1 7
-1.047542 -0.093502 -0.339022 125 120 118 1 7
-1.020157 -0.018353 0.073853 145 138 131 1 7
-1.021236 -0.007793 0.059222 144 138 130 1 7
-1.074776 -0.218212 -0.160230 118 112 104 0 0
-1.077011 -0.204634 -0.169927 119 113 106 0 0
-1.076940 -0.207079 -0.152532 97 89 83 0 0
-0.970841 0.281501 -0.374754 41 43 47 14 3
-0.958872 0.259485 -0.373514 43 42 47 14 3
-0.966225 0.258224 -0.391976 48 47 52 14 3
-1.047835 -0.210924 -0.550897 130 125 121 1 7
-1.047994 -0.205702 -0.564022 128 125 120 1 7
-1.052126 -0.371137 -0.200752 146 143 139 1 7
-1.063969 -0.468085 -0.005480 204 202 201 1 7
-1.059620 -0.449340 -0.026585 159 155 156 1 7
-1.061978 -0.464334 -0.023038 161 155 155 1 7
-1.062648 -0.469735 0.011968 234 234 232 1 7
-1.070252 -0.474502 0.010467 251 252 249 0 0
-1.060686 -0.453995 0.007921 160 153 154 1 7
-1.027619 0.237743 -0.378088 33 33 32 1 7
-1.023769 0.238468 -0.378833 40 39 43 14 3
-1.081248 -0.175773 -0.186121 78 70 65 0 0
-1.089671 -0.160917 -0.202037 81 73 66 0 0
-1.099539 -0.166166 -0.200282 82 73 66 0 0
-1.103375 -0.154063 -0.199674 80 73 65 0 0
-1.104033 -0.182366 -0.187857 84 75 66 0 0
-1.100502 -0.157134 -0.183006 81 73 63 0 0
-1.084300 -0.153910 -0.181696 74 67 60 0 0
-1.084102 -0.162427 -0.193897 74 66 59 0 0
-1.105719 -0.175895 -0.198984 83 75 66 0 0
-1.089995 -0.176056 -0.200124 77 70 63 0 0
-1.079571 -0.245524 -0.070204 106 99 91 0 0
-1.078234 -0.237667 -0.060322 87 78 71 0 0
-1.077706 -0.226392 -0.086514 98 88 84 0 0
-1.077867 -0.242871 -0.082419 96 86 82 0 0
-1.080441 -0.247532 -0.049576 95 86 79 0 0
-0.917971 0.272287 -0.261835 82 81 82 14 3
-0.915817 0.258221 -0.257820 101 97 98 14 3
-0.927669 0.256220 -0.260119 58 58 62 14 3
-1.058001 -0.473193 -0.231349 192 190 189 1 7
-1.055523 -0.466147 -0.233037 154 154 150 1 7
-1.055752 -0.444582 -0.240432 154 152 149 1 7
-1.046313 -0.060484 -0.372272 120 116 113 1 7
-1.045240 -0.029459 -0.368897 120 116 116 1 7
-1.045300 -0.038143 -0.341835 115 111 109 1 7
-0.710503 0.030726 -0.544858 11 14 17 5 5
-0.735656 0.014887 -0.546362 12 16 20 5 5
-0.719617 0.020899 -0.543672 11 15 19 5 5
-1.120516 -0.033699 -0.155574 67 59 51 0 0
-1.112260 -0.039054 -0.165272 71 62 54 0 0
-1.106117 -0.034119 -0.170589 77 68 59 0 0
-1.119492 -0.021114 -0.166782 69 61 53 0 0
-1.106070 -0.048526 -0.162095 70 63 53 0 0
-1.103143 -0.044348 -0.177115 80 71 61 0 0
-1.010229 0.193290 0.203259 164 158 150 1 7
-1.011947 0.156586 0.198842 165 158 153 1 7
-1.023373 0.381324 -0.249205 104 101 101 14 3
-1.002735 0.366733 -0.256473 96 93 95 14 3
-1.111940 -0.506092 -0.179950 255 255 255 9 6
-1.120203 -0.527608 -0.212055 255 255 255 9 6
-1.121140 -0.525936 -0.185723 255 255 255 9 6
-1.120985 -0.523522 -0.202169 255 255 255 9 6
-1.103294 -0.498658 -0.197863 255 255 255 9 6
-0.852098 0.087088 -0.516111 14 18 21 5 5
-0.861123 0.095246 -0.510161 15 17 22 5 5
-0.854242 0.108446 -0.505225 20 24 33 5 5
-0.845421 0.104296 -0.511577 21 26 32 5 5
-0.847822 0.096027 -0.515584 17 20 25 5 5
-0.830408 0.108191 -0.505706 23 24 33 5 5
-1.054602 -0.402061 -0.346897 150 146 144 1 7
-1.055438 -0.417046 -0.334897 150 146 143 1 7
-1.056498 -0.434018 -0.327022 152 148 144 1 7
-1.054990 -0.425617 -0.315147 151 148 144 1 7
-1.107746 -0.427803 -0.161278 100 91 87 0 0
-1.108115 -0.413958 -0.160692 99 91 83 0 0
-1.110827 -0.408768 -0.170876 99 91 84 0 0
-1.112513 -0.428304 -0.154258 93 84 77 0 0
-1.114007 -0.414114 -0.155545 92 83 78 0 0
-1.047944 0.197145 -0.218422 51 46 45 0 0
-1.053834 0.170256 -0.221306 48 43 43 1 7
-1.051973 0.186560 -0.209520 53 48 48 1 7
-1.047982 0.184144 -0.218399 64 57 52 0 0
-1.111361 -0.480440 -0.060748 255 255 253 9 6
-1.124317 -0.491911 -0.035546 250 251 246 9 6
-1.119173 -0.486171 -0.048545 253 254 250 9 6
-1.117018 -0.482542 -0.033367 254 255 251 9 6
-1.124386 -0.501755 -0.050307 252 252 250 9 6
-1.025810 -0.305261 0.365458 139 139 142 1 7
-1.040466 0.008783 -0.271806 117 112 109 1 7
-1.039024 0.008566 -0.250087 118 113 110 1 7
-1.037582 0.018829 -0.268901 118 110 106 1 7
-1.019577 0.216365 -0.036397 132 120 110 1 7
-1.018686 0.237367 -0.060272 132 119 108 1 7
-1.105567 -0.170397 -0.156230 78 70 60 0 0
-1.103538 -0.162498 -0.155550 75 67 58 0 0
-1.074759 -0.157210 -0.124961 98 86 81 0 0
-1.128923 -0.224255 -0.022636 58 51 43 0 0
-1.122165 -0.226262 -0.010744 50 46 38 0 0
-1.121913 -0.215757 -0.008610 51 46 38 0 0
-1.131705 -0.247589 -0.016874 64 58 49 0 0
-1.119926 -0.225513 -0.018305 64 57 50 0 0
-1.129389 -0.234225 -0.012836 58 54 44 0 0
-1.046298 -0.167447 -0.198565 133 129 125 1 7
-1.018159 0.174970 -0.000506 136 126 116 1 7
-1.017140 0.189251 0.006183 136 124 114 1 7
-1.017329 0.185966 -0.007400 136 125 114 1 7
-1.015535 0.314134 0.021603 139 125 112 1 7
-1.013554 0.351479 0.032853 138 124 113 1 7
-1.014351 0.324194 0.037103 138 124 112 1 7
-1.014699 0.342327 0.013619 137 122 110 1 7
-1.118850 -0.518007 0.047586 238 240 234 9 6
-1.116925 -0.510273 0.052473 207 208 202 9 6
-1.009877 0.212379 0.199103 166 159 149 1 7
-1.008340 0.256413 0.203103 169 158 151 1 7
-1.009255 0.245953 0.177603 166 156 147 1 7
-1.009334 0.237427 0.197103 166 157 148 1 7
-1.053803 -0.463813 0.037521 163 157 159 1 7
-1.054560 -0.440143 0.019909 158 153 153 1 7
-1.050174 -0.436289 0.041874 155 153 153 1 7
-1.054411 -0.465410 0.022814 163 158 158 1 7
-1.021441 -0.160335 0.414480 160 157 157 1 7
-1.021365 -0.165056 0.401103 162 160 160 1 7
-1.020408 -0.138441 0.410861 155 154 154 1 7
-1.022745 -0.138074 0.392105 157 157 155 1 7
-0.972568 0.297472 -0.364978 32 38 40 14 3
-0.978304 0.316082 -0.368577 35 41 44 14 3
-0.806446 0.278923 -0.259911 66 57 57 14 3
-0.791675 0.284728 -0.259324 66 55 49 14 3
-0.794760 0.302185 -0.258672 111 92 73 14 3
-0.819607 0.444684 -0.262797 62 45 40 14 3
-0.797758 0.442056 -0.261479 84 64 53 14 3
-1.006126 0.302933 0.263567 158 147 140 1 7
-1.006134 0.317109 0.292533 157 146 139 1 7
-1.005708 0.289810 0.300103 157 148 139 1 7
-1.045327 -0.387102 0.097463 153 150 148 1 7
-1.044095 -0.363132 0.086989 152 148 146 1 7
-1.045998 -0.380327 0.071557 151 148 147 1 7
-1.047545 -0.112073 -0.404897 126 118 117 1 7
-1.047792 -0.093857 -0.385647 123 118 115 1 7
-0.918440 0.011099 -0.517009 32 34 41 5 5
-0.930772 0.011974 -0.512075 40 41 50 5 5
-0.930193 0.007617 -0.527071 35 39 46 5 5
-0.929486 0.008105 -0.536398 35 39 46 5 5
-0.905918 0.008465 -0.503833 27 30 38 5 5
-0.916122 0.013233 -0.508254 17 17 22 5 5
-1.047327 -0.117111 -0.492772 123 118 116 1 7
-1.053076 -0.393161 -0.254897 148 143 140 1 7
-1.054151 -0.411950 -0.253272 148 148 143 1 7
-1.053123 -0.381330 -0.268834 148 146 143 1 7
-1.006124 0.469280 0.161103 155 142 132 1 7
-1.005538 0.481776 0.154603 156 142 129 1 7
-1.098661 -0.064981 -0.174881 78 71 60 0 0
-1.098440 -0.049028 -0.167896 79 70 61 0 0
-1.110484 -0.080754 -0.160744 76 68 60 0 0
-1.102321 -0.062029 -0.163600 72 64 57 0 0
-1.110551 -0.069934 -0.150739 69 62 52 0 0
-1.103548 -0.071926 -0.162768 71 65 56 0 0
-1.054856 0.376290 -0.510445 44 46 51 0 0
-1.050785 0.364004 -0.526258 38 37 38 0 0
-1.049503 0.371497 -0.530039 45 46 52 0 0
-1.037816 0.366165 -0.506313 52 57 65 0 0
-1.043120 0.361197 -0.535323 44 44 49 0 0
-1.053353 0.374721 -0.526279 39 38 39 0 0
-1.047509 0.373937 -0.515267 45 47 52 0 0
-1.036736 0.365219 -0.518020 45 47 52 0 0
-1.032616 0.363324 -0.507825 51 58 65 0 0
-1.051204 0.370370 -0.518826 42 43 43 0 0
-1.054602 0.366717 -0.507940 43 43 44 0 0
-1.043908 -0.040806 -0.526959 116 113 111 1 7
-1.044070 -0.046878 -0.503147 114 111 108 1 7
-0.954724 0.181131 -0.257361 102 88 74 14 3
-0.960557 0.174710 -0.253006 66 58 52 14 3
-0.963539 0.187522 -0.255728 72 68 60 14 3
-0.973298 0.161307 -0.252241 65 59 53 14 3
-0.972852 0.178211 -0.250499 77 70 60 14 3
-0.959857 0.163126 -0.250987 66 59 52 14 3
-0.980465 0.166806 -0.252652 27 25 20 14 3
-1.006834 -0.002253 0.406424 160 160 155 1 7
-1.008687 -0.004550 0.392353 165 160 157 1 7
-0.994988 0.459716 -0.413248 58 54 60 0 0
-1.000578 0.467062 -0.429376 55 58 62 0 0
-0.996672 0.462704 -0.421079 50 55 59 0 0
-0.996153 0.447707 -0.410878 29 33 38 0 0
-0.996907 0.468888 -0.413587 49 44 49 0 0
-1.001265 0.466795 -0.438183 54 53 62 0 0
-0.991659 0.479282 -0.435662 48 48 57 14 3
-0.997821 0.474415 -0.425653 56 48 55 14 3
-0.989101 0.467089 -0.415836 56 51 58 14 3
-0.892999 0.041576 -0.226267 28 27 34 5 5
-0.880762 0.034236 -0.241171 24 29 37 5 5
-0.868787 0.061603 -0.220585 28 27 30 5 5
-0.888369 0.036548 -0.232935 29 29 36 5 5
-0.872676 0.028972 -0.224775 28 27 33 5 5
-0.774697 0.058647 -0.538229 11 14 17 5 5
-1.048061 -0.479122 0.077732 159 155 155 0 0
-1.043624 -0.452966 0.095561 156 152 152 1 7
-1.044873 -0.470468 0.081060 157 154 154 1 7
-1.023620 -0.269397 0.399448 142 142 143 1 7
-1.021973 -0.263580 0.407241 119 121 123 1 7
-1.021685 -0.267048 0.423601 78 77 80 1 7
-1.023014 -0.281030 0.398073 118 117 119 1 7
-1.048624 -0.269076 -0.194897 140 135 130 1 7
-1.049728 -0.280524 -0.215897 141 138 132 1 7
-1.105774 -0.533734 -0.522856 246 253 253 9 6
-1.095604 -0.504830 -0.511636 222 234 239 9 6
-1.098192 -0.507633 -0.524041 218 232 245 9 6
-1.108260 -0.532887 -0.503452 253 254 253 9 6
-1.195398 -0.524615 -0.046878 130 128 115 9 6
-1.208585 -0.531238 -0.038380 129 125 114 9 6
-1.192529 -0.524875 0.002379 129 125 111 9 6
-0.717605 0.058962 -0.266406 59 57 60 14 3
-0.712901 0.051661 -0.275895 51 50 54 14 3
-0.735704 0.054032 -0.271716 48 47 50 14 3
-0.708378 0.054527 -0.271264 44 42 47 14 3
-0.698894 0.067964 -0.260906 62 56 56 14 3
-1.021001 -0.087292 0.211103 173 169 167 1 7
-1.020517 -0.089828 0.231764 170 168 165 1 7
-1.149336 -0.530262 -0.057885 211 211 205 9 6
-1.160052 -0.524808 -0.080667 160 156 146 9 6
-1.156031 -0.530739 -0.074599 221 219 212 9 6
-1.167241 -0.524263 -0.091178 196 193 189 9 6
-1.006743 0.426922 0.213103 156 142 132 1 7
-1.011249 0.436088 -0.500057 41 40 44 0 0
-1.007956 0.446399 -0.484503 42 43 47 14 3
-1.003632 0.447198 -0.470085 53 55 62 0 0
-0.789414 -0.034466 -0.427474 25 24 31 5 5
-0.784314 -0.035878 -0.421712 34 36 45 5 5
-0.801140 -0.018545 -0.412588 30 33 40 5 5
-0.799587 -0.012698 -0.443418 20 26 33 5 5
-0.783372 -0.029908 -0.413845 30 32 40 5 5
-0.774880 -0.023020 -0.407241 31 33 40 5 5
-0.779497 -0.035651 -0.432441 29 32 37 5 5
-0.796405 -0.029160 -0.430650 27 27 35 5 5
-1.045529 -0.147885 -0.233257 131 127 124 1 7
-1.047381 -0.179970 -0.232709 132 128 124 1 7
-1.046055 -0.156999 -0.215147 133 129 125 1 7
-1.032415 0.094074 -0.452161 82 78 79 1 7
-1.039348 0.063409 -0.437907 84 82 85 1 7
-1.034288 0.078706 -0.466471 84 81 84 1 7
-1.080079 -0.323242 -0.037954 119 111 104 0 0
-1.081063 -0.307511 -0.034299 126 119 114 0 0
-1.052084 -0.266139 -0.459397 136 131 127 1 7
-1.004905 0.317679 0.303486 153 144 135 1 7
-1.005283 0.292785 0.318103 153 146 140 1 7
-1.027026 0.359057 -0.223397 125 111 100 1 7
-1.025196 0.400932 -0.242897 110 101 91 1 7
-1.026956 0.378154 -0.228709 124 109 96 1 7
-1.027044 0.373611 -0.241882 113 101 91 1 7
-1.012617 0.490709 -0.141459 126 110 97 1 7
-1.054711 -0.433170 -0.286897 152 148 146 1 7
-1.054786 -0.437555 -0.260647 149 148 145 1 7
-1.011443 0.424761 0.000353 132 117 104 1 7
-1.008261 0.471707 -0.018332 129 115 101 1 7
-1.024541 -0.143789 0.321075 155 153 149 1 7
-1.024620 -0.146703 0.333103 155 152 149 1 7
-1.023010 -0.127250 0.346111 155 152 148 1 7
-1.020986 -0.121669 0.330502 156 156 151 1 7
-1.023279 -0.152737 0.348550 156 154 152 1 7
-0.857373 0.041526 -0.294797 22 26 35 5 5
-0.884875 0.031363 -0.273119 26 25 29 5 5
-0.877855 0.041697 -0.292376 32 34 44 5 5
-0.875280 0.041628 -0.276803 23 25 33 5 5
-0.864158 0.041312 -0.281122 28 30 38 5 5
-0.886931 0.035856 -0.308974 29 29 36 5 5
-0.871650 0.046400 -0.302222 22 26 35 5 5
-0.886561 0.036902 -0.294628 30 30 39 5 5
-0.867521 0.059642 -0.511983 20 21 25 5 5
-0.873586 0.071774 -0.506017 17 21 27 5 5
-1.009497 0.217365 0.183103 165 158 149 1 7
-1.010677 0.208434 0.170353 167 158 151 1 7
-1.024959 0.098181 -0.048756 136 127 116 1 7
-1.025647 0.067201 -0.042897 132 123 114 1 7
-1.038545 -0.373552 0.181811 159 158 157 1 7
-1.035717 -0.371978 0.199667 148 147 145 1 7
-1.036392 -0.362823 0.187965 159 159 159 1 7
-1.037243 -0.355766 0.173939 157 158 158 1 7
-1.001385 0.357935 -0.391107 48 48 53 14 3
-1.006853 0.333066 -0.402765 43 46 51 0 0
-0.999429 0.346609 -0.397693 43 45 52 14 3
-1.054580 -0.351375 -0.419897 141 136 132 1 7
-1.053702 -0.365445 -0.401093 143 138 135 1 7
-1.018129 -0.113741 0.343642 151 149 144 1 7
-1.050630 -0.234771 -0.285397 139 134 131 1 7
-0.781513 -0.016380 -0.404476 29 31 37 5 5
-0.746413 0.108953 -0.259252 58 54 58 14 3
-0.747036 0.127493 -0.258583 59 54 54 14 3
-0.760190 0.127726 -0.258116 59 55 53 14 3
-1.024689 0.312871 -0.535147 41 37 40 0 0
-1.013365 0.426874 -0.066647 130 115 100 1 7
-0.822183 0.049466 -0.359908 44 47 53 5 5
-0.832387 0.056054 -0.376257 42 47 54 5 5
-0.830820 0.054123 -0.351364 44 47 53 5 5
-1.013138 0.169593 -0.240809 42 41 49 0 0
-1.040866 0.193260 -0.218484 61 56 52 0 0
-1.029923 0.186847 -0.222111 54 48 47 0 0
-1.039223 0.181843 -0.215780 52 49 46 0 0
-1.016960 0.177771 -0.224250 45 42 43 0 0
-1.025402 0.170800 -0.219054 45 42 43 0 0
-0.999800 0.294061 0.410853 151 143 138 1 7
-0.999957 0.272744 0.419103 152 144 138 1 7
-1.102133 0.000323 -0.182644 72 64 54 0 0
-1.091890 0.007321 -0.178313 65 57 49 0 0
-1.091078 0.001436 -0.170223 77 68 59 0 0
-1.099437 0.003605 -0.175944 69 60 52 0 0
-1.107701 -0.015672 -0.177679 78 69 59 0 0
-1.102941 -0.009665 -0.179743 77 68 59 0 0
-1.099820 -0.010403 -0.172025 76 67 58 0 0
-1.104438 -0.007846 -0.158105 70 61 53 0 0
-1.105091 -0.022839 -0.170492 77 67 58 0 0
-1.092007 -0.008560 -0.166134 76 67 58 0 0
-1.116431 -0.012214 -0.165401 70 61 51 0 0
-1.103419 -0.006718 -0.162196 66 57 49 0 0
-1.121808 -0.018571 -0.156276 65 58 49 0 0
-1.015330 0.346127 -0.029624 133 120 107 1 7
-1.014897 0.355612 -0.009522 134 119 107 1 7
-1.051983 -0.418459 -0.175588 151 152 148 1 7
-1.053620 -0.434179 -0.165510 155 151 152 1 7
-0.974344 0.341803 -0.256107 74 77 79 14 3
-0.933348 0.340548 -0.255279 90 79 72 14 3
-1.001152 0.272472 0.395807 154 146 140 1 7
-1.002425 0.266937 0.373103 156 147 140 1 7
-1.035826 -0.144330 -0.111358 137 131 127 1 7
-1.038671 -0.177596 -0.122897 136 131 127 1 7
-1.039799 -0.175327 -0.143867 136 132 126 1 7
-1.036988 -0.163296 -0.108355 139 133 129 1 7
-1.019905 0.242994 -0.082397 129 118 106 1 7
-1.019214 0.274201 -0.048142 131 117 106 1 7
-1.079771 -0.122047 -0.144422 103 94 88 0 0
-1.075379 -0.108741 -0.142191 100 92 85 0 0
-1.076565 -0.118447 -0.127002 100 91 86 0 0
-1.075676 -0.102806 -0.124326 96 87 80 0 0
-1.076329 -0.104434 -0.152906 82 75 68 0 0
-1.072347 -0.097819 -0.150766 90 81 75 0 0
-1.053150 -0.278153 -0.428556 139 131 128 1 7
-1.002086 0.206678 0.377853 156 151 143 1 7
-1.001839 0.173123 0.373954 159 151 145 1 7
-1.000050 0.185275 0.385729 160 151 147 1 7
-1.117192 -0.098005 -0.074954 57 50 42 0 0
-1.117398 -0.087636 -0.083198 62 55 49 0 0
-1.122287 -0.099918 -0.066103 49 42 36 0 0
-1.118396 -0.101590 -0.063121 48 42 35 0 0
-1.114396 -0.091474 -0.067052 34 30 26 0 0
-1.117310 -0.105257 -0.082667 65 58 49 0 0
-1.122731 -0.116062 -0.065170 59 52 45 0 0
-1.115197 -0.087726 -0.075705 49 44 36 0 0
-1.115740 -0.109398 -0.073085 51 43 37 0 0
-1.126305 -0.091931 -0.061662 33 29 25 0 0
-1.036063 0.338941 -0.484590 40 41 41 0 0
-1.031356 0.332350 -0.495063 41 44 43 0 0
-1.029202 0.329699 -0.482202 38 39 41 0 0
-1.032081 0.339822 -0.477330 35 36 40 0 0
-1.045871 0.350896 -0.503962 41 43 42 0 0
-1.031065 0.356029 -0.499794 50 55 62 0 0
-1.035145 0.346092 -0.473297 36 37 40 14 3
-1.038663 0.342503 -0.505445 37 37 37 0 0
-1.044794 0.348914 -0.490747 39 41 41 0 0
-1.036457 0.349687 -0.481674 35 37 39 0 0
-1.045511 0.364038 -0.485439 35 36 40 0 0
-1.029502 -0.190228 0.222306 159 157 155 1 7
-1.079569 -0.249446 -0.014791 118 110 103 0 0
-1.077029 -0.149633 -0.020257 90 80 73 0 0
-1.073454 -0.147664 -0.045373 92 85 78 0 0
-1.076042 -0.133264 -0.035506 94 85 79 0 0
-1.077470 -0.131132 -0.042283 67 60 54 0 0
-1.081345 -0.133936 -0.051328 77 68 61 0 0
-1.010972 0.215480 0.112350 171 162 155 1 7
-1.011758 0.213547 0.129103 168 158 152 1 7
-1.085807 -0.067921 -0.184825 71 63 56 0 0
-1.078802 -0.096734 -0.184970 76 69 62 0 0
-1.078432 -0.079784 -0.151534 90 81 75 0 0
-1.073949 -0.054369 -0.152638 89 80 75 0 0
-1.076895 -0.065638 -0.162297 89 79 74 0 0
-1.076713 -0.055110 -0.158834 79 72 66 0 0
-1.073599 -0.069704 -0.153365 88 80 72 0 0
-1.075812 -0.083746 -0.171890 91 83 76 0 0
-1.081337 -0.080092 -0.162870 81 73 67 0 0
-1.093673 -0.067635 -0.167869 76 68 59 0 0
-1.079144 -0.072431 -0.173975 89 79 74 0 0
-1.052467 -0.295843 -0.302897 141 137 132 1 7
-0.679431 0.274816 -0.262059 29 22 21 14 3
-1.046646 -0.165479 -0.545647 126 122 119 1 7
-1.081589 -0.364989 -0.014900 134 126 120 0 0
-1.081417 -0.360775 -0.026971 142 133 130 0 0
-1.085164 -0.333303 0.011539 95 88 82 0 0
-1.082177 -0.351145 -0.003117 150 145 142 0 0
-1.086727 -0.367045 0.008181 135 129 125 0 0
-1.133778 -0.430828 -0.079834 74 70 64 0 0
-1.131622 -0.416785 -0.078184 73 67 62 0 0
-1.138479 -0.427460 -0.062028 71 66 59 0 0
-1.134357 -0.410445 -0.066972 70 64 59 0 0
-1.136047 -0.400870 -0.076336 75 68 61 0 0
-1.108354 -0.116077 -0.150471 75 66 57 0 0
-1.101783 -0.118160 -0.166519 75 67 57 0 0
-1.108330 -0.148653 -0.152314 76 69 58 0 0
-1.110944 -0.132243 -0.156836 76 68 58 0 0
-1.046783 -0.271427 -0.182750 141 137 132 1 7
-1.044701 -0.275136 -0.158365 142 137 133 1 7
-1.043715 -0.262682 -0.145395 138 135 131 1 7
-1.047033 -0.288689 -0.148033 142 139 135 1 7
-1.011862 0.395750 0.038103 140 126 114 1 7
-1.011433 0.402237 0.061103 148 135 123 1 7
-1.010689 0.420241 0.053103 145 131 120 1 7
-1.022581 -0.198327 0.384103 155 155 152 1 7
-1.008393 0.399780 0.241062 148 139 128 1 7
-1.007317 0.399931 0.257728 153 143 132 1 7
-1.006647 0.421267 0.245103 152 142 134 1 7
-1.013863 0.084490 0.146828 172 164 160 1 7
-1.012347 0.070334 0.177049 169 164 158 1 7
-1.013656 0.092303 0.159537 169 165 158 1 7
-1.038663 0.330242 -0.550292 42 40 40 0 0
-1.034116 0.323424 -0.538948 38 36 37 0 0
-1.050849 0.341836 -0.543660 34 33 34 0 0
-1.045687 0.351333 -0.547539 38 38 39 0 0
-1.048893 0.357659 -0.540424 35 36 37 0 0
-1.048839 0.356635 -0.550649 54 56 64 0 0
-1.032131 0.353221 -0.554707 59 59 68 0 0
-1.033225 0.353164 -0.543341 57 59 68 0 0
-1.050055 0.342472 -0.551544 44 41 42 0 0
-1.038068 0.349196 -0.557258 44 41 41 0 0
-1.046039 0.345399 -0.555900 44 41 41 0 0
-1.033573 0.344228 -0.559312 40 40 41 0 0
-1.038255 0.354837 -0.553524 39 38 40 0 0
-1.052035 0.348650 -0.539173 38 39 39 0 0
-1.032411 0.331771 -0.554061 44 42 43 0 0
-1.055084 0.347914 -0.555352 39 38 37 0 0
-1.031500 -0.324394 0.294640 152 152 154 1 7
-1.030732 -0.327642 0.271929 157 157 158 1 7
-1.031694 -0.350577 0.264974 121 119 121 1 7
-1.030791 -0.348725 0.287082 119 118 120 1 7
-1.032934 -0.338071 0.286580 139 139 142 1 7
-1.031496 -0.339093 0.301007 136 136 140 1 7
-1.028274 0.146711 -0.452431 65 65 70 1 7
-1.027243 0.143423 -0.464605 63 64 69 1 7
-1.030286 -0.296185 0.340827 156 156 158 1 7
-1.025075 -0.285872 0.335219 153 152 156 1 7
-1.026332 -0.311759 0.350491 140 140 143 1 7
-1.025813 -0.318261 0.333781 119 120 122 1 7
-1.012354 0.054828 0.168396 173 168 164 1 7
-1.012608 0.043474 0.157103 176 168 162 1 7
-1.014282 0.072451 0.159457 174 165 162 1 7
-1.012472 0.051642 0.137577 174 171 160 1 7
-1.046677 -0.064342 -0.314772 123 119 116 1 7
-1.042817 -0.011603 -0.510647 108 107 104 1 7
-1.041562 -0.014975 -0.534397 106 104 103 1 7
-0.911084 0.462258 -0.259259 103 84 69 14 3
-1.002864 0.157810 0.362353 158 154 146 1 7
-1.003984 0.161696 0.332897 163 156 149 1 7
-1.003620 0.174188 0.348103 161 154 146 1 7
-1.031307 0.010478 -0.150897 129 121 114 1 7
-1.033245 -0.020471 -0.153397 130 120 117 1 7
-1.032359 -0.007671 -0.144828 130 121 117 1 7
-1.030625 -0.016434 -0.117897 132 122 120 1 7
-1.013824 0.289015 0.050103 152 140 131 1 7
-1.013323 0.272910 0.045103 139 129 118 1 7
-1.012444 0.262895 0.072603 152 141 134 1 7
-1.120724 -0.262224 -0.090189 71 64 55 0 0
-1.122611 -0.270592 -0.075577 72 65 55 0 0
-1.125296 -0.248152 -0.082690 70 64 54 0 0
-1.124262 -0.260177 -0.078541 71 64 54 0 0
-1.128523 -0.249909 -0.067121 72 63 56 0 0
-1.126884 -0.270697 -0.066504 71 63 55 0 0
-1.128030 -0.270344 -0.070580 71 65 55 0 0
-1.131509 -0.271000 -0.057768 69 61 53 0 0
-1.133146 -0.250853 -0.058196 68 61 53 0 0
-1.036933 -0.304387 0.181707 160 163 163 1 7
-1.034865 -0.313264 0.207649 160 161 161 1 7
-1.035438 -0.284637 0.207578 161 162 162 1 7
-1.092903 -0.487697 0.077392 223 223 221 0 0
-1.082244 -0.486542 0.081486 240 240 238 0 0
-1.081485 -0.488180 0.094199 224 224 222 0 0
-0.669271 0.402416 -0.261238 131 102 75 14 3
-1.046417 -0.082057 -0.283397 126 118 118 1 7
-1.098402 -0.479849 -0.080318 255 255 254 9 6
-1.072393 -0.475359 -0.065776 255 255 253 9 6
-1.093337 -0.476172 -0.060979 255 255 253 9 6
-1.046809 -0.064707 -0.292147 123 118 114 1 7
-1.046018 -0.043194 -0.289022 123 117 114 1 7
-1.000349 0.416100 0.402127 147 139 129 1 7
-1.000748 0.409458 0.408232 145 136 129 1 7
-1.105689 -0.333004 -0.186019 94 86 77 0 0
-1.091397 -0.350567 -0.195474 93 84 77 0 0
-1.096327 -0.334244 -0.195979 91 83 77 0 0
-1.094373 -0.315055 -0.197626 90 82 75 0 0
-1.106576 -0.314630 -0.193892 91 83 74 0 0
-1.081348 -0.277398 -0.053325 97 90 83 0 0
-1.080668 -0.257857 -0.054481 95 86 81 0 0
-1.079954 -0.249733 -0.034769 103 95 88 0 0
-1.079965 -0.263867 -0.014078 89 80 75 0 0
-1.081088 -0.262246 -0.037743 111 104 97 0 0
-1.077709 -0.274665 -0.029334 108 100 94 0 0
-0.734029 -0.025557 -0.399089 41 44 52 5 5
-0.907510 0.019546 -0.496440 41 44 52 5 5
-0.903593 0.023203 -0.494438 38 44 52 5 5
-0.901201 0.042084 -0.498320 40 50 57 5 5
-0.907802 0.053630 -0.500880 35 45 51 5 5
-0.912999 0.034286 -0.499741 36 37 45 5 5
-0.909236 0.058504 -0.499997 38 48 54 5 5
-0.832761 -0.001166 -0.411392 27 28 35 5 5
-0.848917 0.000933 -0.416786 22 24 30 5 5
-0.864437 0.018958 -0.431439 45 44 48 5 5
-0.847934 0.012147 -0.438715 23 26 32 5 5
-0.847550 0.002762 -0.430378 45 49 53 5 5
-0.854906 0.007018 -0.410704 22 24 29 5 5
-0.854983 0.009416 -0.430139 50 48 53 5 5
-0.977852 0.280826 -0.411485 46 49 56 14 3
-0.990965 0.298316 -0.425079 50 53 59 14 3
-0.979356 0.278942 -0.439637 43 44 50 14 3
-0.975732 0.268226 -0.417206 50 49 58 14 3
-0.973105 0.261774 -0.426758 42 42 47 14 3
-0.978539 0.278358 -0.426200 49 48 55 14 3
-0.975776 0.258937 -0.435327 46 47 54 14 3
-1.011634 0.082812 0.190045 173 165 160 1 7
-0.985562 0.053786 -0.288726 39 36 38 5 5
-0.979030 0.049699 -0.281721 35 31 37 5 5
-0.967055 0.052707 -0.277259 50 44 44 5 5
-0.995805 0.050340 -0.282965 33 29 32 5 5
-0.959886 0.058497 -0.277431 61 53 52 5 5
-1.044052 -0.052651 -0.221897 125 119 115 1 7
-1.160052 -0.387805 0.024867 44 42 34 0 0
-1.168794 -0.374502 0.017662 45 40 33 0 0
-1.165089 -0.393359 0.018101 47 41 34 0 0
-1.160480 -0.385654 0.011352 53 47 40 0 0
-1.166409 -0.377458 0.031529 44 41 33 0 0
-1.160795 -0.374352 0.009674 45 41 34 0 0
-1.166184 -0.375528 0.024274 44 41 32 0 0
-1.161632 -0.394953 0.030526 31 29 23 0 0
-1.015296 0.114734 0.097706 173 167 160 1 7
-1.014145 0.130543 0.101479 174 166 161 1 7
-1.012678 0.099526 0.148162 172 165 160 1 7
-1.098709 -0.457664 -0.036162 244 243 241 0 0
-1.130705 -0.455373 -0.050795 73 66 61 0 0
-1.115170 -0.457771 -0.044653 210 208 205 0 0
-1.101871 -0.457177 -0.052223 244 243 241 0 0
-1.124274 -0.457001 -0.031691 233 232 229 0 0
-0.998911 0.195083 0.418807 153 148 141 1 7
-1.049585 -0.341267 -0.120897 147 142 138 1 7
-1.049313 -0.343132 -0.092866 146 143 139 1 7
-1.031395 0.130855 -0.250699 76 66 68 0 0
-0.957526 0.358367 -0.255054 65 63 65 14 3
-0.692190 -0.018559 -0.532825 26 32 36 5 5
-0.700935 -0.020826 -0.528953 21 26 31 5 5
-1.048980 -0.305637 -0.223063 144 137 134 1 7
-1.050266 -0.290206 -0.241080 143 138 133 1 7
-1.099888 -0.457949 -0.012853 210 208 205 0 0
-1.123832 -0.458885 -0.006750 74 66 60 0 0
-1.137873 -0.459237 0.005490 209 208 205 0 0
-1.098305 -0.458823 0.001969 155 152 147 0 0
-1.111020 -0.458825 0.005622 252 252 250 0 0
-1.118359 -0.458835 -0.018740 254 254 252 0 0
-1.139923 -0.457546 -0.014983 165 161 156 0 0
-1.008268 0.473485 -0.491190 39 37 41 14 3
-1.002261 0.466280 -0.477518 38 39 42 0 0
-1.013548 0.383851 -0.015397 132 118 105 1 7
-1.012171 0.411336 -0.017397 129 114 101 1 7
-1.048998 -0.176692 -0.334772 133 127 124 1 7
-1.049797 -0.218829 -0.324639 134 129 128 1 7
-1.049698 -0.188551 -0.322022 134 127 123 1 7
-1.004457 0.367216 -0.559819 72 76 89 0 0
-1.002737 0.374570 -0.559392 85 88 105 0 0
-1.008771 0.381437 -0.551013 69 77 86 0 0
-1.011460 0.363968 -0.560354 83 91 104 0 0
-1.021551 0.369409 -0.536103 54 58 69 0 0
-1.006725 0.361270 -0.550655 86 93 107 0 0
-1.010321 0.364714 -0.544590 66 70 82 0 0
-1.019331 0.381303 -0.541028 60 65 76 0 0
-1.019810 0.356746 -0.539865 59 63 74 0 0
-1.029189 -0.204595 0.297814 161 161 161 1 7
-1.027815 -0.192818 0.324352 163 162 161 1 7
-1.027428 -0.207587 0.322438 161 160 159 1 7
-1.007209 0.429472 0.201603 157 143 133 1 7
-1.009383 0.401179 0.179103 157 146 133 1 7
-1.009039 0.409250 0.165103 158 146 136 1 7
-1.008814 0.405647 0.202103 156 147 138 1 7
-1.014207 0.371927 -0.039272 131 119 108 1 7
-1.014253 0.370729 -0.026849 130 116 105 1 7
-1.108290 -0.253908 -0.164124 90 81 71 0 0
-1.110144 -0.245199 -0.176215 87 78 71 0 0
-1.117432 -0.268044 -0.157833 81 73 66 0 0
-1.114068 -0.256295 -0.157115 87 78 69 0 0
-1.112085 -0.267179 -0.170847 91 81 74 0 0
-1.108747 -0.263162 -0.182498 89 80 71 0 0
-1.111762 -0.267207 -0.163717 88 79 71 0 0
-1.104987 -0.280515 -0.184644 92 83 74 0 0
-1.050715 -0.197987 -0.381210 131 126 121 1 7
-1.012434 0.459741 -0.512038 34 34 37 0 0
-1.012426 0.472597 -0.515456 33 33 36 0 0
-0.899554 0.056988 -0.227626 31 29 34 5 5
-0.902406 0.063486 -0.242784 44 39 43 5 5
-0.837101 0.065553 -0.258637 46 41 40 14 3
-0.850166 0.056302 -0.262900 34 34 34 14 3
-0.842140 0.076646 -0.255874 42 40 43 14 3
-0.862566 0.067983 -0.257232 38 37 40 14 3
-1.040102 -0.330511 0.146178 158 159 159 1 7
-1.040885 -0.344657 0.144786 156 159 158 1 7
-1.051124 -0.408662 -0.138326 148 147 144 1 7
-1.050595 -0.272417 -0.500272 136 131 128 1 7
-1.053035 -0.307007 -0.492605 137 132 129 1 7
-1.053566 -0.322211 -0.479372 137 133 130 1 7
-1.051309 -0.293573 -0.490537 138 133 130 1 7
-1.054401 -0.420148 -0.428897 149 145 142 1 7
-0.945883 0.061654 -0.366720 26 25 32 5 5
-0.945040 0.071794 -0.368602 38 40 39 5 5
-0.942357 0.068177 -0.358951 31 32 34 5 5
-0.727448 -0.036311 -0.154733 66 68 72 5 5
-0.714008 -0.041760 -0.153832 68 70 76 5 5
-0.723600 -0.030519 -0.151493 72 76 79 5 5
-0.730304 -0.027775 -0.160868 72 69 75 5 5
-0.720044 -0.024657 -0.157524 67 60 69 5 5
-0.715220 -0.026024 -0.160600 75 68 78 5 5
-0.715618 -0.031736 -0.150757 76 75 79 5 5
-1.053596 -0.381069 -0.334897 146 141 138 1 7
-1.054115 -0.395579 -0.300397 147 144 140 1 7
-0.984656 0.388102 -0.256635 62 55 53 14 3
-0.961382 0.352361 -0.255752 81 80 82 14 3
-0.985850 0.353958 -0.257068 42 36 33 14 3
-0.761362 0.111713 -0.259328 59 55 54 14 3
-0.785118 0.132594 -0.256824 57 52 55 14 3
-0.781091 0.150925 -0.255005 56 50 52 14 3
-0.780511 0.115076 -0.258511 62 58 57 14 3
-1.128446 -0.240661 -0.071198 70 62 53 0 0
-1.128782 -0.213034 -0.069017 69 62 53 0 0
-1.131504 -0.225502 -0.068005 68 60 51 0 0
-1.128130 -0.219631 -0.082720 70 63 53 0 0
-1.129105 -0.242983 -0.058806 70 62 52 0 0
-1.125644 -0.233906 -0.079284 71 63 54 0 0
-1.082565 -0.369147 -0.066658 132 125 123 0 0
-1.081037 -0.358503 -0.073098 134 127 125 0 0
-1.080629 -0.349860 -0.064034 146 141 137 0 0
-1.091570 -0.436005 -0.198686 97 89 86 0 0
-1.099716 -0.437888 -0.196302 92 86 83 0 0
-1.095313 -0.429783 -0.200424 96 87 83 0 0
-1.089293 -0.426115 -0.181931 96 88 84 0 0
-1.085971 -0.409325 -0.181847 94 88 83 0 0
-1.098158 -0.431170 -0.192357 97 89 85 0 0
-1.096523 -0.422370 -0.195366 94 87 82 0 0
-1.088717 -0.437327 -0.185277 98 89 85 0 0
-0.900853 0.012175 -0.565729 40 42 48 5 5
-1.039849 -0.280684 0.077185 148 144 140 1 7
-1.041833 -0.298735 0.068496 146 144 141 1 7
-1.043934 -0.312391 0.033588 148 144 142 1 7
-1.041940 -0.311868 0.064113 147 144 142 1 7
-1.042209 -0.292741 0.057517 148 143 138 1 7
-0.753581 0.291173 -0.258205 41 30 21 14 3
-0.735342 0.287069 -0.259526 45 33 24 14 3
-0.720952 0.298326 -0.261600 21 18 16 14 3
-0.782744 0.027562 -0.363039 39 44 47 5 5
-0.792869 0.031732 -0.355296 41 42 46 5 5
-0.777530 0.021346 -0.347176 41 44 47 5 5
-0.779594 0.022215 -0.369353 38 40 46 5 5
-0.773218 0.021310 -0.358125 39 42 44 5 5
-1.071343 -0.481654 0.050071 255 255 253 0 0
-1.086114 -0.481863 0.044916 255 255 253 0 0
-1.104933 -0.484959 0.061863 253 253 251 0 0
-1.093545 -0.485057 0.051746 254 254 253 0 0
-1.094285 -0.483983 0.067081 255 255 253 0 0
-1.063098 -0.481943 0.066029 255 255 253 0 0
-1.024232 0.164950 -0.096897 132 120 107 1 7
-1.022091 0.186344 -0.067897 130 118 106 1 7
-1.021245 0.175100 -0.053746 134 122 110 1 7
-1.004084 0.397202 0.333541 151 140 129 1 7
-0.857069 0.124965 -0.257921 54 48 50 14 3
-0.843801 0.135283 -0.255112 73 68 65 14 3
-1.025522 -0.134076 0.259103 155 155 148 1 7
-1.028681 0.246498 -0.435723 44 51 49 1 7
-1.024160 0.242096 -0.470358 53 51 51 14 3
-1.013300 0.236188 -0.464625 61 57 54 14 3
-1.027667 0.243671 -0.450013 51 49 50 1 7
-1.021986 0.242934 -0.458423 50 49 51 14 3
-1.029477 0.229979 -0.439436 50 50 53 1 7
-1.009333 0.234466 -0.441016 49 48 48 14 3
-1.027993 0.237492 -0.456351 56 57 61 1 7
-1.013391 0.305755 -0.457844 44 44 47 14 3
-0.998255 0.302098 -0.456155 47 50 58 14 3
-1.020701 0.309772 -0.458044 45 47 51 0 0
-1.013127 0.323022 -0.462661 50 52 59 14 3
-1.014469 0.306094 -0.446195 49 52 57 14 3
-1.005293 0.308650 -0.450511 51 55 60 14 3
-1.021324 0.312630 -0.446298 48 49 52 0 0
-1.010017 0.311539 -0.450023 46 50 55 14 3
-1.005818 0.310226 -0.456933 53 53 60 14 3
-1.020282 0.318958 -0.469433 45 45 51 0 0
-1.015045 0.306907 -0.433775 42 43 47 0 0
-1.009175 0.307657 -0.438942 44 44 48 14 3
-1.030755 0.319794 -0.460618 41 43 43 0 0
-1.016355 0.313687 -0.465586 41 40 42 14 3
-0.814625 0.382885 -0.259644 60 44 29 14 3
-0.822299 0.408778 -0.261103 34 29 25 14 3
-1.012858 0.303987 0.063103 151 140 130 1 7
-1.013523 0.322114 0.061103 144 131 120 1 7
-0.711317 0.151626 -0.256667 48 44 41 14 3
-0.693293 0.164975 -0.256620 46 41 40 14 3
-1.029276 0.349106 -0.487441 48 50 55 0 0
-1.014756 0.325570 -0.479042 48 51 58 14 3
-1.018835 0.333944 -0.482452 47 51 58 14 3
-1.025369 0.339619 -0.481113 45 50 56 14 3
-1.029823 0.352658 -0.480352 52 55 65 0 0
-1.022415 0.338141 -0.473751 52 55 63 14 3
-1.023198 0.341925 -0.478985 51 57 65 14 3
-1.026447 0.333832 -0.475383 39 41 42 0 0
-1.021145 0.326504 -0.475026 44 46 52 14 3
-1.013202 0.327231 -0.474272 46 51 58 14 3
-1.045029 -0.058087 -0.256522 123 117 114 1 7
-1.044291 -0.043031 -0.268178 126 119 117 1 7
-1.151576 -0.361905 0.013153 44 39 33 0 0
-1.149557 -0.372708 0.014681 30 27 23 0 0
-1.157920 -0.362326 0.018052 29 25 21 0 0
-1.032229 0.275517 -0.221850 66 64 67 1 7
-1.017660 0.298954 -0.252077 56 51 50 1 7
-1.024060 0.271808 -0.239245 65 70 72 1 7
-1.015345 0.279762 -0.255387 58 56 57 1 7
-1.024849 0.281529 -0.233525 57 52 48 1 7
-1.133652 -0.217951 -0.037949 65 58 49 0 0
-1.132253 -0.229798 -0.043493 66 59 51 0 0
-1.131649 -0.221110 -0.051004 66 59 50 0 0
-1.133329 -0.245263 -0.051448 67 60 50 0 0
-1.131887 -0.228543 -0.026854 64 58 49 0 0
-1.128613 -0.227785 -0.035960 65 57 49 0 0
-1.134612 -0.242937 -0.030332 65 57 49 0 0
-1.136066 -0.218748 -0.029279 59 53 45 0 0
-1.130264 -0.250370 -0.037745 68 60 51 0 0
-1.101562 -0.092571 -0.198135 78 70 62 0 0
-1.098791 -0.117919 -0.193165 81 71 63 0 0
-1.102413 -0.101665 -0.183108 79 71 63 0 0
-1.010729 -0.048470 0.380495 164 161 158 1 7
-1.011248 -0.056148 0.369033 166 163 159 1 7
-0.856105 0.022415 -0.402459 26 28 39 5 5
-0.865068 0.036625 -0.395191 25 26 33 5 5
-0.858921 0.040094 -0.378167 26 26 36 5 5
-0.855604 0.035213 -0.389023 27 28 37 5 5
-0.831941 0.021486 -0.380778 29 29 37 5 5
-0.847131 0.026676 -0.390598 27 28 36 5 5
-0.843868 0.029366 -0.371494 26 27 35 5 5
-0.985548 0.457204 -0.406970 35 36 42 0 0
-0.988596 0.132264 -0.247425 92 80 73 5 5
-0.981822 0.134722 -0.245530 97 83 76 5 5
-1.073819 -0.119014 -0.039788 100 90 84 0 0
-0.976921 0.219903 -0.380123 47 53 57 14 3
-1.074447 -0.081379 -0.087662 109 98 90 0 0
-1.077656 -0.063312 -0.077548 91 81 74 0 0
-1.077991 -0.082486 -0.067351 77 68 60 0 0
-0.870620 0.460734 -0.260332 87 70 60 14 3
-0.886760 0.456227 -0.259539 64 53 45 14 3
-1.053559 -0.296598 -0.347527 140 134 130 1 7
-1.049593 -0.224823 -0.269397 139 131 128 1 7
-1.048476 -0.218861 -0.247959 138 132 129 1 7
-1.118641 -0.186750 -0.091588 70 62 53 0 0
-1.122876 -0.207690 -0.105157 70 62 53 0 0
-1.116377 -0.200630 -0.120734 68 62 54 0 0
-1.115061 -0.184603 -0.111793 69 61 54 0 0
-1.117194 -0.217847 -0.113861 69 62 53 0 0
-1.079656 -0.298205 -0.070899 96 88 83 0 0
-1.080875 -0.279215 -0.072530 97 89 84 0 0
-1.081520 -0.307963 -0.080987 100 92 86 0 0
-1.078615 -0.294231 -0.080545 97 89 84 0 0
-1.045102 0.209024 -0.227449 81 75 69 0 0
-1.045692 0.205049 -0.217504 66 59 54 1 7
-1.043791 0.214907 -0.224725 60 54 52 1 7
-1.029074 -0.142800 0.140228 153 148 143 1 7
-1.054902 -0.405504 -0.015068 152 149 148 1 7
-1.051322 -0.384258 -0.011018 153 148 146 1 7
-1.042061 0.202802 -0.208783 45 41 39 1 7
-1.034209 0.211404 -0.209957 48 43 43 1 7
-1.034466 0.191878 -0.189222 44 41 44 1 7
-1.033622 0.217908 -0.204984 52 45 45 1 7
-1.027943 0.223895 -0.187317 63 61 63 1 7
-1.027580 -0.339956 0.311525 118 117 121 1 7
-1.030136 -0.054458 -0.022074 143 134 126 1 7
-1.028116 -0.030052 -0.001359 144 134 128 1 7
-1.001605 0.304612 -0.536603 57 59 69 14 3
-1.132712 -0.533235 0.022901 234 234 224 9 6
-1.141976 -0.536069 0.012876 223 221 214 9 6
-1.007121 0.442013 0.187103 157 143 134 1 7
-1.006571 0.460284 0.170353 153 144 130 1 7
-1.008564 0.424070 0.183103 156 142 131 1 7
-1.007925 0.434554 0.167603 156 144 135 1 7
-1.009582 0.169104 0.231353 164 156 148 1 7
-1.024801 -0.089302 0.045769 145 137 131 1 7
-1.042771 -0.019985 -0.257572 124 116 114 1 7
-1.042896 -0.004176 -0.281135 118 112 111 1 7
-1.050410 -0.253706 -0.550744 131 127 123 1 7
-1.050907 -0.274147 -0.573022 136 130 126 1 7
-1.051436 -0.270085 -0.532147 134 127 124 1 7
-1.051886 -0.256745 -0.423897 136 131 127 1 7
-1.052532 -0.262648 -0.384522 136 131 127 1 7
-1.053489 -0.290484 -0.374147 139 132 129 1 7
-1.098825 -0.488481 -0.164143 255 255 254 9 6
-1.070009 -0.480057 -0.163993 255 255 253 9 6
-1.088651 -0.487031 -0.177706 255 255 253 9 6
-1.127500 -0.120921 -0.089501 65 58 50 0 0
-1.123604 -0.129580 -0.095288 66 60 51 0 0
-1.122223 -0.145905 -0.098314 66 59 50 0 0
-1.116415 -0.146961 -0.109420 68 61 52 0 0
-1.115211 -0.128125 -0.114318 67 59 50 0 0
-1.120715 -0.125052 -0.108022 66 59 50 0 0
-0.704565 -0.056351 -0.523500 17 26 33 5 5
-0.680528 -0.056108 -0.510243 15 24 30 5 5
-0.693515 -0.043721 -0.513771 16 18 24 5 5
-0.702483 -0.053439 -0.533696 28 30 40 5 5
-0.695318 -0.052371 -0.510631 26 33 38 5 5
-0.690921 -0.030948 -0.520645 19 27 32 5 5
-1.061437 -0.472679 -0.413897 250 250 248 9 6
-1.056322 -0.457999 -0.421522 154 152 152 1 7
-0.969990 0.240728 -0.542743 33 38 44 14 3
-0.969938 0.251265 -0.549272 26 27 30 14 3
-0.972665 0.248334 -0.570743 35 36 44 14 3
-0.969630 0.242362 -0.554814 29 33 39 14 3
-0.973330 0.231743 -0.544293 27 29 33 14 3
-1.054956 -0.414076 -0.357897 150 147 146 1 7
-1.046025 -0.108857 -0.515359 121 117 113 1 7
-1.093234 -0.489712 -0.291509 254 255 253 9 6
-1.079789 -0.484198 -0.245195 255 255 254 9 6
-1.093226 -0.490802 -0.258288 255 255 254 9 6
-1.034172 0.176699 -0.556779 48 50 53 1 7
-1.034717 0.182505 -0.538732 72 78 80 1 7
-1.008439 0.426368 0.107097 164 148 138 1 7
-1.041489 0.143633 -0.156268 43 39 40 1 7
-1.037039 0.161857 -0.162454 46 40 44 1 7
-1.044600 0.144273 -0.170843 56 48 41 1 7
-1.037922 0.128191 -0.180978 38 34 34 1 7
-1.009316 0.441201 0.051103 143 131 120 1 7
-1.008194 0.435832 0.070094 145 132 120 1 7
-1.010192 0.418190 0.071103 144 132 118 1 7
-0.705397 -0.042727 -0.542921 25 31 38 5 5
-0.697755 -0.025694 -0.553539 28 32 41 5 5
-0.695160 -0.036516 -0.546647 20 26 33 5 5
-1.001598 0.142808 0.392150 160 153 149 1 7
-0.999459 0.149087 0.427422 157 153 147 1 7
-0.999675 0.145272 0.407206 157 151 147 1 7
-1.024795 -0.151386 0.280896 156 154 150 1 7
-1.024180 -0.124585 0.275586 154 153 149 1 7
-1.026086 -0.158196 0.271397 158 155 150 1 7
-1.023694 -0.139484 0.297830 159 156 153 1 7
-1.055682 -0.444127 -0.294709 150 149 146 1 7
-1.054749 -0.412714 -0.309647 150 145 142 1 7
-1.113606 -0.524471 -0.393870 255 255 255 9 6
-1.115635 -0.526558 -0.376689 255 255 255 9 6
-1.107292 -0.509573 -0.380500 254 255 254 9 6
-1.116328 -0.526725 -0.409431 255 255 255 9 6
-0.884402 0.024169 -0.209283 32 31 36 5 5
-0.868793 0.020615 -0.189974 21 25 32 5 5
-0.881238 0.014373 -0.190940 28 30 36 5 5
-0.890598 0.027005 -0.195561 58 53 54 5 5
-1.040264 -0.014929 -0.218738 125 119 116 1 7
-1.039225 -0.008525 -0.201917 130 121 118 1 7
-0.984744 0.244443 -0.444131 43 48 55 14 3
-1.003665 0.232550 -0.453302 47 44 43 14 3
-0.987244 0.229900 -0.455219 45 46 48 14 3
-0.984609 0.234895 -0.448815 50 49 55 14 3
-0.993155 0.233134 -0.466305 53 50 50 14 3
-0.990344 0.233781 -0.438998 49 51 55 14 3
-0.987260 0.239599 -0.465693 51 52 56 14 3
-0.829526 0.052468 -0.270918 37 35 37 14 3
-0.812174 0.050260 -0.278473 45 41 44 14 3
-0.823095 0.061367 -0.260282 49 46 48 14 3
-0.804936 0.058390 -0.265375 53 51 54 14 3
-0.812058 0.068178 -0.258759 48 46 48 14 3
-0.812891 0.051268 -0.273041 46 43 49 14 3
-1.003066 0.262978 0.333103 157 148 140 1 7
-0.846790 0.013767 -0.404566 28 30 36 5 5
-0.831474 0.011114 -0.403724 33 34 43 5 5
-0.987326 0.233295 -0.417754 48 51 56 14 3
-0.981112 0.243465 -0.435756 45 48 54 14 3
-0.975486 0.250242 -0.426407 48 51 58 14 3
-0.975860 0.249649 -0.415291 48 51 55 14 3
-0.987180 0.240173 -0.425558 50 49 57 14 3
-0.988366 0.229212 -0.431385 52 50 48 14 3
-0.865864 0.055776 -0.211993 21 23 27 5 5
-0.871172 0.061257 -0.206332 40 41 44 5 5
-1.024902 0.102269 -0.064897 132 123 116 1 7
-1.027474 0.065353 -0.070147 130 122 113 1 7
-0.939994 0.028651 -0.312676 25 23 27 5 5
-0.711457 0.096362 -0.258533 47 42 46 14 3
-0.731617 0.077637 -0.260264 62 56 58 14 3
