ply
format ascii 1.0
element vertex 1119
property float x
property float y
property float z
property uchar red
property uchar green
property uchar blue
property uchar semantic_label
property uchar instance_label
end_header
-0.467617 1.155510 0.332748 0 255 0 83 13
-0.432765 1.076296 0.244748 0 255 0 83 13
-0.473575 1.056345 0.176748 0 255 0 83 13
-0.436724 1.069986 0.196747 0 255 0 83 13
-0.529266 1.154059 0.325285 0 255 0 83 13
-0.438173 1.044731 0.190747 0 255 0 83 13
-0.549320 1.117428 0.356950 0 255 0 83 13
-0.453252 1.040322 0.236748 0 255 0 83 13
-0.444804 1.051209 0.212748 0 255 0 83 13
-0.504052 1.195727 0.319827 0 255 0 83 13
-0.573382 1.138900 0.359757 0 255 0 83 13
-0.464149 1.093190 0.318747 0 255 0 83 13
-0.456960 1.051739 0.142748 0 255 0 83 13
-0.437590 1.060964 0.218747 0 255 0 83 13
-0.449128 1.050106 0.186747 0 255 0 83 13
-0.473242 1.148285 0.315750 0 255 0 83 13
-0.444309 1.092018 0.242747 0 255 0 83 13
-0.473743 1.059354 0.218747 0 255 0 83 13
-0.582870 1.132738 0.363800 0 255 0 83 13
-0.437460 1.071160 0.226748 0 255 0 83 13
-0.454995 1.051360 0.198748 0 255 0 83 13
-0.491095 1.131633 0.305888 0 255 0 83 13
-0.483194 1.168802 0.321778 0 255 0 83 13
-0.491398 1.091729 0.322748 0 255 0 83 13
-0.511149 1.095002 0.331062 0 255 0 83 13
-0.511905 1.129922 0.359142 0 255 0 83 13
-0.505302 1.071268 0.328747 0 255 0 83 13
-0.509014 1.239720 0.320499 0 255 0 83 13
-0.477864 1.155401 0.319917 0 255 0 83 13
-0.460892 1.052479 0.218747 0 255 0 83 13
-0.449190 1.040193 0.196747 0 255 0 83 13
-0.459529 1.049270 0.129905 0 255 0 83 13
-0.429286 1.059199 0.226748 0 255 0 83 13
-0.466277 1.060928 0.226748 0 255 0 83 13
-0.560733 1.131074 0.356747 0 255 0 83 13
-0.517537 1.103424 0.342748 0 255 0 83 13
-0.541372 1.125962 0.349814 0 255 0 83 13
-0.489800 1.108866 0.343545 0 255 0 83 13
-0.500583 1.125471 0.345763 0 255 0 83 13
-0.543669 1.163254 0.373627 0 255 0 83 13
-0.462789 1.043551 0.200747 0 255 0 83 13
-0.594854 1.114838 0.369759 0 255 0 83 13
-0.479685 1.089116 0.328747 0 255 0 83 13
-0.513030 1.134250 0.321811 0 255 0 83 13
-0.488845 1.122976 0.341772 0 255 0 83 13
-0.463716 1.077670 0.306747 0 255 0 83 13
-0.474560 1.066778 0.154747 0 255 0 83 13
-0.493911 1.060667 0.321080 0 255 0 83 13
-0.453121 1.060176 0.259751 0 255 0 83 13
-0.438027 1.044615 0.170748 0 255 0 83 13
-0.466393 1.045838 0.228747 0 255 0 83 13
-0.426972 1.062797 0.246747 0 255 0 83 13
-0.593369 1.150684 0.372747 0 255 0 83 13
-0.489677 1.119063 0.311023 0 255 0 83 13
-0.437264 1.057825 0.180748 0 255 0 83 13
-0.432676 1.050550 0.188747 0 255 0 83 13
-0.468861 1.049209 0.152748 0 255 0 83 13
-0.585585 1.158443 0.376748 0 255 0 83 13
-0.532442 1.216074 0.315214 0 255 0 83 13
-0.515005 1.230770 0.323557 0 255 0 83 13
-0.429764 1.055211 0.166748 0 255 0 83 13
-0.491265 1.150071 0.311832 0 255 0 83 13
-0.456955 1.051759 0.180748 0 255 0 83 13
-0.461552 1.174426 0.341513 0 255 0 83 13
-0.528731 1.104873 0.346747 0 255 0 83 13
-0.527877 1.074021 0.343170 0 255 0 83 13
-0.517017 1.144350 0.366747 0 255 0 83 13
-0.577912 1.123505 0.370748 0 255 0 83 13
-0.463610 1.099210 0.286748 0 255 0 83 13
-0.527575 1.229353 0.307558 0 255 0 83 13
-0.517288 1.235345 0.312747 0 255 0 83 13
-0.489554 1.129261 0.355094 0 255 0 83 13
-0.451528 1.048434 0.166748 0 255 0 83 13
-0.445136 1.083015 0.206747 0 255 0 83 13
-0.475643 1.079276 0.219800 0 255 0 83 13
-0.461412 1.078296 0.260747 0 255 0 83 13
-0.497890 1.186239 0.324982 0 255 0 83 13
-0.529417 1.076393 0.350678 0 255 0 83 13
-0.436961 1.085367 0.232747 0 255 0 83 13
-0.454994 1.051367 0.232747 0 255 0 83 13
-0.428246 1.065112 0.138748 0 255 0 83 13
-0.436429 1.061751 0.136747 0 255 0 83 13
-0.518174 1.244723 0.314748 0 255 0 83 13
-0.466788 1.116243 0.296748 0 255 0 83 13
-0.580887 1.118004 0.364747 0 255 0 83 13
-0.436224 1.062718 0.147743 0 255 0 83 13
-0.464378 1.055314 0.144747 0 255 0 83 13
-0.510459 1.184821 0.320934 0 255 0 83 13
-0.508469 1.082164 0.332748 0 255 0 83 13
-0.518039 1.206879 0.313963 0 255 0 83 13
-0.599679 1.120997 0.374747 0 255 0 83 13
-0.509580 1.213260 0.316747 0 255 0 83 13
-0.577342 1.168367 0.375804 0 255 0 83 13
-0.469988 1.077022 0.172747 0 255 0 83 13
-0.436572 1.080318 0.162748 0 255 0 83 13
-0.473062 1.180961 0.340748 0 255 0 83 13
-0.464784 1.101504 0.325373 0 255 0 83 13
-0.470823 1.073094 0.194748 0 255 0 83 13
-0.539346 1.116255 0.352747 0 255 0 83 13
-0.581988 1.108032 0.370748 0 255 0 83 13
-0.514769 1.087592 0.340928 0 255 0 83 13
-0.535333 1.106276 0.342892 0 255 0 83 13
-0.533500 1.095663 0.351147 0 255 0 83 13
-0.488520 1.134127 0.348748 0 255 0 83 13
-0.498116 1.069740 0.325111 0 255 0 83 13
-0.440532 1.077947 0.242747 0 255 0 83 13
-0.475076 1.158898 0.329804 0 255 0 83 13
-0.546069 1.094246 0.350983 0 255 0 83 13
-0.486521 1.153152 0.320062 0 255 0 83 13
-0.464047 1.162688 0.337949 0 255 0 83 13
-0.515279 1.142907 0.322614 0 255 0 83 13
-0.524571 1.137671 0.356747 0 255 0 83 13
-0.439004 1.073533 0.158747 0 255 0 83 13
-0.557894 1.119250 0.360748 0 255 0 83 13
-0.456355 1.160398 0.336747 0 255 0 83 13
-0.433362 1.076183 0.182747 0 255 0 83 13
-0.509561 1.063994 0.339465 0 255 0 83 13
-0.482666 1.115528 0.344747 0 255 0 83 13
-0.474757 1.064775 0.144747 0 255 0 83 13
-0.536821 1.200648 0.314748 0 255 0 83 13
-0.461845 1.182666 0.340581 0 255 0 83 13
-0.494100 1.175210 0.319890 0 255 0 83 13
-0.451747 1.085883 0.236748 0 255 0 83 13
-0.563884 1.145106 0.370748 0 255 0 83 13
-0.464350 1.045827 0.174747 0 255 0 83 13
-0.507085 1.171836 0.316042 0 255 0 83 13
-0.537586 1.139470 0.368748 0 255 0 83 13
-0.457497 1.087687 0.247222 0 255 0 83 13
-0.490240 1.053753 0.316747 0 255 0 83 13
-0.527754 1.084218 0.343046 0 255 0 83 13
-0.542913 1.128334 0.360138 0 255 0 83 13
-0.529068 1.203089 0.313765 0 255 0 83 13
-0.460210 1.123023 0.308367 0 255 0 83 13
-0.509901 1.100871 0.340697 0 255 0 83 13
-0.509363 1.113024 0.339819 0 255 0 83 13
-0.500810 1.119385 0.308747 0 255 0 83 13
-0.453474 1.048898 0.150747 0 255 0 83 13
-0.493344 1.140289 0.307782 0 255 0 83 13
-0.598398 1.146262 0.377060 0 255 0 83 13
-0.482391 1.105246 0.306014 0 255 0 83 13
-0.466577 1.054589 0.230748 0 255 0 83 13
-0.460787 1.091448 0.238747 0 255 0 83 13
-0.531959 1.093291 0.342766 0 255 0 83 13
-0.506329 1.136916 0.311763 0 255 0 83 13
-0.429155 1.071439 0.150747 0 255 0 83 13
-0.472177 1.141924 0.320748 0 255 0 83 13
-0.494682 1.143614 0.354747 0 255 0 83 13
-0.470139 1.090374 0.280747 0 255 0 83 13
-0.444801 1.051223 0.232747 0 255 0 83 13
-0.468253 1.171760 0.339320 0 255 0 83 13
-0.515865 1.159389 0.315753 0 255 0 83 13
-0.464198 1.085022 0.265767 0 255 0 83 13
-0.492049 1.117523 0.303827 0 255 0 83 13
-0.468296 1.152317 0.320748 0 255 0 83 13
-0.540834 1.138116 0.357791 0 255 0 83 13
-0.478969 1.063626 0.316478 0 255 0 83 13
-0.508021 1.061622 0.328324 0 255 0 83 13
-0.550398 1.093121 0.361664 0 255 0 83 13
-0.590403 1.126160 0.376128 0 255 0 83 13
-0.475659 1.050340 0.242747 0 255 0 83 13
-0.525401 1.181863 0.322200 0 255 0 83 13
-0.496989 1.159466 0.316747 0 255 0 83 13
-0.568467 1.123543 0.357758 0 255 0 83 13
-0.448054 1.074398 0.234747 0 255 0 83 13
-0.482681 1.119621 0.308747 0 255 0 83 13
-0.442884 1.079480 0.156748 0 255 0 83 13
-0.435953 1.046303 0.204747 0 255 0 83 13
-0.457280 1.040613 0.216640 0 255 0 83 13
-0.475643 1.079276 0.227687 0 255 0 83 13
-0.538533 1.239861 0.302747 0 255 0 83 13
-0.428914 1.069343 0.166748 0 255 0 83 13
-0.519728 1.156121 0.370748 0 255 0 83 13
-0.474782 1.064780 0.194748 0 255 0 83 13
-0.524274 1.129448 0.350748 0 255 0 83 13
-0.519532 1.180616 0.315782 0 255 0 83 13
-0.429005 1.055050 0.150747 0 255 0 83 13
-0.598310 1.137058 0.370748 0 255 0 83 13
-0.480482 1.133466 0.313650 0 255 0 83 13
-0.566266 1.143521 0.359801 0 255 0 83 13
-0.461006 1.080254 0.316747 0 255 0 83 13
-0.579733 1.138205 0.368748 0 255 0 83 13
-0.501791 1.105281 0.306747 0 255 0 83 13
-0.523570 1.171239 0.322748 0 255 0 83 13
-0.527433 1.143446 0.317751 0 255 0 83 13
-0.507338 1.147353 0.358748 0 255 0 83 13
-0.462563 1.073473 0.254748 0 255 0 83 13
-0.514665 1.193894 0.319423 0 255 0 83 13
-0.436621 1.046445 0.228747 0 255 0 83 13
-0.429089 1.071425 0.204747 0 255 0 83 13
-0.494440 1.197774 0.330748 0 255 0 83 13
-0.521932 1.111606 0.339851 0 255 0 83 13
-0.428814 1.059099 0.197661 0 255 0 83 13
-0.484687 1.142539 0.311467 0 255 0 83 13
-0.454400 1.040001 0.136747 0 255 0 83 13
-0.529635 1.123467 0.356777 0 255 0 83 13
-0.457293 1.040551 0.228747 0 255 0 83 13
-0.479971 1.078151 0.320432 0 255 0 83 13
-0.481048 1.053844 0.309765 0 255 0 83 13
-0.574166 1.106352 0.368867 0 255 0 83 13
-0.462677 1.049939 0.234747 0 255 0 83 13
-0.563977 1.098052 0.362747 0 255 0 83 13
-0.471533 1.072268 0.230748 0 255 0 83 13
-0.515660 1.222731 0.322748 0 255 0 83 13
-0.597859 1.158416 0.369917 0 255 0 83 13
-0.550165 1.161551 0.370748 0 255 0 83 13
-0.584997 1.151592 0.365827 0 255 0 83 13
-0.495669 1.110113 0.335828 0 255 0 83 13
-0.455118 1.041162 0.186747 0 255 0 83 13
-0.485661 1.176436 0.324748 0 255 0 83 13
-0.455382 1.039923 0.202748 0 255 0 83 13
-0.539879 1.152226 0.373628 0 255 0 83 13
-0.530268 1.168585 0.320118 0 255 0 83 13
-0.553721 1.169480 0.378748 0 255 0 83 13
-0.429919 1.055244 0.212748 0 255 0 83 13
-0.538660 1.090626 0.347025 0 255 0 83 13
-0.436309 1.066826 0.184748 0 255 0 83 13
-0.436739 1.064873 0.212748 0 255 0 83 13
-0.570638 1.122952 0.366747 0 255 0 83 13
-0.445729 1.062694 0.258748 0 255 0 83 13
-0.477939 1.116568 0.299783 0 255 0 83 13
-0.476622 1.196031 0.340748 0 255 0 83 13
-0.527988 1.246648 0.306747 0 255 0 83 13
-0.482160 1.077473 0.312747 0 255 0 83 13
-0.503494 1.111777 0.347951 0 255 0 83 13
-0.486549 1.085683 0.317825 0 255 0 83 13
-0.428367 1.061203 0.154747 0 255 0 83 13
-0.494837 1.114026 0.348206 0 255 0 83 13
-0.433269 1.076618 0.228747 0 255 0 83 13
-0.474075 1.060540 0.246747 0 255 0 83 13
-0.466910 1.120358 0.310708 0 255 0 83 13
-0.561355 1.109763 0.358748 0 255 0 83 13
-0.565517 1.166280 0.382747 0 255 0 83 13
-0.460217 1.059640 0.290748 0 255 0 83 13
-0.583502 1.171721 0.382747 0 255 0 83 13
-0.587029 1.113175 0.375498 0 255 0 83 13
-0.467030 1.062077 0.176748 0 255 0 83 13
-0.585365 1.121000 0.375388 0 255 0 83 13
-0.455787 1.066877 0.289262 0 255 0 83 13
-0.501066 1.166467 0.316747 0 255 0 83 13
-0.470190 1.076072 0.165743 0 255 0 83 13
-0.508321 1.117924 0.312747 0 255 0 83 13
-0.558100 1.104981 0.363749 0 255 0 83 13
-0.470814 1.073136 0.144747 0 255 0 83 13
-0.548868 1.138793 0.356747 0 255 0 83 13
-0.471993 1.056009 0.158747 0 255 0 83 13
-0.502176 1.079498 0.334747 0 255 0 83 13
-0.480217 1.057757 0.223761 0 255 0 83 13
-0.480732 1.064953 0.226748 0 255 0 83 13
-0.524096 1.099798 0.338747 0 255 0 83 13
-0.467959 1.163519 0.329881 0 255 0 83 13
-0.466793 1.082434 0.180748 0 255 0 83 13
-0.472609 1.103167 0.325769 0 255 0 83 13
-0.468841 1.067607 0.296748 0 255 0 83 13
-0.541150 1.160674 0.322748 0 255 0 83 13
-0.460631 1.072944 0.300748 0 255 0 83 13
-0.524404 1.220500 0.310748 0 255 0 83 13
-0.449490 1.059404 0.244748 0 255 0 83 13
-0.474382 1.075588 0.238747 0 255 0 83 13
-0.455964 1.066044 0.232747 0 255 0 83 13
-0.435844 1.068772 0.170748 0 255 0 83 13
-0.516992 1.149405 0.360748 0 255 0 83 13
-0.444425 1.081851 0.214747 0 255 0 83 13
-0.456318 1.085392 0.268748 0 255 0 83 13
-0.467770 1.048977 0.221922 0 255 0 83 13
-0.498218 1.073851 0.330748 0 255 0 83 13
-0.493712 1.109698 0.313079 0 255 0 83 13
-0.519318 1.094693 0.342748 0 255 0 83 13
-0.568152 1.131654 0.364747 0 255 0 83 13
-0.514182 1.071110 0.335358 0 255 0 83 13
-0.517188 1.114688 0.350262 0 255 0 83 13
-0.505429 1.189247 0.322748 0 255 0 83 13
-0.468580 1.064404 0.184748 0 255 0 83 13
-0.547193 1.104708 0.358748 0 255 0 83 13
-0.469002 1.067641 0.206747 0 255 0 83 13
-0.505838 1.177705 0.319522 0 255 0 83 13
-0.552449 1.150808 0.374088 0 255 0 83 13
-0.457117 1.147191 0.330748 0 255 0 83 13
-0.484339 1.158822 0.316747 0 255 0 83 13
-0.548314 1.131782 0.362747 0 255 0 83 13
-0.536093 1.189275 0.316747 0 255 0 83 13
-0.466719 1.058977 0.152748 0 255 0 83 13
-0.485254 1.062917 0.323633 0 255 0 83 13
-0.504001 1.230476 0.328747 0 255 0 83 13
-0.434062 1.078616 0.204747 0 255 0 83 13
-0.540208 1.208395 0.312747 0 255 0 83 13
-0.488319 1.048494 0.320748 0 255 0 83 13
-0.532763 1.156847 0.319774 0 255 0 83 13
-0.440244 1.082281 0.150747 0 255 0 83 13
-0.462443 1.047845 0.138748 0 255 0 83 13
-0.519771 1.231783 0.318747 0 255 0 83 13
-0.464380 1.055308 0.190747 0 255 0 83 13
-0.477278 1.138919 0.311077 0 255 0 83 13
-0.436295 1.072001 0.146747 0 255 0 83 13
-0.456235 1.050614 0.156748 0 255 0 83 13
-0.531686 1.181154 0.317949 0 255 0 83 13
-0.426420 1.079982 0.236748 0 255 0 83 13
-0.571671 1.118090 0.361832 0 255 0 83 13
-0.450110 1.057491 0.282748 0 255 0 83 13
-0.564486 1.137009 0.358748 0 255 0 83 13
-0.553497 1.145876 0.362747 0 255 0 83 13
-0.462674 1.044092 0.146747 0 255 0 83 13
-0.582577 1.124497 0.365871 0 255 0 83 13
-0.506745 1.134959 0.359078 0 255 0 83 13
-0.440675 1.051396 0.145760 0 255 0 83 13
-0.525864 1.208542 0.317753 0 255 0 83 13
-0.512132 1.123836 0.314748 0 255 0 83 13
-0.438303 1.052937 0.244038 0 255 0 83 13
-0.497379 1.130924 0.356880 0 255 0 83 13
-0.473320 1.070964 0.176748 0 255 0 83 13
-0.516324 1.171755 0.316747 0 255 0 83 13
-0.495338 1.121287 0.342748 0 255 0 83 13
-0.443994 1.041878 0.192747 0 255 0 83 13
-0.509544 1.121791 0.320748 0 255 0 83 13
-0.437836 1.074372 0.212748 0 255 0 83 13
-0.596560 1.149961 0.366747 0 255 0 83 13
-0.469604 1.059590 0.241455 0 255 0 83 13
-0.500049 1.111044 0.316747 0 255 0 83 13
-0.587527 1.115326 0.368748 0 255 0 83 13
-0.574835 1.132062 0.360748 0 255 0 83 13
-0.509430 1.158021 0.320748 0 255 0 83 13
-0.450478 1.072613 0.248747 0 255 0 83 13
-0.505327 1.122390 0.354351 0 255 0 83 13
-0.494565 1.221119 0.336747 0 255 0 83 13
-0.442164 1.082870 0.222748 0 255 0 83 13
-0.464499 1.050326 0.242747 0 255 0 83 13
-0.452120 1.045650 0.244906 0 255 0 83 13
-0.522183 1.062328 0.346747 0 255 0 83 13
-0.432434 1.051689 0.132051 0 255 0 83 13
-0.540786 1.109480 0.347534 0 255 0 83 13
-0.593076 1.142440 0.374747 0 255 0 83 13
-0.475030 1.066878 0.244748 0 255 0 83 13
-0.539578 1.095926 0.354747 0 255 0 83 13
-0.517746 1.198638 0.315847 0 255 0 83 13
-0.597812 1.129780 0.377973 0 255 0 83 13
-0.502393 1.054292 0.322748 0 255 0 83 13
-0.477982 1.167694 0.332748 0 255 0 83 13
-0.472054 1.096160 0.288747 0 255 0 83 13
-0.527801 1.112854 0.349506 0 255 0 83 13
-0.495574 1.052842 0.327866 0 255 0 83 13
-0.468873 1.104418 0.296748 0 255 0 83 13
-0.461867 1.168358 0.332748 0 255 0 83 13
-0.444331 1.041950 0.132747 0 255 0 83 13
-0.449086 1.069542 0.243002 0 255 0 83 13
-0.529414 1.068214 0.346747 0 255 0 83 13
-0.491161 1.211389 0.340748 0 255 0 83 13
-0.462851 1.052881 0.170748 0 255 0 83 13
-0.458919 1.052139 0.204747 0 255 0 83 13
-0.459655 1.088146 0.316747 0 255 0 83 13
-0.555978 1.095727 0.358748 0 255 0 83 13
-0.582823 1.104102 0.363861 0 255 0 83 13
-0.528141 1.149731 0.319778 0 255 0 83 13
-0.438820 1.055091 0.228747 0 255 0 83 13
-0.503664 1.130215 0.349788 0 255 0 83 13
-0.571794 1.107892 0.361770 0 255 0 83 13
-0.483269 1.129969 0.305852 0 255 0 83 13
-0.568191 1.163323 0.372747 0 255 0 83 13
-0.475845 1.107184 0.296748 0 255 0 83 13
-0.525722 1.122636 0.345771 0 255 0 83 13
-0.443897 1.093957 0.226748 0 255 0 83 13
-0.501199 1.201255 0.328747 0 255 0 83 13
-0.452290 1.064089 0.284377 0 255 0 83 13
-0.513142 1.138364 0.354747 0 255 0 83 13
-0.472977 1.072575 0.305852 0 255 0 83 13
-0.454311 1.068608 0.238747 0 255 0 83 13
-0.576047 1.145600 0.361783 0 255 0 83 13
-0.504250 1.146697 0.320044 0 255 0 83 13
-0.489341 1.197599 0.336747 0 255 0 83 13
-0.556900 1.139486 0.367418 0 255 0 83 13
-0.476165 1.181621 0.334747 0 255 0 83 13
-0.475404 1.061162 0.230748 0 255 0 83 13
-0.536798 1.147481 0.321802 0 255 0 83 13
-0.464553 1.117812 0.302747 0 255 0 83 13
-0.449290 1.039724 0.172747 0 255 0 83 13
-0.520357 1.076512 0.340748 0 255 0 83 13
-0.526756 1.153526 0.372747 0 255 0 83 13
-0.463782 1.086978 0.245411 0 255 0 83 13
-0.589987 1.128117 0.369860 0 255 0 83 13
-0.496816 1.075856 0.322748 0 255 0 83 13
-0.485674 1.128278 0.344747 0 255 0 83 13
-0.498412 1.092294 0.324748 0 255 0 83 13
-0.545483 1.077764 0.355406 0 255 0 83 13
-0.604267 1.147509 0.371842 0 255 0 83 13
-0.530066 1.082960 0.350748 0 255 0 83 13
-0.587492 1.139854 0.365907 0 255 0 83 13
-0.487032 1.179603 0.330748 0 255 0 83 13
-0.437181 1.062922 0.236748 0 255 0 83 13
-0.455038 1.078986 0.268748 0 255 0 83 13
-0.544160 1.122465 0.356342 0 255 0 83 13
-0.443267 1.048821 0.182747 0 255 0 83 13
-0.563430 1.118382 0.365223 0 255 0 83 13
-0.428153 1.065092 0.220747 0 255 0 83 13
-0.509826 1.207040 0.318747 0 255 0 83 13
-0.470946 1.110992 0.332135 0 255 0 83 13
-0.439182 1.077660 0.129802 0 255 0 83 13
-0.473958 1.066650 0.218747 0 255 0 83 13
-0.498230 1.223115 0.341732 0 255 0 83 13
-0.543452 1.185700 0.320748 0 255 0 83 13
-0.455001 1.051335 0.222748 0 255 0 83 13
-0.529607 1.190936 0.320959 0 255 0 83 13
-0.506112 1.089842 0.329807 0 255 0 83 13
-0.465029 1.081109 0.240290 0 255 0 83 13
-0.519749 1.227689 0.312217 0 255 0 83 13
-0.511782 1.140119 0.315857 0 255 0 83 13
-0.475259 1.052223 0.230748 0 255 0 83 13
-0.471920 1.072351 0.152748 0 255 0 83 13
-0.506997 1.095295 0.336747 0 255 0 83 13
-0.503617 1.101579 0.329768 0 255 0 83 13
-0.574312 1.153763 0.374747 0 255 0 83 13
-0.530240 1.236053 0.309704 0 255 0 83 13
-0.432434 1.051689 0.246947 0 255 0 83 13
-0.481137 1.063049 0.234747 0 255 0 83 13
-0.551208 1.085114 0.354747 0 255 0 83 13
-0.505012 1.104633 0.342748 0 255 0 83 13
-0.523123 1.240675 0.315722 0 255 0 83 13
-0.442891 1.058001 0.252747 0 255 0 83 13
-0.537166 1.131202 0.352747 0 255 0 83 13
-0.452254 1.049768 0.192747 0 255 0 83 13
-0.486256 1.077442 0.322807 0 255 0 83 13
-0.429849 1.055229 0.238747 0 255 0 83 13
-0.500167 1.127427 0.309878 0 255 0 83 13
-0.536628 1.129043 0.361376 0 255 0 83 13
-0.486133 1.087640 0.328358 0 255 0 83 13
-0.470454 1.151782 0.327285 0 255 0 83 13
-0.586919 1.147911 0.370748 0 255 0 83 13
-0.510066 1.080459 0.338747 0 255 0 83 13
-0.559933 1.115595 0.355861 0 255 0 83 13
-0.443803 1.084776 0.232689 0 255 0 83 13
-0.444811 1.041556 0.144747 0 255 0 83 13
-0.498509 1.135229 0.316747 0 255 0 83 13
-0.523010 1.087299 0.346098 0 255 0 83 13
-0.436101 1.072916 0.240424 0 255 0 83 13
-0.592252 1.161313 0.368748 0 255 0 83 13
-0.478450 1.171883 0.325752 0 255 0 83 13
-0.502587 1.154522 0.319295 0 255 0 83 13
-0.467261 1.128328 0.308747 0 255 0 83 13
-0.496988 1.180864 0.320748 0 255 0 83 13
-0.440393 1.043106 0.138748 0 255 0 83 13
-0.464423 1.045487 0.156748 0 255 0 83 13
-0.453566 1.062315 0.268748 0 255 0 83 13
-0.580695 1.144544 0.368748 0 255 0 83 13
-0.479159 1.178168 0.329951 0 255 0 83 13
-0.462994 1.043872 0.240748 0 255 0 83 13
-0.432884 1.049573 0.212748 0 255 0 83 13
-0.428581 1.065183 0.176748 0 255 0 83 13
-0.432188 1.072084 0.234554 0 255 0 83 13
-0.453294 1.040125 0.210747 0 255 0 83 13
-0.532130 1.111729 0.343859 0 255 0 83 13
-0.457199 1.040991 0.164747 0 255 0 83 13
-0.432484 1.049655 0.158747 0 255 0 83 13
-0.474102 1.076904 0.318024 0 255 0 83 13
-0.454927 1.138258 0.326912 0 255 0 83 13
-0.428151 1.067137 0.232747 0 255 0 83 13
-0.429990 1.071617 0.216748 0 255 0 83 13
-0.457869 1.085940 0.234747 0 255 0 83 13
-0.469381 1.051018 0.188747 0 255 0 83 13
-0.501274 1.093361 0.334747 0 255 0 83 13
-0.473631 1.064535 0.170748 0 255 0 83 13
-0.598984 1.162744 0.375668 0 255 0 83 13
-0.477520 1.116479 0.340748 0 255 0 83 13
-0.582086 1.165286 0.371821 0 255 0 83 13
-0.480604 1.123269 0.347148 0 255 0 83 13
-0.458127 1.087821 0.274747 0 255 0 83 13
-0.429081 1.069379 0.144747 0 255 0 83 13
-0.476576 1.122983 0.304748 0 255 0 83 13
-0.488430 1.124932 0.303819 0 255 0 83 13
-0.471021 1.072160 0.313347 0 255 0 83 13
-0.509410 1.141660 0.361087 0 255 0 83 13
-0.435979 1.058577 0.160747 0 255 0 83 13
-0.437688 1.055830 0.174747 0 255 0 83 13
-0.444925 1.041022 0.236748 0 255 0 83 13
-0.518483 1.137454 0.322293 0 255 0 83 13
-0.481068 1.149948 0.320357 0 255 0 83 13
-0.429622 1.057226 0.172747 0 255 0 83 13
-0.435827 1.083824 0.240748 0 255 0 83 13
-0.571180 1.158879 0.380102 0 255 0 83 13
-0.519069 1.153936 0.317928 0 255 0 83 13
-0.439367 1.076787 0.234747 0 255 0 83 13
-0.428848 1.063195 0.182747 0 255 0 83 13
-0.544406 1.102071 0.351739 0 255 0 83 13
-0.453156 1.152194 0.328747 0 255 0 83 13
-0.521885 1.082971 0.339454 0 255 0 83 13
-0.555407 1.165749 0.373874 0 255 0 83 13
-0.437187 1.062923 0.206747 0 255 0 83 13
-0.559657 1.164992 0.380747 0 255 0 83 13
-0.468566 1.064472 0.304748 0 255 0 83 13
-0.509968 1.225610 0.322453 0 255 0 83 13
-0.430587 1.053342 0.224747 0 255 0 83 13
-0.505375 1.151025 0.313846 0 255 0 83 13
-0.463136 1.157356 0.326747 0 255 0 83 13
-0.438806 1.055089 0.216748 0 255 0 83 13
-0.477274 1.090840 0.318747 0 255 0 83 13
-0.512645 1.093275 0.338747 0 255 0 83 13
-0.436070 1.092301 0.232747 0 255 0 83 13
-0.487938 1.165721 0.317754 0 255 0 83 13
-0.469705 1.068731 0.160747 0 255 0 83 13
-0.451144 1.040621 0.152748 0 255 0 83 13
-0.558568 1.125528 0.360748 0 255 0 83 13
-0.434986 1.078159 0.174747 0 255 0 83 13
-0.515156 1.153105 0.367616 0 255 0 83 13
-0.484131 1.193253 0.338747 0 255 0 83 13
-0.559843 1.093084 0.366747 0 255 0 83 13
-0.513512 1.234542 0.318747 0 255 0 83 13
-0.571184 1.095494 0.364747 0 255 0 83 13
-0.472473 1.054066 0.164747 0 255 0 83 13
-0.466773 1.058989 0.200747 0 255 0 83 13
-0.446927 1.041220 0.222748 0 255 0 83 13
-0.512935 1.076979 0.333136 0 255 0 83 13
-0.497173 1.103037 0.340748 0 255 0 83 13
-0.449880 1.056186 0.264748 0 255 0 83 13
-0.464533 1.044968 0.208748 0 255 0 83 13
-0.499677 1.217289 0.334747 0 255 0 83 13
-0.470535 1.070011 0.182747 0 255 0 83 13
-0.586229 1.135497 0.372747 0 255 0 83 13
-0.514782 1.216410 0.322748 0 255 0 83 13
-0.488161 1.164676 0.324748 0 255 0 83 13
-0.473485 1.060570 0.154747 0 255 0 83 13
-0.580253 1.164897 0.384747 0 255 0 83 13
-0.516016 1.081723 0.342938 0 255 0 83 13
-0.543328 1.077305 0.348748 0 255 0 83 13
-0.466054 1.143625 0.324748 0 255 0 83 13
-0.468772 1.063503 0.213777 0 255 0 83 13
-0.431282 1.051445 0.182747 0 255 0 83 13
-0.593361 1.141102 0.367806 0 255 0 83 13
-0.586537 1.153964 0.372142 0 255 0 83 13
-0.474981 1.101627 0.335123 0 255 0 83 13
-0.428399 1.061055 0.211138 0 255 0 83 13
-0.468534 1.069586 0.224747 0 255 0 83 13
-0.571814 1.155894 0.366747 0 255 0 83 13
-0.481143 1.111115 0.331791 0 255 0 83 13
-0.446988 1.040932 0.158747 0 255 0 83 13
-0.499629 1.139581 0.357469 0 255 0 83 13
-0.436743 1.079516 0.186747 0 255 0 83 13
-0.503696 1.224277 0.328747 0 255 0 83 13
-0.470851 1.053721 0.144566 0 255 0 83 13
-0.483356 1.100704 0.300748 0 255 0 83 13
-0.457835 1.076480 0.246747 0 255 0 83 13
-0.436337 1.056608 0.148748 0 255 0 83 13
-0.487768 1.147283 0.316315 0 255 0 83 13
-0.543404 1.087545 0.350388 0 255 0 83 13
-0.522150 1.158680 0.323741 0 255 0 83 13
-0.535381 1.134912 0.365192 0 255 0 83 13
-0.436719 1.070006 0.134748 0 255 0 83 13
-0.438829 1.055093 0.136747 0 255 0 83 13
-0.487844 1.108450 0.299815 0 255 0 83 13
-0.562361 1.132468 0.362747 0 255 0 83 13
-0.552940 1.110019 0.355640 0 255 0 83 13
-0.443273 1.048793 0.162748 0 255 0 83 13
-0.509998 1.070221 0.340748 0 255 0 83 13
-0.492191 1.155336 0.316747 0 255 0 83 13
-0.478982 1.145416 0.312747 0 255 0 83 13
-0.535551 1.153350 0.367791 0 255 0 83 13
-0.505620 1.130631 0.311781 0 255 0 83 13
-0.437612 1.060969 0.130747 0 255 0 83 13
-0.489337 1.082187 0.325834 0 255 0 83 13
-0.474617 1.084100 0.312747 0 255 0 83 13
-0.450938 1.094472 0.230748 0 255 0 83 13
-0.485522 1.056840 0.312747 0 255 0 83 13
-0.570225 1.172989 0.381721 0 255 0 83 13
-0.427567 1.064968 0.241019 0 255 0 83 13
-0.445960 1.050475 0.218747 0 255 0 83 13
-0.543443 1.169341 0.372747 0 255 0 83 13
-0.429452 1.057190 0.142748 0 255 0 83 13
-0.501776 1.230003 0.336747 0 255 0 83 13
-0.522415 1.234390 0.309332 0 255 0 83 13
-0.502568 1.058418 0.328934 0 255 0 83 13
-0.430608 1.084016 0.234747 0 255 0 83 13
-0.445168 1.083022 0.168747 0 255 0 83 13
-0.456202 1.064920 0.273771 0 255 0 83 13
-0.524768 1.136745 0.317843 0 255 0 83 13
-0.498599 1.192524 0.321770 0 255 0 83 13
-0.451643 1.076750 0.254748 0 255 0 83 13
-0.515988 1.149192 0.322908 0 255 0 83 13
-0.450163 1.045235 0.134107 0 255 0 83 13
-0.459132 1.147330 0.323847 0 255 0 83 13
-0.468989 1.110577 0.292994 0 255 0 83 13
-0.511567 1.174833 0.320748 0 255 0 83 13
-0.516260 1.109435 0.346747 0 255 0 83 13
-0.468300 1.061358 0.146747 0 255 0 83 13
-0.442578 1.042443 0.208748 0 255 0 83 13
-0.492474 1.225981 0.344747 0 255 0 83 13
-0.479943 1.053609 0.316747 0 255 0 83 13
-0.469944 1.096467 0.331076 0 255 0 83 13
-0.486906 1.204351 0.338747 0 255 0 83 13
-0.473208 1.060356 0.224747 0 255 0 83 13
-0.474873 1.062755 0.236748 0 255 0 83 13
-0.463319 1.060299 0.297541 0 255 0 83 13
-0.601309 1.132568 0.373810 0 255 0 83 13
-0.508115 1.118893 0.343801 0 255 0 83 13
-0.462733 1.043817 0.246891 0 255 0 83 13
-0.544529 1.091873 0.357750 0 255 0 83 13
-0.438492 1.075469 0.194748 0 255 0 83 13
-0.499166 1.112901 0.307899 0 255 0 83 13
-0.502355 1.117134 0.314748 0 255 0 83 13
-0.463490 1.069112 0.304748 0 255 0 83 13
-0.481143 1.111115 0.295833 0 255 0 83 13
-0.469523 1.050349 0.176748 0 255 0 83 13
-0.470993 1.139628 0.315157 0 255 0 83 13
-0.444025 1.083732 0.246747 0 255 0 83 13
-0.442103 1.063918 0.264748 0 255 0 83 13
-0.503561 1.236516 0.328221 0 255 0 83 13
-0.460777 1.043401 0.190435 0 255 0 83 13
-0.550260 1.122628 0.352747 0 255 0 83 13
-0.467726 1.177783 0.338747 0 255 0 83 13
-0.467882 1.085805 0.324748 0 255 0 83 13
-0.516709 1.130943 0.316747 0 255 0 83 13
-0.444175 1.084855 0.176748 0 255 0 83 13
-0.432425 1.057822 0.130747 0 255 0 83 13
-0.487693 1.186116 0.330301 0 255 0 83 13
-0.505961 1.167507 0.320584 0 255 0 83 13
-0.535011 1.140967 0.320748 0 255 0 83 13
-0.491890 1.099030 0.308747 0 255 0 83 13
-0.516770 1.212743 0.314748 0 255 0 83 13
-0.602603 1.155335 0.367775 0 255 0 83 13
-0.470427 1.074957 0.218747 0 255 0 83 13
-0.490254 1.066024 0.320748 0 255 0 83 13
-0.516970 1.067614 0.343595 0 255 0 83 13
-0.524229 1.148899 0.363851 0 255 0 83 13
-0.466863 1.091723 0.275859 0 255 0 83 13
-0.493590 1.119895 0.351728 0 255 0 83 13
-0.436710 1.079670 0.168747 0 255 0 83 13
-0.462792 1.082016 0.234747 0 255 0 83 13
-0.584288 1.145308 0.363906 0 255 0 83 13
-0.454997 1.051354 0.212748 0 255 0 83 13
-0.474393 1.062653 0.188747 0 255 0 83 13
-0.434674 1.064434 0.156748 0 255 0 83 13
-0.473185 1.060351 0.162748 0 255 0 83 13
-0.538909 1.168377 0.320748 0 255 0 83 13
-0.521223 1.105322 0.337817 0 255 0 83 13
-0.541174 1.174992 0.320190 0 255 0 83 13
-0.468233 1.075656 0.243312 0 255 0 83 13
-0.442711 1.041815 0.182747 0 255 0 83 13
-0.459055 1.041881 0.176748 0 255 0 83 13
-0.443756 1.056141 0.240403 0 255 0 83 13
-0.464379 1.055309 0.222748 0 255 0 83 13
-0.468566 1.064470 0.220747 0 255 0 83 13
-0.472322 1.056421 0.192747 0 255 0 83 13
-0.451516 1.048489 0.236748 0 255 0 83 13
-0.530712 1.099160 0.343147 0 255 0 83 13
-0.538632 1.158094 0.373244 0 255 0 83 13
-0.551522 1.097449 0.355074 0 255 0 83 13
-0.430243 1.071617 0.240748 0 255 0 83 13
-0.482391 1.105246 0.329770 0 255 0 83 13
-0.468571 1.064450 0.166748 0 255 0 83 13
-0.470613 1.088430 0.230748 0 255 0 83 13
-0.539170 1.145941 0.371780 0 255 0 83 13
-0.464387 1.045654 0.168747 0 255 0 83 13
-0.463262 1.041328 0.216748 0 255 0 83 13
-0.521564 1.142198 0.317869 0 255 0 83 13
-0.577679 1.157163 0.366747 0 255 0 83 13
-0.529559 1.162300 0.319820 0 255 0 83 13
-0.497134 1.151318 0.311792 0 255 0 83 13
-0.468950 1.067630 0.142748 0 255 0 83 13
-0.514618 1.165258 0.315778 0 255 0 83 13
-0.544208 1.151101 0.365822 0 255 0 83 13
-0.555066 1.128873 0.353764 0 255 0 83 13
-0.567882 1.107061 0.367652 0 255 0 83 13
-0.478427 1.056555 0.244748 0 255 0 83 13
-0.547081 1.156822 0.368748 0 255 0 83 13
-0.442859 1.050739 0.192747 0 255 0 83 13
-0.478185 1.096174 0.323803 0 255 0 83 13
-0.603558 1.141225 0.371780 0 255 0 83 13
-0.513781 1.121095 0.344747 0 255 0 83 13
-0.534303 1.159219 0.325046 0 255 0 83 13
-0.466447 1.093679 0.324249 0 255 0 83 13
-0.483446 1.187258 0.336747 0 255 0 83 13
-0.474895 1.159751 0.322748 0 255 0 83 13
-0.464771 1.082326 0.272748 0 255 0 83 13
-0.440836 1.043252 0.240748 0 255 0 83 13
-0.517849 1.092337 0.335301 0 255 0 83 13
-0.439370 1.076774 0.206747 0 255 0 83 13
-0.545824 1.114640 0.352953 0 255 0 83 13
-0.456377 1.165147 0.332748 0 255 0 83 13
-0.536244 1.220972 0.312747 0 255 0 83 13
-0.530957 1.078765 0.345023 0 255 0 83 13
-0.460624 1.130695 0.320748 0 255 0 83 13
-0.486452 1.076518 0.316747 0 255 0 83 13
-0.505657 1.207416 0.328747 0 255 0 83 13
-0.516665 1.165245 0.322748 0 255 0 83 13
-0.442449 1.081530 0.136747 0 255 0 83 13
-0.457565 1.042718 0.142748 0 255 0 83 13
-0.463553 1.076706 0.312747 0 255 0 83 13
-0.497578 1.081894 0.329832 0 255 0 83 13
-0.514305 1.060913 0.337092 0 255 0 83 13
-0.518067 1.139411 0.357853 0 255 0 83 13
-0.426989 1.077304 0.242747 0 255 0 83 13
-0.508526 1.067863 0.334747 0 255 0 83 13
-0.514608 1.184544 0.316747 0 255 0 83 13
-0.468002 1.081741 0.308747 0 255 0 83 13
-0.571426 1.138484 0.365303 0 255 0 83 13
-0.430247 1.071598 0.184748 0 255 0 83 13
-0.495348 1.169341 0.321305 0 255 0 83 13
-0.497963 1.099319 0.328747 0 255 0 83 13
-0.512321 1.127966 0.349793 0 255 0 83 13
-0.455222 1.093337 0.238747 0 255 0 83 13
-0.463181 1.056180 0.204747 0 255 0 83 13
-0.477864 1.155401 0.325787 0 255 0 83 13
-0.486426 1.095881 0.323772 0 255 0 83 13
-0.474366 1.191096 0.344747 0 255 0 83 13
-0.444803 1.051216 0.206747 0 255 0 83 13
-0.428471 1.067205 0.154747 0 255 0 83 13
-0.480529 1.162102 0.319766 0 255 0 83 13
-0.465908 1.086596 0.224747 0 255 0 83 13
-0.473686 1.078860 0.233934 0 255 0 83 13
-0.542053 1.199715 0.319421 0 255 0 83 13
-0.524153 1.187732 0.321359 0 255 0 83 13
-0.532515 1.071436 0.350748 0 255 0 83 13
-0.526183 1.226281 0.312747 0 255 0 83 13
-0.438680 1.044838 0.154747 0 255 0 83 13
-0.489998 1.059836 0.325828 0 255 0 83 13
-0.457129 1.118279 0.310499 0 255 0 83 13
-0.482056 1.166516 0.328747 0 255 0 83 13
-0.484020 1.052431 0.320748 0 255 0 83 13
-0.530561 1.176826 0.322058 0 255 0 83 13
-0.489460 1.071989 0.325723 0 255 0 83 13
-0.559272 1.137945 0.355748 0 255 0 83 13
-0.471461 1.127806 0.312747 0 255 0 83 13
-0.595147 1.123079 0.377753 0 255 0 83 13
-0.467560 1.107681 0.328747 0 255 0 83 13
-0.437853 1.045434 0.176748 0 255 0 83 13
-0.468024 1.047782 0.198748 0 255 0 83 13
-0.448340 1.048936 0.138748 0 255 0 83 13
-0.452256 1.073867 0.240748 0 255 0 83 13
-0.474269 1.133836 0.310748 0 255 0 83 13
-0.536336 1.233260 0.302747 0 255 0 83 13
-0.480311 1.115028 0.306085 0 255 0 83 13
-0.564186 1.153303 0.365758 0 255 0 83 13
-0.475472 1.060838 0.308004 0 255 0 83 13
-0.523596 1.103781 0.344269 0 255 0 83 13
-0.430245 1.071607 0.192747 0 255 0 83 13
-0.472569 1.054086 0.206747 0 255 0 83 13
-0.472799 1.169610 0.330748 0 255 0 83 13
-0.496758 1.204400 0.330748 0 255 0 83 13
-0.483386 1.066609 0.310748 0 255 0 83 13
-0.436712 1.079661 0.224747 0 255 0 83 13
-0.437835 1.074374 0.140747 0 255 0 83 13
-0.479808 1.198753 0.344747 0 255 0 83 13
-0.463207 1.056186 0.164747 0 255 0 83 13
-0.671288 0.865276 0.136747 255 255 0 74 14
-0.831537 0.901383 0.146747 255 255 0 74 14
-0.775587 0.774389 0.158747 255 255 0 74 14
-0.679461 0.774512 0.162748 255 255 0 74 14
-0.745648 0.905618 0.159656 255 255 0 74 14
-0.665370 0.811945 0.124748 255 255 0 74 14
-0.692557 0.905286 0.160747 255 255 0 74 14
-0.727250 0.785161 0.156748 255 255 0 74 14
-0.789641 0.900657 0.161120 255 255 0 74 14
-0.658967 0.832446 0.162748 255 255 0 74 14
-0.664284 0.903630 0.130747 255 255 0 74 14
-0.659571 0.887322 0.163441 255 255 0 74 14
-0.672660 0.777647 0.129874 255 255 0 74 14
-0.658895 0.799257 0.160747 255 255 0 74 14
-0.803829 0.780991 0.144747 255 255 0 74 14
-0.671210 0.836634 0.136747 255 255 0 74 14
-0.719095 0.897930 0.162748 255 255 0 74 14
-0.663437 0.859518 0.163069 255 255 0 74 14
-0.752792 0.785435 0.156748 255 255 0 74 14
-0.701805 0.784823 0.156748 255 255 0 74 14
-0.670339 0.816002 0.148748 255 255 0 74 14
-0.812894 0.897073 0.160747 255 255 0 74 14
-0.669939 0.905883 0.153787 255 255 0 74 14
-0.767280 0.897948 0.158747 255 255 0 74 14
-0.662840 0.781693 0.148748 255 255 0 74 14
-0.664740 0.886376 0.142748 255 255 0 74 14
-0.673753 0.796281 0.138748 255 255 0 74 14
-0.672972 0.881992 0.125807 255 255 0 74 14
-0.799007 0.904692 0.145815 255 255 0 74 14
-0.664725 0.851613 0.146747 255 255 0 74 14
-0.793114 0.774625 0.158747 255 255 0 74 14
-0.714472 0.773325 0.158747 255 255 0 74 14
-0.667443 0.872638 0.152748 255 255 0 74 14
-0.766523 0.783285 0.146747 255 255 0 74 14
-0.740705 0.774965 0.162748 255 255 0 74 14
-0.660431 0.815941 0.163140 255 255 0 74 14
-0.676212 0.823385 0.128748 255 255 0 74 14
-0.662879 0.775568 0.163673 255 255 0 74 14
-0.665330 0.850610 0.130747 255 255 0 74 14
-0.707231 0.903587 0.153831 255 255 0 74 14
-0.665421 0.792466 0.125865 255 255 0 74 14
-0.668719 0.844284 0.160348 255 255 0 74 14
-0.655333 0.902779 0.156748 255 255 0 74 14
-0.785334 0.786250 0.152748 255 255 0 74 14
-0.678721 0.897527 0.162748 255 255 0 74 14
-0.730888 0.902481 0.154747 255 255 0 74 14
-0.667875 0.831836 0.150747 255 255 0 74 14
-0.671270 0.801888 0.152748 255 255 0 74 14
-0.687895 0.782930 0.153784 255 255 0 74 14
-0.761355 0.774008 0.160477 255 255 0 74 14
-0.664514 0.822943 0.136747 255 255 0 74 14
-0.676466 0.802992 0.126747 255 255 0 74 14
-0.668234 0.788849 0.160747 255 255 0 74 14
-0.671915 0.886967 0.156748 255 255 0 74 14
-0.818509 0.904748 0.150747 255 255 0 74 14
-0.664769 0.862868 0.124748 255 255 0 74 14
-0.665312 0.806755 0.138748 255 255 0 74 14
-0.776240 0.905987 0.153753 255 255 0 74 14
-0.673393 0.894349 0.130747 255 255 0 74 14
-0.673611 0.777849 0.142748 255 255 0 74 14
-0.693533 0.775641 0.162748 255 255 0 74 14
-0.670511 0.897826 0.142748 255 255 0 74 14
-0.665317 0.898767 0.163800 255 255 0 74 14
-0.664858 0.785496 0.136747 255 255 0 74 14
-0.658569 0.872796 0.161752 255 255 0 74 14
-0.665638 0.876344 0.134748 255 255 0 74 14
-0.802920 0.905524 0.157667 255 255 0 74 14
-0.665562 0.830282 0.126747 255 255 0 74 14
-0.758008 0.905188 0.154747 255 255 0 74 14
-0.726476 0.774567 0.162748 255 255 0 74 14
-0.669302 0.823961 0.160747 255 255 0 74 14
-0.673900 0.814715 0.136747 255 255 0 74 14
-0.664483 0.794311 0.146747 255 255 0 74 14
-0.742288 0.782223 0.152748 255 255 0 74 14
-0.702194 0.898427 0.162894 255 255 0 74 14
-0.675542 0.783327 0.152748 255 255 0 74 14
-0.778319 0.896205 0.161605 255 255 0 74 14
-0.664272 0.894455 0.152748 255 255 0 74 14
-0.737308 0.897711 0.162748 255 255 0 74 14
-0.823987 0.897734 0.158747 255 255 0 74 14
-0.664561 0.863847 0.146307 255 255 0 74 14
-0.792469 0.896972 0.150747 255 255 0 74 14
-0.716333 0.783813 0.154747 255 255 0 74 14
-0.658794 0.850353 0.158747 255 255 0 74 14
-0.669654 0.811028 0.158747 255 255 0 74 14
-0.775146 0.786079 0.156748 255 255 0 74 14
-0.667465 0.879044 0.162748 255 255 0 74 14
-0.664105 0.890331 0.126747 255 255 0 74 14
-0.753539 0.897354 0.160747 255 255 0 74 14
-0.704659 0.776270 0.162748 255 255 0 74 14
-0.657983 0.784751 0.160747 255 255 0 74 14
-0.681398 0.904230 0.154747 255 255 0 74 14
-0.793787 0.780902 0.148748 255 255 0 74 14
-0.719170 0.905135 0.154747 255 255 0 74 14
-0.674279 0.789268 0.130747 255 255 0 74 14
-0.750937 0.774922 0.158747 255 255 0 74 14
-0.673419 0.826881 0.140747 255 255 0 74 14
-0.665223 0.841496 0.143942 255 255 0 74 14
-0.668359 0.774688 0.154747 255 255 0 74 14
-0.763413 0.783566 0.156748 255 255 0 74 14
-0.672434 0.869609 0.126747 255 255 0 74 14
-0.671519 0.855102 0.138748 255 255 0 74 14
-0.664398 0.802471 0.128748 255 255 0 74 14
-0.663224 0.881964 0.152748 255 255 0 74 14
-0.663359 0.822697 0.152748 255 255 0 74 14
-0.670916 0.885644 0.134748 255 255 0 74 14
-0.670240 0.865054 0.158747 255 255 0 74 14
-0.664299 0.808584 0.150747 255 255 0 74 14
-0.769352 0.774861 0.150747 255 255 0 74 14
-0.673456 0.855514 0.128748 255 255 0 74 14
-0.675161 0.813976 0.126747 255 255 0 74 14
-0.804341 0.895602 0.156748 255 255 0 74 14
-0.666922 0.774382 0.136747 255 255 0 74 14
-0.673642 0.806481 0.144747 255 255 0 74 14
-0.666985 0.856183 0.154747 255 255 0 74 14
-0.784830 0.778998 0.159419 255 255 0 74 14
-0.672674 0.791962 0.150747 255 255 0 74 14
-0.668970 0.872963 0.142748 255 255 0 74 14
-0.664861 0.795102 0.134748 255 255 0 74 14
-0.658938 0.842205 0.163185 255 255 0 74 14
-0.669939 0.905883 0.137734 255 255 0 74 14
-0.785423 0.905894 0.154747 255 255 0 74 14
-0.668086 0.799166 0.161530 255 255 0 74 14
-0.663609 0.839108 0.154747 255 255 0 74 14
-0.789874 0.904795 0.146747 255 255 0 74 14
-0.674014 0.843364 0.142748 255 255 0 74 14
-0.663923 0.833041 0.140747 255 255 0 74 14
-0.733428 0.780340 0.161267 255 255 0 74 14
-0.688030 0.897728 0.162748 255 255 0 74 14
-0.672110 0.780233 0.160747 255 255 0 74 14
-0.665350 0.894685 0.134748 255 255 0 74 14
-0.665468 0.821101 0.128015 255 255 0 74 14
-0.667632 0.833829 0.160747 255 255 0 74 14
-0.698574 0.905836 0.153799 255 255 0 74 14
-0.656783 0.890819 0.155780 255 255 0 74 14
-0.728457 0.899920 0.162834 255 255 0 74 14
-0.813117 0.905646 0.157649 255 255 0 74 14
-0.673188 0.847278 0.132747 255 255 0 74 14
-0.663974 0.871901 0.126747 255 255 0 74 14
-0.660138 0.807700 0.158360 255 255 0 74 14
-0.670321 0.788651 0.142748 255 255 0 74 14
-0.799967 0.775123 0.150747 255 255 0 74 14
-0.711560 0.902462 0.161246 255 255 0 74 14
-0.681610 0.783638 0.159636 255 255 0 74 14
-0.794881 0.904865 0.154747 255 255 0 74 14
-0.768764 0.777628 0.162787 255 255 0 74 14
-0.779544 0.779919 0.152748 255 255 0 74 14
-0.664983 0.859847 0.134748 255 255 0 74 14
-0.674024 0.804517 0.134748 255 255 0 74 14
-0.662897 0.791929 0.154747 255 255 0 74 14
-0.662605 0.863431 0.154997 255 255 0 74 14
-0.709121 0.779263 0.156106 255 255 0 74 14
-0.665144 0.814898 0.140747 255 255 0 74 14
-0.658381 0.823684 0.160747 255 255 0 74 14
-0.670921 0.824305 0.148659 255 255 0 74 14
-0.663417 0.845201 0.136747 255 255 0 74 14
-0.824977 0.897944 0.150450 255 255 0 74 14
-0.734015 0.782510 0.152748 255 255 0 74 14
-0.667119 0.852122 0.162748 255 255 0 74 14
-0.671873 0.829448 0.132747 255 255 0 74 14
-0.672311 0.904343 0.161509 255 255 0 74 14
-0.784188 0.897453 0.155891 255 255 0 74 14
-0.666688 0.813182 0.132747 255 255 0 74 14
-0.666981 0.890942 0.162013 255 255 0 74 14
-0.664719 0.901580 0.148748 255 255 0 74 14
-0.721690 0.777845 0.156238 255 255 0 74 14
-0.798298 0.898407 0.161444 255 255 0 74 14
-0.772626 0.903753 0.160747 255 255 0 74 14
-0.766043 0.905864 0.153763 255 255 0 74 14
-0.750393 0.902537 0.153858 255 255 0 74 14
-0.737642 0.904808 0.158747 255 255 0 74 14
-0.804603 0.901792 0.150747 255 255 0 74 14
-0.686706 0.774498 0.158747 255 255 0 74 14
-0.657492 0.897104 0.161916 255 255 0 74 14
-0.664160 0.822868 0.144747 255 255 0 74 14
-0.663588 0.781852 0.129811 255 255 0 74 14
-0.667504 0.846070 0.152748 255 255 0 74 14
-0.694006 0.783038 0.158747 255 255 0 74 14
-0.673235 0.875914 0.132747 255 255 0 74 14
-0.661508 0.791634 0.163653 255 255 0 74 14
-0.663554 0.902481 0.156748 255 255 0 74 14
-0.667005 0.775392 0.146747 255 255 0 74 14
-0.665638 0.839539 0.131849 255 255 0 74 14
-0.745238 0.897932 0.160747 255 255 0 74 14
-0.757260 0.779272 0.154747 255 255 0 74 14
-0.665823 0.870249 0.162748 255 255 0 74 14
-0.791213 0.782399 0.156748 255 255 0 74 14
-0.667322 0.783523 0.154747 255 255 0 74 14
-0.663758 0.800291 0.153220 255 255 0 74 14
-0.780880 0.903397 0.160747 255 255 0 74 14
-0.665941 0.882542 0.128748 255 255 0 74 14
-0.669286 0.891432 0.146747 255 255 0 74 14
-0.662700 0.814885 0.154747 255 255 0 74 14
-0.658862 0.881037 0.158906 255 255 0 74 14
-0.745582 0.780879 0.159442 255 255 0 74 14
-0.672830 0.796085 0.127832 255 255 0 74 14
-0.664523 0.867928 0.138748 255 255 0 74 14
-0.661383 0.779339 0.156748 255 255 0 74 14
-0.688793 0.903757 0.153830 255 255 0 74 14
-0.760892 0.901240 0.160747 255 255 0 74 14
-0.664352 0.802462 0.144747 255 255 0 74 14
-0.667720 0.880875 0.146747 255 255 0 74 14
-0.695909 0.899135 0.158356 255 255 0 74 14
-0.670988 0.900948 0.128748 255 255 0 74 14
-0.664045 0.900541 0.140747 255 255 0 74 14
-0.824536 0.903984 0.154747 255 255 0 74 14
-0.669612 0.807669 0.128748 255 255 0 74 14
-0.665544 0.782268 0.163267 255 255 0 74 14
-0.662367 0.828621 0.156748 255 255 0 74 14
-0.671303 0.797805 0.146747 255 255 0 74 14
-0.773202 0.780615 0.148748 255 255 0 74 14
-0.658311 0.864563 0.162748 255 255 0 74 14
-0.670693 0.781318 0.136747 255 255 0 74 14
-0.671388 0.899067 0.156748 255 255 0 74 14
-0.824833 0.904047 0.146747 255 255 0 74 14
-0.673089 0.818632 0.142748 255 255 0 74 14
-0.725254 0.905373 0.159621 255 255 0 74 14
-0.702903 0.904711 0.159681 255 255 0 74 14
-0.762008 0.778236 0.148748 255 255 0 74 14
-0.664918 0.857788 0.142748 255 255 0 74 14
-0.671528 0.888788 0.126747 255 255 0 74 14
-0.664051 0.808532 0.164092 255 255 0 74 14
-0.669927 0.848630 0.140747 255 255 0 74 14
-0.663484 0.888154 0.155783 255 255 0 74 14
-0.818440 0.898599 0.154747 255 255 0 74 14
-0.684726 0.903651 0.160747 255 255 0 74 14
-0.668474 0.864678 0.130511 255 255 0 74 14
-0.670037 0.781179 0.148748 255 255 0 74 14
-0.719734 0.777429 0.162760 255 255 0 74 14
-0.664003 0.779896 0.142276 255 255 0 74 14
-0.678671 0.778225 0.156748 255 255 0 74 14
-0.665733 0.896811 0.127783 255 255 0 74 14
-0.810162 0.900307 0.154747 255 255 0 74 14
-0.662997 0.875782 0.156748 255 255 0 74 14
-0.798734 0.898500 0.152748 255 255 0 74 14
-0.670807 0.882560 0.140747 255 255 0 74 14
-0.711467 0.777845 0.162748 255 255 0 74 14
-0.699046 0.778563 0.158747 255 255 0 74 14
-0.668256 0.817604 0.158485 255 255 0 74 14
-0.664070 0.833072 0.132747 255 255 0 74 14
-0.667978 0.886251 0.150747 255 255 0 74 14
-0.808094 0.902534 0.160747 255 255 0 74 14
-0.756195 0.779045 0.161330 255 255 0 74 14
-0.674648 0.821008 0.134748 255 255 0 74 14
-0.769698 0.782855 0.154747 255 255 0 74 14
-0.760264 0.784000 0.144747 255 255 0 74 14
-0.668110 0.786903 0.130747 255 255 0 74 14
-0.663847 0.871874 0.146747 255 255 0 74 14
-0.737886 0.778608 0.156748 255 255 0 74 14
-0.766220 0.777087 0.156748 255 255 0 74 14
-0.665941 0.857353 0.128748 255 255 0 74 14
-0.669181 0.834158 0.144747 255 255 0 74 14
-0.668474 0.864678 0.152351 255 255 0 74 14
-0.668262 0.858499 0.148748 255 255 0 74 14
-0.657790 0.857226 0.160747 255 255 0 74 14
-0.664838 0.839369 0.162748 255 255 0 74 14
-0.662435 0.844992 0.157277 255 255 0 74 14
-0.664221 0.826970 0.163481 255 255 0 74 14
-0.671436 0.812263 0.142748 255 255 0 74 14
-0.668775 0.795223 0.154747 255 255 0 74 14
-0.777488 0.900118 0.156098 255 255 0 74 14
-0.685819 0.898510 0.156748 255 255 0 74 14
-0.781953 0.773294 0.158747 255 255 0 74 14
-0.669145 0.891402 0.138748 255 255 0 74 14
-0.781627 0.784451 0.157664 255 255 0 74 14
-0.665709 0.882493 0.136747 255 255 0 74 14
-0.669163 0.774859 0.162655 255 255 0 74 14
-0.664743 0.788232 0.148748 255 255 0 74 14
-0.667503 0.805176 0.156748 255 255 0 74 14
-0.753889 0.905325 0.159639 255 255 0 74 14
-0.661357 0.869300 0.157158 255 255 0 74 14
-0.673262 0.774815 0.136747 255 255 0 74 14
-0.664603 0.837275 0.148748 255 255 0 74 14
-0.664735 0.894554 0.142748 255 255 0 74 14
-0.667415 0.870587 0.132747 255 255 0 74 14
-0.734750 0.774122 0.160747 255 255 0 74 14
-0.664550 0.792280 0.140747 255 255 0 74 14
-0.669103 0.900195 0.134748 255 255 0 74 14
-0.671371 0.875517 0.124748 255 255 0 74 14
-0.664673 0.888407 0.132747 255 255 0 74 14
-0.672306 0.788933 0.136747 255 255 0 74 14
-0.744108 0.903246 0.153821 255 255 0 74 14
-0.669306 0.903704 0.144747 255 255 0 74 14
-0.671602 0.898058 0.162983 255 255 0 74 14
-0.668311 0.826966 0.154747 255 255 0 74 14
-0.713709 0.901969 0.154747 255 255 0 74 14
-0.664373 0.816637 0.146747 255 255 0 74 14
-0.669135 0.842327 0.138380 255 255 0 74 14
-0.719385 0.904125 0.161416 255 255 0 74 14
-0.664020 0.828972 0.146747 255 255 0 74 14
-0.706333 0.782759 0.151761 255 255 0 74 14
-0.727559 0.779093 0.158132 255 255 0 74 14
-0.665774 0.853881 0.136747 255 255 0 74 14
-0.668965 0.823889 0.132286 255 255 0 74 14
-0.708477 0.897727 0.158747 255 255 0 74 14
-0.669920 0.809779 0.148485 255 255 0 74 14
-0.670619 0.835345 0.130747 255 255 0 74 14
-0.663342 0.802247 0.163956 255 255 0 74 14
-0.667758 0.880884 0.156748 255 255 0 74 14
-0.657596 0.790802 0.158992 255 255 0 74 14
-0.744873 0.774594 0.157901 255 255 0 74 14
-0.688310 0.780973 0.159597 255 255 0 74 14
-0.657615 0.778538 0.162748 255 255 0 74 14
-0.668583 0.846299 0.146747 255 255 0 74 14
-0.724961 0.897132 0.158686 255 255 0 74 14
-0.675318 0.798659 0.132747 255 255 0 74 14
-0.665611 0.800685 0.138748 255 255 0 74 14
-0.796152 0.783449 0.143766 255 255 0 74 14
-0.766459 0.903908 0.159582 255 255 0 74 14
-0.678180 0.905590 0.159688 255 255 0 74 14
-0.668228 0.885073 0.161288 255 255 0 74 14
-0.672394 0.802127 0.140747 255 255 0 74 14
-0.664976 0.808728 0.144747 255 255 0 74 14
-0.660157 0.903804 0.161546 255 255 0 74 14
-0.693155 0.777423 0.156748 255 255 0 74 14
-0.732862 0.898438 0.158747 255 255 0 74 14
-0.664761 0.785950 0.142748 255 255 0 74 14
-0.796984 0.779536 0.153654 255 255 0 74 14
-0.794256 0.898184 0.156748 255 255 0 74 14
-0.746503 0.786165 0.156748 255 255 0 74 14
-0.659223 0.838176 0.158747 255 255 0 74 14
-0.655536 0.896688 0.155779 255 255 0 74 14
-0.817861 0.902566 0.159607 255 255 0 74 14
-0.669257 0.862800 0.142748 255 255 0 74 14
-0.661650 0.877541 0.163692 255 255 0 74 14
-0.664653 0.878179 0.140747 255 255 0 74 14
-0.663949 0.851448 0.152748 255 255 0 74 14
-0.669627 0.801538 0.126046 255 255 0 74 14
-0.661603 0.848905 0.163795 255 255 0 74 14
-0.808997 0.905787 0.152748 255 255 0 74 14
-0.774217 0.780831 0.159378 255 255 0 74 14
-0.671999 0.819233 0.128748 255 255 0 74 14
-0.668256 0.817604 0.136509 255 255 0 74 14
-0.677206 0.900552 0.156748 255 255 0 74 14
-0.669144 0.873000 0.158747 255 255 0 74 14
-0.670395 0.858952 0.132747 255 255 0 74 14
-0.675788 0.811027 0.131745 255 255 0 74 14
-0.786544 0.780553 0.152748 255 255 0 74 14
-0.665025 0.827141 0.140747 255 255 0 74 14
-0.725254 0.905373 0.153803 255 255 0 74 14
-0.738691 0.784437 0.156748 255 255 0 74 14
-0.789423 0.901685 0.154747 255 255 0 74 14
-0.665884 0.819145 0.163545 255 255 0 74 14
-0.668786 0.793181 0.130747 255 255 0 74 14
-0.666701 0.876570 0.128748 255 255 0 74 14
-0.757235 0.899207 0.156748 255 255 0 74 14
-0.740519 1.160615 0.134748 255 255 0 73 15
-0.759044 1.111941 0.132747 255 255 0 73 15
-0.781053 1.166684 0.136747 255 255 0 73 15
-0.726706 1.126507 0.136747 255 255 0 73 15
-0.764901 1.142104 0.128748 255 255 0 73 15
-0.758627 1.181240 0.128748 255 255 0 73 15
-0.745195 1.138616 0.139727 255 255 0 73 15
-0.761016 1.160381 0.139782 255 255 0 73 15
-0.744194 1.124090 0.125802 255 255 0 73 15
-0.761800 1.127833 0.138564 255 255 0 73 15
-0.769673 1.158131 0.125914 255 255 0 73 15
-0.735230 1.137404 0.126747 255 255 0 73 15
-0.743901 1.115849 0.139486 255 255 0 73 15
-0.750280 1.172411 0.138839 255 255 0 73 15
-0.753274 1.162825 0.126747 255 255 0 73 15
-0.768303 1.174198 0.137639 255 255 0 73 15
-0.771677 1.150379 0.138748 255 255 0 73 15
-0.752898 1.150476 0.133817 255 255 0 73 15
-0.734042 1.148513 0.136747 255 255 0 73 15
-0.776544 1.173905 0.125799 255 255 0 73 15
-0.756392 1.128728 0.126747 255 255 0 73 15
-0.742701 1.150354 0.125894 255 255 0 73 15
-0.758890 1.141527 0.139678 255 255 0 73 15
-0.739449 1.127171 0.139585 255 255 0 73 15
-0.750063 1.125338 0.135967 255 255 0 73 15
-0.731086 1.137661 0.137199 255 255 0 73 15
-0.769919 1.137737 0.137668 255 255 0 73 15
-0.733581 1.125924 0.128088 255 255 0 73 15
-0.749192 1.182404 0.134748 255 255 0 73 15
-0.773170 1.160919 0.139956 255 255 0 73 15
-0.758937 1.170162 0.133801 255 255 0 73 15
-0.750403 1.162214 0.139969 255 255 0 73 15
-0.751726 1.117512 0.127944 255 255 0 73 15
-0.771922 1.166788 0.131775 255 255 0 73 15
-0.744241 1.152726 0.139719 255 255 0 73 15
-0.763095 1.150599 0.133759 255 255 0 73 15
