ply
format ascii 1.0
element vertex 1119
property float x
property float y
property float z
property uchar red
property uchar green
property uchar blue
property uchar semantic_label
property uchar instance_label
end_header
0.042651 0.192917 0.092164 0 255 0 46 14
0.117854 0.245497 0.120164 0 255 0 46 14
0.050651 0.131192 0.065143 0 255 0 46 14
0.137541 0.174052 0.098236 0 255 0 46 14
0.083463 0.197007 0.117143 0 255 0 46 14
0.045481 0.203370 0.123143 0 255 0 46 14
0.005486 0.310298 0.103143 0 255 0 46 14
-0.008404 0.307687 0.081143 0 255 0 46 14
0.022724 0.264281 0.137143 0 255 0 46 14
0.061012 0.175862 0.092689 0 255 0 46 14
0.170528 0.144800 0.097143 0 255 0 46 14
0.112221 0.192996 0.102753 0 255 0 46 14
0.005456 0.281703 0.117143 0 255 0 46 14
0.131557 0.154119 0.099143 0 255 0 46 14
0.049911 0.186910 0.085143 0 255 0 46 14
0.110025 0.270294 0.135143 0 255 0 46 14
0.139505 0.256959 0.107143 0 255 0 46 14
0.062346 0.115148 0.072806 0 255 0 46 14
-0.004807 0.286706 0.105143 0 255 0 46 14
0.038260 0.161922 0.068149 0 255 0 46 14
-0.012509 0.313654 0.065904 0 255 0 46 14
0.067178 0.207860 0.129143 0 255 0 46 14
0.046420 0.194259 0.115143 0 255 0 46 14
-0.004612 0.293097 0.099143 0 255 0 46 14
0.062027 0.150894 0.081143 0 255 0 46 14
0.048270 0.258067 0.140177 0 255 0 46 14
-0.019296 0.260768 0.079143 0 255 0 46 14
0.064625 0.137000 0.083143 0 255 0 46 14
0.066132 0.122741 0.079862 0 255 0 46 14
0.003926 0.321262 0.090235 0 255 0 46 14
0.013581 0.172646 0.052694 0 255 0 46 14
0.113267 0.252397 0.133143 0 255 0 46 14
0.130012 0.120917 0.096334 0 255 0 46 14
-0.018501 0.303213 0.061143 0 255 0 46 14
0.109366 0.113287 0.091143 0 255 0 46 14
0.019798 0.267521 0.130289 0 255 0 46 14
0.195688 0.208270 0.066022 0 255 0 46 14
0.082863 0.135770 0.085143 0 255 0 46 14
-0.004120 0.200338 0.059143 0 255 0 46 14
0.142575 0.196826 0.094161 0 255 0 46 14
-0.015841 0.215526 0.059143 0 255 0 46 14
0.189371 0.201938 0.068566 0 255 0 46 14
0.040936 0.317802 0.127143 0 255 0 46 14
-0.027247 0.262325 0.073143 0 255 0 46 14
0.064842 0.145508 0.086840 0 255 0 46 14
0.173323 0.253511 0.055143 0 255 0 46 14
0.143237 0.131817 0.103143 0 255 0 46 14
0.043891 0.265037 0.145143 0 255 0 46 14
-0.024905 0.233583 0.053143 0 255 0 46 14
0.085048 0.173359 0.099546 0 255 0 46 14
0.057861 0.166371 0.084209 0 255 0 46 14
0.104051 0.148082 0.100724 0 255 0 46 14
0.060934 0.245432 0.145888 0 255 0 46 14
0.107463 0.174532 0.103143 0 255 0 46 14
-0.003539 0.211206 0.048143 0 255 0 46 14
0.073272 0.249560 0.141143 0 255 0 46 14
0.125436 0.210230 0.101143 0 255 0 46 14
0.025511 0.250451 0.130225 0 255 0 46 14
-0.015141 0.293792 0.089143 0 255 0 46 14
-0.014988 0.236901 0.093143 0 255 0 46 14
0.015385 0.255500 0.122156 0 255 0 46 14
0.051579 0.128417 0.070941 0 255 0 46 14
0.123313 0.156637 0.099143 0 255 0 46 14
0.095173 0.168311 0.100796 0 255 0 46 14
0.057162 0.225189 0.132197 0 255 0 46 14
0.121734 0.170872 0.103276 0 255 0 46 14
0.113541 0.144931 0.096224 0 255 0 46 14
0.145063 0.233511 0.090650 0 255 0 46 14
0.104030 0.167056 0.102287 0 255 0 46 14
-0.008936 0.207291 0.053143 0 255 0 46 14
0.133615 0.141664 0.103143 0 255 0 46 14
0.110677 0.203915 0.109143 0 255 0 46 14
0.058395 0.253018 0.146655 0 255 0 46 14
0.110397 0.129116 0.092148 0 255 0 46 14
-0.015273 0.217824 0.071143 0 255 0 46 14
0.110310 0.205011 0.100246 0 255 0 46 14
-0.009722 0.244990 0.093143 0 255 0 46 14
0.089505 0.147433 0.090236 0 255 0 46 14
0.088884 0.136682 0.088276 0 255 0 46 14
0.196513 0.183238 0.077143 0 255 0 46 14
0.033818 0.175199 0.072379 0 255 0 46 14
0.101490 0.174643 0.096181 0 255 0 46 14
0.004005 0.251692 0.114224 0 255 0 46 14
0.037640 0.151169 0.062174 0 255 0 46 14
-0.021203 0.228494 0.061143 0 255 0 46 14
0.105263 0.194886 0.098147 0 255 0 46 14
-0.023226 0.282651 0.050302 0 255 0 46 14
0.117934 0.175926 0.098207 0 255 0 46 14
0.069868 0.174607 0.095719 0 255 0 46 14
-0.027012 0.275058 0.056667 0 255 0 46 14
0.095160 0.180960 0.096161 0 255 0 46 14
0.068649 0.134128 0.076155 0 255 0 46 14
0.085333 0.153600 0.097143 0 255 0 46 14
-0.003914 0.234279 0.091143 0 255 0 46 14
0.125433 0.254360 0.118195 0 255 0 46 14
-0.019759 0.291198 0.055143 0 255 0 46 14
0.017974 0.203641 0.108416 0 255 0 46 14
0.009716 0.234622 0.123701 0 255 0 46 14
-0.014031 0.258311 0.085143 0 255 0 46 14
0.139413 0.124335 0.097143 0 255 0 46 14
0.138198 0.153181 0.098162 0 255 0 46 14
-0.005543 0.305440 0.100061 0 255 0 46 14
0.149411 0.249728 0.081143 0 255 0 46 14
0.167245 0.192426 0.088151 0 255 0 46 14
0.011834 0.193151 0.057143 0 255 0 46 14
0.078360 0.190102 0.095143 0 255 0 46 14
0.176772 0.157652 0.090469 0 255 0 46 14
0.131186 0.218257 0.101143 0 255 0 46 14
-0.024497 0.254810 0.081143 0 255 0 46 14
0.147157 0.246164 0.093143 0 255 0 46 14
0.064784 0.196105 0.106229 0 255 0 46 14
0.100171 0.222709 0.122222 0 255 0 46 14
0.004156 0.188209 0.059143 0 255 0 46 14
0.012704 0.244058 0.129143 0 255 0 46 14
0.035720 0.232541 0.137143 0 255 0 46 14
0.187534 0.165470 0.087143 0 255 0 46 14
-0.004180 0.219427 0.100214 0 255 0 46 14
0.198206 0.219658 0.054221 0 255 0 46 14
0.083506 0.114940 0.077143 0 255 0 46 14
0.050876 0.117637 0.065143 0 255 0 46 14
0.102659 0.259394 0.139286 0 255 0 46 14
0.152130 0.136753 0.102582 0 255 0 46 14
0.132371 0.271444 0.120128 0 255 0 46 14
0.122895 0.261946 0.126491 0 255 0 46 14
-0.001101 0.292163 0.113870 0 255 0 46 14
0.048254 0.146285 0.077143 0 255 0 46 14
0.071751 0.187891 0.108234 0 255 0 46 14
0.011635 0.216283 0.114126 0 255 0 46 14
0.004669 0.224497 0.114066 0 255 0 46 14
0.071073 0.227735 0.139329 0 255 0 46 14
0.109057 0.210918 0.117143 0 255 0 46 14
-0.009863 0.211199 0.077376 0 255 0 46 14
0.089757 0.216016 0.121143 0 255 0 46 14
0.078082 0.181573 0.099526 0 255 0 46 14
-0.028672 0.261848 0.053143 0 255 0 46 14
0.106824 0.224934 0.119143 0 255 0 46 14
0.049934 0.196365 0.103143 0 255 0 46 14
0.093148 0.281519 0.140139 0 255 0 46 14
0.086816 0.218500 0.133143 0 255 0 46 14
0.052219 0.134958 0.075143 0 255 0 46 14
0.086844 0.262538 0.140148 0 255 0 46 14
0.068235 0.214131 0.123143 0 255 0 46 14
0.013545 0.183179 0.065143 0 255 0 46 14
0.005624 0.221642 0.095143 0 255 0 46 14
0.045782 0.221381 0.126168 0 255 0 46 14
0.100892 0.144916 0.094231 0 255 0 46 14
0.038901 0.153701 0.072290 0 255 0 46 14
0.008151 0.198246 0.053143 0 255 0 46 14
-0.020419 0.264609 0.069143 0 255 0 46 14
0.168544 0.163335 0.096178 0 255 0 46 14
0.153985 0.244932 0.081143 0 255 0 46 14
0.137585 0.136104 0.098179 0 255 0 46 14
0.074873 0.222680 0.130222 0 255 0 46 14
-0.004493 0.220361 0.075143 0 255 0 46 14
-0.020427 0.251953 0.057143 0 255 0 46 14
0.027400 0.257411 0.132171 0 255 0 46 14
-0.016043 0.276619 0.083143 0 255 0 46 14
0.056702 0.136458 0.079143 0 255 0 46 14
0.045752 0.246680 0.136151 0 255 0 46 14
0.116051 0.162643 0.098197 0 255 0 46 14
0.061626 0.192939 0.100182 0 255 0 46 14
0.028224 0.292764 0.131143 0 255 0 46 14
0.006257 0.203938 0.061143 0 255 0 46 14
0.037808 0.248240 0.135143 0 255 0 46 14
-0.019126 0.273478 0.071143 0 255 0 46 14
0.158164 0.143931 0.101143 0 255 0 46 14
-0.020234 0.273107 0.089143 0 255 0 46 14
0.098851 0.270774 0.136216 0 255 0 46 14
0.011210 0.280583 0.127143 0 255 0 46 14
0.085918 0.246400 0.137143 0 255 0 46 14
0.072716 0.162906 0.087143 0 255 0 46 14
0.050801 0.256804 0.145899 0 255 0 46 14
0.096984 0.244840 0.138889 0 255 0 46 14
0.098575 0.240085 0.131143 0 255 0 46 14
0.078333 0.253362 0.141143 0 255 0 46 14
0.138530 0.145887 0.099143 0 255 0 46 14
0.191910 0.194352 0.075996 0 255 0 46 14
0.079871 0.277076 0.144690 0 255 0 46 14
0.100799 0.227136 0.131749 0 255 0 46 14
0.034015 0.278605 0.135143 0 255 0 46 14
0.044620 0.130306 0.065955 0 255 0 46 14
0.148180 0.196592 0.097143 0 255 0 46 14
-0.005211 0.250717 0.101143 0 255 0 46 14
0.032059 0.164065 0.073143 0 255 0 46 14
0.121712 0.189845 0.098163 0 255 0 46 14
0.009039 0.274466 0.120183 0 255 0 46 14
-0.021797 0.232514 0.073143 0 255 0 46 14
0.077383 0.240391 0.143965 0 255 0 46 14
0.041618 0.184135 0.099143 0 255 0 46 14
0.136892 0.188597 0.096173 0 255 0 46 14
0.124538 0.231824 0.109143 0 255 0 46 14
0.096788 0.122454 0.087143 0 255 0 46 14
0.096991 0.238516 0.137580 0 255 0 46 14
0.068513 0.254295 0.142263 0 255 0 46 14
-0.020024 0.247870 0.088737 0 255 0 46 14
0.007250 0.178963 0.052875 0 255 0 46 14
0.092613 0.194872 0.110635 0 255 0 46 14
0.111024 0.133544 0.100155 0 255 0 46 14
-0.018804 0.288348 0.068199 0 255 0 46 14
0.060428 0.133487 0.072169 0 255 0 46 14
0.094806 0.166079 0.095143 0 255 0 46 14
0.116322 0.199652 0.099143 0 255 0 46 14
0.034972 0.272598 0.136200 0 255 0 46 14
0.009029 0.261889 0.129143 0 255 0 46 14
0.067849 0.281489 0.142166 0 255 0 46 14
0.021634 0.213301 0.121143 0 255 0 46 14
-0.011327 0.219145 0.051143 0 255 0 46 14
0.044484 0.250473 0.144166 0 255 0 46 14
0.097575 0.285109 0.137143 0 255 0 46 14
0.111630 0.156946 0.102339 0 255 0 46 14
0.146623 0.257232 0.087143 0 255 0 46 14
0.044570 0.174578 0.084257 0 255 0 46 14
0.088272 0.119605 0.090257 0 255 0 46 14
0.008077 0.210875 0.087143 0 255 0 46 14
0.093284 0.161352 0.099510 0 255 0 46 14
-0.007798 0.302577 0.089143 0 255 0 46 14
0.067272 0.114687 0.077143 0 255 0 46 14
0.136208 0.234766 0.096237 0 255 0 46 14
0.042061 0.156867 0.076898 0 255 0 46 14
0.081269 0.159441 0.096692 0 255 0 46 14
0.092058 0.127198 0.093635 0 255 0 46 14
0.175232 0.190881 0.085143 0 255 0 46 14
0.031842 0.244134 0.132204 0 255 0 46 14
0.092752 0.173828 0.101143 0 255 0 46 14
-0.011610 0.225378 0.091143 0 255 0 46 14
-0.018099 0.223206 0.052791 0 255 0 46 14
0.092570 0.232819 0.137791 0 255 0 46 14
0.093889 0.184753 0.102132 0 255 0 46 14
-0.002925 0.228284 0.108595 0 255 0 46 14
0.083728 0.221425 0.126196 0 255 0 46 14
0.008433 0.251065 0.127007 0 255 0 46 14
0.075515 0.214458 0.122154 0 255 0 46 14
0.078968 0.210442 0.129143 0 255 0 46 14
0.015060 0.300590 0.123143 0 255 0 46 14
0.080613 0.180312 0.092150 0 255 0 46 14
0.048292 0.239093 0.142926 0 255 0 46 14
-0.006443 0.229215 0.081143 0 255 0 46 14
0.072712 0.191318 0.099143 0 255 0 46 14
0.116999 0.264191 0.127143 0 255 0 46 14
0.075623 0.119590 0.084683 0 255 0 46 14
0.146418 0.153823 0.102439 0 255 0 46 14
0.049664 0.190870 0.111143 0 255 0 46 14
0.150203 0.245775 0.087143 0 255 0 46 14
-0.006754 0.258637 0.114534 0 255 0 46 14
0.166616 0.139491 0.099143 0 255 0 46 14
0.017002 0.203316 0.085143 0 255 0 46 14
0.159987 0.170000 0.097143 0 255 0 46 14
0.077748 0.201481 0.109143 0 255 0 46 14
0.053354 0.236569 0.136260 0 255 0 46 14
0.002750 0.242836 0.120815 0 255 0 46 14
0.045760 0.240355 0.136229 0 255 0 46 14
0.025159 0.178628 0.061143 0 255 0 46 14
0.093248 0.192975 0.098215 0 255 0 46 14
0.108378 0.235999 0.122145 0 255 0 46 14
-0.015306 0.236795 0.057143 0 255 0 46 14
0.078039 0.219520 0.126159 0 255 0 46 14
0.098607 0.214778 0.115143 0 255 0 46 14
0.011969 0.202679 0.075143 0 255 0 46 14
0.078724 0.173352 0.090150 0 255 0 46 14
0.044889 0.186230 0.081143 0 255 0 46 14
-0.017914 0.298291 0.077143 0 255 0 46 14
-0.002933 0.234608 0.110831 0 255 0 46 14
0.124921 0.148739 0.098188 0 255 0 46 14
0.023939 0.188765 0.065143 0 255 0 46 14
0.149801 0.266731 0.081143 0 255 0 46 14
0.152629 0.255023 0.082345 0 255 0 46 14
0.059892 0.280059 0.143143 0 255 0 46 14
0.073712 0.131604 0.078158 0 255 0 46 14
0.127994 0.227799 0.100199 0 255 0 46 14
-0.011203 0.274020 0.105143 0 255 0 46 14
0.052192 0.145494 0.072180 0 255 0 46 14
0.029051 0.170533 0.067143 0 255 0 46 14
0.009353 0.200756 0.065143 0 255 0 46 14
0.084089 0.207740 0.117143 0 255 0 46 14
0.138210 0.224891 0.099143 0 255 0 46 14
0.115929 0.270160 0.126171 0 255 0 46 14
0.070524 0.153737 0.084290 0 255 0 46 14
0.178661 0.164611 0.088154 0 255 0 46 14
0.132855 0.238482 0.111143 0 255 0 46 14
0.074136 0.112766 0.081143 0 255 0 46 14
0.040777 0.173309 0.076155 0 255 0 46 14
0.128094 0.139255 0.102143 0 255 0 46 14
0.004184 0.304477 0.105143 0 255 0 46 14
0.025788 0.206256 0.117143 0 255 0 46 14
0.000464 0.218873 0.105143 0 255 0 46 14
0.150505 0.258530 0.077143 0 255 0 46 14
0.160280 0.200640 0.088202 0 255 0 46 14
-0.020515 0.283559 0.065143 0 255 0 46 14
0.000651 0.265332 0.121143 0 255 0 46 14
0.008800 0.240642 0.125143 0 255 0 46 14
0.141592 0.269100 0.105143 0 255 0 46 14
0.059015 0.263771 0.142231 0 255 0 46 14
0.009831 0.293713 0.123143 0 255 0 46 14
0.075465 0.258731 0.142237 0 255 0 46 14
0.050281 0.157509 0.076183 0 255 0 46 14
0.010547 0.320380 0.101143 0 255 0 46 14
0.128203 0.239780 0.119143 0 255 0 46 14
-0.017210 0.270977 0.081143 0 255 0 46 14
0.003984 0.270666 0.124531 0 255 0 46 14
0.191495 0.217412 0.065143 0 255 0 46 14
0.044562 0.180902 0.094506 0 255 0 46 14
0.108711 0.222397 0.125143 0 255 0 46 14
-0.008673 0.276976 0.100181 0 255 0 46 14
0.117919 0.188575 0.102469 0 255 0 46 14
0.058944 0.119010 0.065143 0 255 0 46 14
0.106547 0.178443 0.098144 0 255 0 46 14
0.019755 0.305468 0.123595 0 255 0 46 14
0.102118 0.179071 0.102442 0 255 0 46 14
-0.000107 0.216572 0.079143 0 255 0 46 14
0.068304 0.116250 0.071143 0 255 0 46 14
0.121049 0.217040 0.110346 0 255 0 46 14
0.052027 0.290958 0.138154 0 255 0 46 14
0.022351 0.247286 0.126154 0 255 0 46 14
-0.003646 0.306075 0.094211 0 255 0 46 14
0.151467 0.163948 0.100018 0 255 0 46 14
0.065133 0.141388 0.079143 0 255 0 46 14
0.184181 0.172785 0.083143 0 255 0 46 14
0.116344 0.215466 0.103143 0 255 0 46 14
0.134432 0.126614 0.102910 0 255 0 46 14
0.026166 0.229581 0.132486 0 255 0 46 14
0.137548 0.167727 0.102068 0 255 0 46 14
0.036220 0.287779 0.134181 0 255 0 46 14
0.147513 0.238798 0.089143 0 255 0 46 14
0.041440 0.146114 0.071174 0 255 0 46 14
-0.011211 0.284562 0.103290 0 255 0 46 14
0.124265 0.169609 0.098187 0 255 0 46 14
0.036833 0.298548 0.135143 0 255 0 46 14
0.076763 0.229639 0.132145 0 255 0 46 14
0.018690 0.317766 0.113143 0 255 0 46 14
0.129149 0.257712 0.121143 0 255 0 46 14
-0.016628 0.291186 0.077143 0 255 0 46 14
-0.014349 0.262423 0.104499 0 255 0 46 14
0.116325 0.253421 0.125143 0 255 0 46 14
0.035981 0.225458 0.123143 0 255 0 46 14
0.012531 0.222910 0.105143 0 255 0 46 14
0.122967 0.198701 0.098263 0 255 0 46 14
0.197607 0.189931 0.069820 0 255 0 46 14
0.000176 0.282046 0.110265 0 255 0 46 14
0.062296 0.159419 0.084357 0 255 0 46 14
0.043358 0.127775 0.054158 0 255 0 46 14
0.060062 0.185005 0.087143 0 255 0 46 14
0.190030 0.218878 0.059143 0 255 0 46 14
0.169770 0.197489 0.086264 0 255 0 46 14
0.090018 0.253054 0.142142 0 255 0 46 14
0.028106 0.192269 0.080167 0 255 0 46 14
0.142525 0.241097 0.102531 0 255 0 46 14
0.004704 0.192874 0.065221 0 255 0 46 14
0.007741 0.303558 0.110152 0 255 0 46 14
0.051038 0.176742 0.081143 0 255 0 46 14
0.014642 0.208853 0.111143 0 255 0 46 14
-0.007937 0.207626 0.067143 0 255 0 46 14
0.086981 0.142372 0.095037 0 255 0 46 14
-0.006740 0.245987 0.098220 0 255 0 46 14
-0.000809 0.269062 0.111143 0 255 0 46 14
0.078498 0.126879 0.087143 0 255 0 46 14
0.176214 0.184533 0.087143 0 255 0 46 14
0.208594 0.149318 0.121143 255 125 0 45 15
0.219554 0.070735 0.039143 255 125 0 45 15
0.212515 0.151677 0.035143 255 125 0 45 15
0.266682 0.118139 0.079143 255 125 0 45 15
0.233297 0.089564 0.127143 255 125 0 45 15
0.201775 0.111185 0.077143 255 125 0 45 15
0.265965 0.143207 0.130102 255 125 0 45 15
0.255255 0.105880 0.032163 255 125 0 45 15
0.204495 0.109985 0.035143 255 125 0 45 15
0.212553 0.151564 0.079143 255 125 0 45 15
0.237237 0.090399 0.071143 255 125 0 45 15
0.201020 0.110932 0.117143 255 125 0 45 15
0.264911 0.108538 0.115143 255 125 0 45 15
0.233729 0.126094 0.136025 255 125 0 45 15
0.239048 0.163726 0.127143 255 125 0 45 15
0.219593 0.092703 0.097143 255 125 0 45 15
0.200324 0.133898 0.057143 255 125 0 45 15
0.268807 0.131504 0.035143 255 125 0 45 15
0.200041 0.132233 0.097143 255 125 0 45 15
0.229000 0.099204 0.045143 255 125 0 45 15
0.248926 0.093282 0.097143 255 125 0 45 15
0.259167 0.100862 0.059143 255 125 0 45 15
0.218496 0.106234 0.137143 255 125 0 45 15
0.214592 0.095044 0.065143 255 125 0 45 15
0.266940 0.127687 0.101143 255 125 0 45 15
0.266310 0.129571 0.059143 255 125 0 45 15
0.207796 0.127962 0.131004 255 125 0 45 15
0.255869 0.122956 0.130758 255 125 0 45 15
0.210664 0.113089 0.097143 255 125 0 45 15
0.213743 0.151041 0.057143 255 125 0 45 15
0.211283 0.114366 0.055143 255 125 0 45 15
0.202440 0.131363 0.035143 255 125 0 45 15
0.250200 0.102080 0.130904 255 125 0 45 15
0.220474 0.102678 0.116141 255 125 0 45 15
0.229604 0.144726 0.127143 255 125 0 45 15
0.251826 0.103525 0.079143 255 125 0 45 15
0.213623 0.151002 0.101143 255 125 0 45 15
0.205540 0.131425 0.077143 255 125 0 45 15
0.263187 0.107385 0.095143 255 125 0 45 15
0.266783 0.113955 0.047143 255 125 0 45 15
0.221399 0.102987 0.081143 255 125 0 45 15
0.246979 0.092799 0.045143 255 125 0 45 15
0.240416 0.099804 0.113143 255 125 0 45 15
0.247619 0.147613 0.130632 255 125 0 45 15
0.198236 0.128981 0.115143 255 125 0 45 15
0.211049 0.097415 0.047143 255 125 0 45 15
0.232825 0.109886 0.127143 255 125 0 45 15
0.268570 0.125098 0.119143 255 125 0 45 15
0.222005 0.161133 0.127143 255 125 0 45 15
0.236619 0.098547 0.087143 255 125 0 45 15
0.242301 0.100474 0.059143 255 125 0 45 15
0.198389 0.120597 0.047143 255 125 0 45 15
0.198308 0.120569 0.065143 255 125 0 45 15
0.207932 0.100591 0.127143 255 125 0 45 15
0.219533 0.118095 0.127143 255 125 0 45 15
0.228945 0.089969 0.109143 255 125 0 45 15
0.218577 0.102044 0.034154 255 125 0 45 15
0.244124 0.132847 0.127143 255 125 0 45 15
0.208325 0.100721 0.107143 255 125 0 45 15
0.207627 0.100488 0.087143 255 125 0 45 15
0.231012 0.090092 0.057143 255 125 0 45 15
0.204793 0.143241 0.045143 255 125 0 45 15
0.261921 0.114437 0.065143 255 125 0 45 15
0.208083 0.139711 0.109143 255 125 0 45 15
0.204515 0.144072 0.089143 255 125 0 45 15
0.238820 0.098272 0.034186 255 125 0 45 15
0.205548 0.144082 0.067143 255 125 0 45 15
0.215983 0.141246 0.131143 255 125 0 45 15
0.255838 0.097837 0.109143 255 125 0 45 15
0.264739 0.109052 0.129657 255 125 0 45 15
0.253050 0.106167 0.047143 255 125 0 45 15
0.198918 0.118665 0.089143 255 125 0 45 15
0.199175 0.118750 0.105143 255 125 0 45 15
0.213140 0.108659 0.069143 255 125 0 45 15
0.258678 0.155531 0.127143 255 125 0 45 15
0.227757 0.099821 0.067143 255 125 0 45 15
0.220366 0.094206 0.129143 255 125 0 45 15
0.250811 0.093952 0.069143 255 125 0 45 15
0.201091 0.138373 0.125143 255 125 0 45 15
0.224513 0.131446 0.127143 255 125 0 45 15
0.234076 0.099844 0.101143 255 125 0 45 15
0.226657 0.090502 0.081143 255 125 0 45 15
0.246082 0.114390 0.127143 255 125 0 45 15
0.205915 0.114678 0.130389 255 125 0 45 15
0.265994 0.117909 0.034406 255 125 0 45 15
0.208752 0.121955 0.119143 255 125 0 45 15
0.220474 0.102678 0.056150 255 125 0 45 15
0.248901 0.093359 0.121143 255 125 0 45 15
0.203408 0.105404 0.061143 255 125 0 45 15
0.233376 0.101936 0.137143 255 125 0 45 15
0.253043 0.106189 0.119143 255 125 0 45 15
0.247119 0.092380 0.083143 255 125 0 45 15
0.255854 0.135606 0.130729 255 125 0 45 15
0.229316 0.114073 0.138452 255 125 0 45 15
0.211889 0.112459 0.111143 255 125 0 45 15
0.262539 0.115627 0.105143 255 125 0 45 15
0.220160 0.103617 0.103143 255 125 0 45 15
0.263379 0.106817 0.075143 255 125 0 45 15
0.202753 0.107294 0.047143 255 125 0 45 15
0.210652 0.116264 0.085143 255 125 0 45 15
0.265100 0.120579 0.091143 255 125 0 45 15
0.224282 0.091298 0.036942 255 125 0 45 15
0.256883 0.097988 0.089143 255 125 0 45 15
0.215088 0.109311 0.043143 255 125 0 45 15
0.231163 0.089641 0.093143 255 125 0 45 15
0.209400 0.098973 0.075143 255 125 0 45 15
0.206846 0.127644 0.107143 255 125 0 45 15
0.206117 0.129509 0.047143 255 125 0 45 15
0.251146 0.105556 0.067143 255 125 0 45 15
0.266709 0.130802 0.129143 255 125 0 45 15
0.241330 0.115984 0.137619 255 125 0 45 15
0.235362 0.089699 0.043143 255 125 0 45 15
0.241359 0.090686 0.105530 255 125 0 45 15
0.198881 0.122870 0.125143 255 125 0 45 15
0.198131 0.122619 0.077143 255 125 0 45 15
0.266347 0.129458 0.077143 255 125 0 45 15
0.232431 0.155186 0.131055 255 125 0 45 15
0.206776 0.121294 0.039143 255 125 0 45 15
0.220412 0.092113 0.051143 255 125 0 45 15
0.242300 0.100477 0.073143 255 125 0 45 15
0.206799 0.127628 0.089143 255 125 0 45 15
0.232188 0.099183 0.121143 255 125 0 45 15
0.217094 0.093872 0.109143 255 125 0 45 15
0.252412 0.104929 0.097143 255 125 0 45 15
0.206850 0.124487 0.059143 255 125 0 45 15
0.215039 0.153584 0.113143 255 125 0 45 15
0.226438 0.100455 0.091143 255 125 0 45 15
0.263477 0.106522 0.039587 255 125 0 45 15
0.224385 0.090990 0.119143 255 125 0 45 15
0.221102 0.107107 0.126188 255 125 0 45 15
0.207450 0.119410 0.071143 255 125 0 45 15
0.258757 0.111269 0.055143 255 125 0 45 15
0.260022 0.110543 0.085143 255 125 0 45 15
0.232187 0.099188 0.077143 255 125 0 45 15
0.221715 0.124183 0.135897 255 125 0 45 15
0.266930 0.134020 0.113143 255 125 0 45 15
0.237530 0.121038 0.126243 255 125 0 45 15
0.237385 0.089957 0.117143 255 125 0 45 15
0.216623 0.152005 0.129258 255 125 0 45 15
0.216318 0.105505 0.091143 255 125 0 45 15
0.248239 0.158365 0.130001 255 125 0 45 15
0.250597 0.094589 0.055143 255 125 0 45 15
0.266910 0.124543 0.043143 255 125 0 45 15
0.241987 0.095113 0.130152 255 125 0 45 15
0.254179 0.096491 0.037143 255 125 0 45 15
0.266013 0.120024 0.129143 255 125 0 45 15
0.207147 0.142508 0.034342 255 125 0 45 15
0.217243 0.093424 0.085143 255 125 0 45 15
0.201713 0.109055 0.101143 255 125 0 45 15
0.267492 0.122628 0.069143 255 125 0 45 15
0.208608 0.100322 0.037143 255 125 0 45 15
0.203076 0.142070 0.077143 255 125 0 45 15
0.223573 0.091061 0.071143 255 125 0 45 15
0.207384 0.141803 0.055143 255 125 0 45 15
0.244205 0.101089 0.103143 255 125 0 45 15
0.204616 0.143770 0.099468 255 125 0 45 15
0.238515 0.099181 0.049143 255 125 0 45 15
0.240740 0.090477 0.061143 255 125 0 45 15
0.199407 0.133590 0.069143 255 125 0 45 15
0.255589 0.108101 0.109143 255 125 0 45 15
0.211625 0.097609 0.117239 255 125 0 45 15
0.209777 0.099099 0.097143 255 125 0 45 15
0.202218 0.109223 0.087143 255 125 0 45 15
0.212496 0.110554 0.121143 255 125 0 45 15
0.246107 0.101704 0.089143 255 125 0 45 15
0.213130 0.149840 0.045143 255 125 0 45 15
0.213110 0.149902 0.089143 255 125 0 45 15
0.266195 0.120085 0.055143 255 125 0 45 15
0.212541 0.151602 0.067143 255 125 0 45 15
0.238770 0.142543 0.130667 255 125 0 45 15
0.199896 0.114774 0.055143 255 125 0 45 15
0.255248 0.112205 0.130507 255 125 0 45 15
0.237339 0.090094 0.081143 255 125 0 45 15
0.200070 0.133813 0.085143 255 125 0 45 15
0.206745 0.133937 0.117143 255 125 0 45 15
0.227755 0.099828 0.109143 255 125 0 45 15
0.256796 0.145399 0.127143 255 125 0 45 15
0.260625 0.115046 0.121143 255 125 0 45 15
0.246105 0.101716 0.041143 255 125 0 45 15
0.258929 0.101205 0.125143 255 125 0 45 15
0.241008 0.104338 0.127143 255 125 0 45 15
0.209288 0.098935 0.057143 255 125 0 45 15
0.234627 0.132721 0.129143 255 125 0 45 15
0.240025 0.151399 0.126184 255 125 0 45 15
0.241198 0.091165 0.091143 255 125 0 45 15
0.214142 0.108996 0.080138 255 125 0 45 15
0.207478 0.122607 0.099143 255 125 0 45 15
0.267460 0.122617 0.109143 255 125 0 45 15
0.262057 0.104461 0.049143 255 125 0 45 15
0.228996 0.099203 0.035143 255 125 0 45 15
0.229169 0.118242 0.129143 255 125 0 45 15
0.257626 0.098794 0.073143 255 125 0 45 15
0.207563 0.144756 0.129143 255 125 0 45 15
0.229005 0.099206 0.055143 255 125 0 45 15
0.215383 0.130500 0.126151 255 125 0 45 15
0.247013 0.124211 0.126188 255 125 0 45 15
0.219409 0.102321 0.071143 255 125 0 45 15
0.227433 0.100789 0.130333 255 125 0 45 15
0.222047 0.091674 0.061143 255 125 0 45 15
0.260513 0.102772 0.103143 255 125 0 45 15
0.209707 0.115948 0.046118 255 125 0 45 15
0.219316 0.115157 0.136169 255 125 0 45 15
0.206163 0.123197 0.081143 255 125 0 45 15
0.197879 0.124644 0.057143 255 125 0 45 15
0.215218 0.094593 0.039143 255 125 0 45 15
0.254532 0.097202 0.047143 255 125 0 45 15
0.239348 0.090392 0.051143 255 125 0 45 15
0.199094 0.116614 0.039143 255 125 0 45 15
0.212246 0.108360 0.130707 255 125 0 45 15
0.200712 0.134027 0.107143 255 125 0 45 15
0.206799 0.133956 0.063143 255 125 0 45 15
0.201033 0.135571 0.043143 255 125 0 45 15
0.221390 0.102984 0.043143 255 125 0 45 15
0.208631 0.149331 0.109143 255 125 0 45 15
0.202943 0.107357 0.125143 255 125 0 45 15
0.244982 0.092460 0.113143 255 125 0 45 15
0.226721 0.090312 0.045143 255 125 0 45 15
0.204972 0.142706 0.117143 255 125 0 45 15
0.213715 0.106743 0.051143 255 125 0 45 15
0.245152 0.091954 0.036874 255 125 0 45 15
0.208689 0.115607 0.063143 255 125 0 45 15
0.207408 0.119396 0.109143 255 125 0 45 15
0.251800 0.103600 0.055143 255 125 0 45 15
0.201154 0.110977 0.067143 255 125 0 45 15
0.239778 0.108017 0.135143 255 125 0 45 15
0.236627 0.098525 0.065143 255 125 0 45 15
0.240416 0.099805 0.095143 255 125 0 45 15
0.199258 0.121966 0.097143 255 125 0 45 15
0.206787 0.127625 0.069143 255 125 0 45 15
0.253060 0.106138 0.087143 255 125 0 45 15
0.205402 0.103962 0.115143 255 125 0 45 15
0.206044 0.135811 0.091143 255 125 0 45 15
0.205656 0.104047 0.069143 255 125 0 45 15
0.248308 0.139248 0.131143 255 125 0 45 15
0.215684 0.107402 0.061143 255 125 0 45 15
0.241412 0.124447 0.133143 255 125 0 45 15
0.226645 0.090538 0.101143 255 125 0 45 15
0.198272 0.124914 0.039143 255 125 0 45 15
0.261874 0.105008 0.067143 255 125 0 45 15
0.211283 0.114366 0.037143 255 125 0 45 15
0.224845 0.152647 0.128291 255 125 0 45 15
0.246098 0.101732 0.121143 255 125 0 45 15
0.207451 0.138391 0.083143 255 125 0 45 15
0.198805 0.120736 0.117143 255 125 0 45 15
0.212232 0.121011 0.130279 255 125 0 45 15
0.207152 0.136189 0.131143 255 125 0 45 15
0.245297 0.091523 0.075143 255 125 0 45 15
0.248011 0.102319 0.111143 255 125 0 45 15
0.244196 0.101116 0.081143 255 125 0 45 15
0.216681 0.101409 0.130530 255 125 0 45 15
0.197660 0.126741 0.089143 255 125 0 45 15
0.266223 0.117221 0.115143 255 125 0 45 15
0.260623 0.111893 0.033143 255 125 0 45 15
0.229893 0.162772 0.126154 255 125 0 45 15
0.264275 0.115225 0.097143 255 125 0 45 15
0.260525 0.102735 0.083143 255 125 0 45 15
0.199537 0.114828 0.125143 255 125 0 45 15
0.206051 0.135814 0.101143 255 125 0 45 15
0.255604 0.098536 0.117143 255 125 0 45 15
0.217917 0.093387 0.077143 255 125 0 45 15
0.231097 0.089838 0.065143 255 125 0 45 15
0.248867 0.093460 0.105143 255 125 0 45 15
0.201867 0.109106 0.109143 255 125 0 45 15
0.246098 0.101734 0.049143 255 125 0 45 15
0.209852 0.147033 0.073143 255 125 0 45 15
0.200573 0.130640 0.129143 255 125 0 45 15
0.265987 0.124233 0.084137 255 125 0 45 15
0.266850 0.113977 0.087143 255 125 0 45 15
0.206794 0.121299 0.051143 255 125 0 45 15
0.226481 0.100471 0.099143 255 125 0 45 15
0.267877 0.131192 0.094155 255 125 0 45 15
0.255821 0.097886 0.099143 255 125 0 45 15
0.198667 0.127016 0.103143 255 125 0 45 15
0.207140 0.148832 0.040124 255 125 0 45 15
0.224485 0.090690 0.089143 255 125 0 45 15
0.258107 0.109964 0.101143 255 125 0 45 15
0.217143 0.093724 0.121143 255 125 0 45 15
0.261929 0.114440 0.041143 255 125 0 45 15
0.215033 0.153582 0.121143 255 125 0 45 15
0.264896 0.108581 0.107143 255 125 0 45 15
0.226165 0.104582 0.137517 255 125 0 45 15
0.222963 0.139363 0.128541 255 125 0 45 15
0.259655 0.130551 0.126179 255 125 0 45 15
0.215070 0.109305 0.103143 255 125 0 45 15
0.205122 0.103868 0.079143 255 125 0 45 15
0.208481 0.149281 0.095143 255 125 0 45 15
0.265462 0.111404 0.059143 255 125 0 45 15
0.199384 0.129365 0.051143 255 125 0 45 15
0.237330 0.090118 0.099143 255 125 0 45 15
0.213183 0.096021 0.091143 255 125 0 45 15
0.228032 0.130515 0.133848 255 125 0 45 15
0.207409 0.119397 0.091143 255 125 0 45 15
0.206795 0.133954 0.053143 255 125 0 45 15
0.198747 0.129152 0.063143 255 125 0 45 15
0.225226 0.101082 0.123143 255 125 0 45 15
0.198955 0.116567 0.081968 255 125 0 45 15
0.253858 0.097447 0.063143 255 125 0 45 15
0.226400 0.108879 0.131143 255 125 0 45 15
0.207697 0.147166 0.083143 255 125 0 45 15
0.206191 0.129534 0.123143 255 125 0 45 15
0.260034 0.103261 0.113143 255 125 0 45 15
0.205311 0.137675 0.071143 255 125 0 45 15
0.268187 0.114425 0.069143 255 125 0 45 15
0.232503 0.091940 0.036661 255 125 0 45 15
0.213303 0.096061 0.103143 255 125 0 45 15
0.206375 0.102178 0.051143 255 125 0 45 15
0.215312 0.094624 0.057143 255 125 0 45 15
0.200785 0.138270 0.063143 255 125 0 45 15
0.227763 0.099803 0.083143 255 125 0 45 15
0.252447 0.095366 0.077143 255 125 0 45 15
0.208075 0.139735 0.123143 255 125 0 45 15
0.209322 0.113709 0.077143 255 125 0 45 15
0.207154 0.136183 0.038132 255 125 0 45 15
0.205294 0.103925 0.093846 255 125 0 45 15
0.253727 0.104145 0.039143 255 125 0 45 15
0.211239 0.145986 0.115143 255 125 0 45 15
0.237249 0.115572 0.131143 255 125 0 45 15
0.231116 0.089783 0.075143 255 125 0 45 15
0.260910 0.139406 0.126152 255 125 0 45 15
0.250193 0.108404 0.126150 255 125 0 45 15
0.271254 0.136541 0.129143 255 125 0 45 15
0.199590 0.114671 0.096847 255 125 0 45 15
0.236620 0.098543 0.041143 255 125 0 45 15
0.258121 0.109923 0.071143 255 125 0 45 15
0.248303 0.101445 0.034187 255 125 0 45 15
0.252354 0.095641 0.127143 255 125 0 45 15
0.202092 0.138707 0.050241 255 125 0 45 15
0.229656 0.138267 0.131143 255 125 0 45 15
0.253345 0.117895 0.126199 255 125 0 45 15
0.198764 0.129743 0.079143 255 125 0 45 15
0.251434 0.129909 0.129999 255 125 0 45 15
0.223940 0.123836 0.127143 255 125 0 45 15
0.241327 0.090782 0.123143 255 125 0 45 15
0.209474 0.148159 0.051143 255 125 0 45 15
0.233131 0.096368 0.130666 255 125 0 45 15
0.267401 0.120489 0.101143 255 125 0 45 15
0.203376 0.122264 0.131021 255 125 0 45 15
0.213720 0.106745 0.115143 255 125 0 45 15
0.254952 0.106789 0.061143 255 125 0 45 15
0.199491 0.116747 0.071143 255 125 0 45 15
0.212880 0.106464 0.034219 255 125 0 45 15
0.209308 0.145339 0.061143 255 125 0 45 15
0.210624 0.116255 0.125143 255 125 0 45 15
0.220739 0.146007 0.127143 255 125 0 45 15
0.251818 0.103547 0.105143 255 125 0 45 15
0.263364 0.106484 0.123143 255 125 0 45 15
0.221997 0.101079 0.063143 255 125 0 45 15
0.250556 0.094713 0.089143 255 125 0 45 15
0.258893 0.101311 0.043143 255 125 0 45 15
0.205900 0.127327 0.114150 255 125 0 45 15
0.230814 0.125118 0.129143 255 125 0 45 15
0.199876 0.145330 0.125143 255 125 0 45 15
0.213483 0.096121 0.127143 255 125 0 45 15
0.259370 0.112491 0.113143 255 125 0 45 15
0.209984 0.152939 0.127143 255 125 0 45 15
0.199568 0.133645 0.120181 255 125 0 45 15
0.224540 0.099821 0.075143 255 125 0 45 15
0.247079 0.092500 0.063143 255 125 0 45 15
0.199936 0.113636 0.047143 255 125 0 45 15
0.221411 0.102991 0.095143 255 125 0 45 15
0.263211 0.116978 0.073143 255 125 0 45 15
0.266526 0.113869 0.125143 255 125 0 45 15
0.259565 0.109431 0.045143 255 125 0 45 15
0.239419 0.127998 0.126212 255 125 0 45 15
0.213775 0.154214 0.095143 255 125 0 45 15
0.223334 0.100431 0.049143 255 125 0 45 15
0.233413 0.098571 0.093143 255 125 0 45 15
0.209391 0.116891 0.103143 255 125 0 45 15
0.205697 0.102720 0.101143 255 125 0 45 15
0.257492 0.108736 0.079143 255 125 0 45 15
0.235020 0.103327 0.130093 255 125 0 45 15
0.265046 0.120741 0.063143 255 125 0 45 15
0.206197 0.129535 0.097143 255 125 0 45 15
0.199153 0.127179 0.071143 255 125 0 45 15
0.202741 0.124162 0.034190 255 125 0 45 15
0.243832 0.140019 0.126200 255 125 0 45 15
0.259669 0.117902 0.128530 255 125 0 45 15
0.232378 0.089790 0.049143 255 125 0 45 15
0.205280 0.116575 0.034224 255 125 0 45 15
0.252674 0.151413 0.128457 255 125 0 45 15
0.266862 0.111872 0.037143 255 125 0 45 15
0.240018 0.157724 0.129914 255 125 0 45 15
0.211782 0.097141 0.083143 255 125 0 45 15
0.261263 0.113140 0.091143 255 125 0 45 15
0.238531 0.099138 0.123143 255 125 0 45 15
0.208713 0.115615 0.117143 255 125 0 45 15
0.216292 0.105497 0.109143 255 125 0 45 15
0.236620 0.098545 0.107143 255 125 0 45 15
0.246101 0.101723 0.065143 255 125 0 45 15
0.232052 0.089680 0.085143 255 125 0 45 15
0.212514 0.110560 0.089143 255 125 0 45 15
0.208788 0.099787 0.065143 255 125 0 45 15
0.206550 0.102237 0.043143 255 125 0 45 15
0.231077 0.089898 0.119143 255 125 0 45 15
0.265652 0.111467 0.081143 255 125 0 45 15
0.208705 0.140919 0.095143 255 125 0 45 15
0.257787 0.104618 0.130656 255 125 0 45 15
0.217579 0.093274 0.045143 255 125 0 45 15
0.202243 0.138258 0.113143 255 125 0 45 15
0.256518 0.108411 0.124261 255 125 0 45 15
0.228814 0.121875 0.137143 255 125 0 45 15
0.197625 0.124559 0.109143 255 125 0 45 15
0.226762 0.090187 0.127143 255 125 0 45 15
0.267883 0.124868 0.036662 255 125 0 45 15
0.245765 0.109032 0.130942 255 125 0 45 15
0.200473 0.136056 0.077143 255 125 0 45 15
0.234371 0.117873 0.136544 255 125 0 45 15
0.257611 0.098840 0.053143 255 125 0 45 15
0.203003 0.141121 0.039143 255 125 0 45 15
0.264741 0.109045 0.053143 255 125 0 45 15
0.254188 0.097087 0.083143 255 125 0 45 15
0.266606 0.134985 0.124203 255 125 0 45 15
0.234335 0.149495 0.128602 255 125 0 45 15
0.256861 0.107383 0.093143 255 125 0 45 15
0.215749 0.158039 0.127143 255 125 0 45 15
0.267607 0.118448 0.041143 255 125 0 45 15
0.262029 0.104546 0.089143 255 125 0 45 15
0.264089 0.123598 0.124151 255 125 0 45 15
0.222119 0.091457 0.113143 255 125 0 45 15
0.210617 0.144745 0.105143 255 125 0 45 15
0.198831 0.127071 0.045143 255 125 0 45 15
0.262332 0.135664 0.131143 255 125 0 45 15
0.213166 0.137127 0.127143 255 125 0 45 15
0.218548 0.127342 0.130713 255 125 0 45 15
0.235318 0.089831 0.109143 255 125 0 45 15
0.251182 0.093972 0.111143 255 125 0 45 15
0.199815 0.112637 0.061143 255 125 0 45 15
0.251426 0.136234 0.126203 255 125 0 45 15
0.270616 0.125782 0.129143 255 125 0 45 15
0.225522 0.112803 0.126223 255 125 0 45 15
0.243819 0.152669 0.131215 255 125 0 45 15
0.199289 0.116679 0.111143 255 125 0 45 15
0.243096 0.091795 0.069143 255 125 0 45 15
0.202516 0.109323 0.041143 255 125 0 45 15
0.232178 0.111822 0.133143 255 125 0 45 15
0.234079 0.099836 0.113143 255 125 0 45 15
0.203141 0.107424 0.055143 255 125 0 45 15
0.197815 0.124623 0.083143 255 125 0 45 15
0.206320 0.102160 0.121143 255 125 0 45 15
0.265762 0.122049 0.049143 255 125 0 45 15
0.230912 0.099844 0.061143 255 125 0 45 15
0.206817 0.121307 0.125143 255 125 0 45 15
0.249898 0.102981 0.073143 255 125 0 45 15
0.236620 0.098544 0.057143 255 125 0 45 15
0.238519 0.099171 0.079143 255 125 0 45 15
0.245031 0.092317 0.053143 255 125 0 45 15
0.206800 0.127629 0.053143 255 125 0 45 15
0.207467 0.125743 0.075143 255 125 0 45 15
0.206783 0.127623 0.041143 255 125 0 45 15
0.246101 0.101725 0.097143 255 125 0 45 15
0.209300 0.113703 0.069143 255 125 0 45 15
0.206170 0.129526 0.083143 255 125 0 45 15
0.234736 0.097873 0.071143 255 125 0 45 15
0.215683 0.107402 0.097143 255 125 0 45 15
0.238827 0.091948 0.036709 255 125 0 45 15
0.206810 0.121305 0.065143 255 125 0 45 15
0.217302 0.112161 0.126164 255 125 0 45 15
0.216283 0.105493 0.121143 255 125 0 45 15
0.241007 0.110645 0.127143 255 125 0 45 15
0.246385 0.119784 0.130613 255 125 0 45 15
0.205921 0.108353 0.130579 255 125 0 45 15
0.263455 0.125495 0.130843 255 125 0 45 15
0.202252 0.138760 0.095143 255 125 0 45 15
0.213424 0.096101 0.071143 255 125 0 45 15
0.225735 0.114983 0.133143 255 125 0 45 15
0.264424 0.109993 0.101143 255 125 0 45 15
0.226471 0.100467 0.115143 255 125 0 45 15
0.217936 0.110265 0.132518 255 125 0 45 15
0.214398 0.152353 0.107143 255 125 0 45 15
0.251419 0.142558 0.126185 255 125 0 45 15
0.266310 0.123267 0.075143 255 125 0 45 15
0.260539 0.149827 0.129143 255 125 0 45 15
0.222105 0.091498 0.105143 255 125 0 45 15
0.262350 0.106144 0.061143 255 125 0 45 15
0.220481 0.096354 0.036559 255 125 0 45 15
0.211767 0.097185 0.111143 255 125 0 45 15
0.243384 0.090933 0.099143 255 125 0 45 15
0.218541 0.133666 0.130306 255 125 0 45 15
0.241400 0.090563 0.043143 255 125 0 45 15
0.262521 0.115678 0.051143 255 125 0 45 15
0.220814 0.101663 0.089143 255 125 0 45 15
0.242890 0.146031 0.127143 255 125 0 45 15
0.246986 0.092778 0.127143 255 125 0 45 15
0.206793 0.133953 0.107143 255 125 0 45 15
0.212837 0.144412 0.126145 255 125 0 45 15
0.208694 0.140917 0.075143 255 125 0 45 15
-0.259587 0.043597 0.093143 255 255 0 45 16
-0.317410 0.090350 0.141143 255 255 0 45 16
-0.316778 0.088464 0.049143 255 255 0 45 16
-0.294182 0.033535 0.143143 255 255 0 45 16
-0.263985 0.100864 0.114151 255 255 0 45 16
-0.297426 0.030623 0.048770 255 255 0 45 16
-0.258630 0.081565 0.049143 255 255 0 45 16
-0.322827 0.053758 0.095143 255 255 0 45 16
-0.256283 0.061261 0.139143 255 255 0 45 16
-0.259371 0.042951 0.051143 255 255 0 45 16
-0.294631 0.028576 0.103143 255 255 0 45 16
-0.259811 0.079061 0.085143 255 255 0 45 16
-0.320793 0.054439 0.131143 255 255 0 45 16
-0.322399 0.053901 0.059143 255 255 0 45 16
-0.282309 0.086296 0.141653 255 255 0 45 16
-0.318004 0.085824 0.107143 255 255 0 45 16
-0.268310 0.034037 0.123143 255 255 0 45 16
-0.294980 0.105255 0.120334 255 255 0 45 16
-0.280053 0.029126 0.075143 255 255 0 45 16
-0.320413 0.077765 0.077143 255 255 0 45 16
-0.309260 0.034478 0.077143 255 255 0 45 16
-0.259807 0.066409 0.111143 255 255 0 45 16
-0.295383 0.062339 0.141143 255 255 0 45 16
-0.252943 0.058160 0.071143 255 255 0 45 16
-0.257978 0.086001 0.137143 255 255 0 45 16
-0.309817 0.034912 0.121143 255 255 0 45 16
-0.275942 0.048355 0.141131 255 255 0 45 16
-0.309810 0.051787 0.041143 255 255 0 45 16
-0.324458 0.065867 0.113143 255 255 0 45 16
-0.279728 0.040762 0.042151 255 255 0 45 16
-0.297798 0.101070 0.141143 255 255 0 45 16
-0.277501 0.040409 0.105143 255 255 0 45 16
-0.289512 0.038488 0.123143 255 255 0 45 16
-0.262522 0.039762 0.073143 255 255 0 45 16
-0.322129 0.070863 0.143143 255 255 0 45 16
-0.253061 0.062338 0.051143 255 255 0 45 16
-0.312024 0.036433 0.097143 255 255 0 45 16
-0.320870 0.069176 0.046293 255 255 0 45 16
-0.275027 0.067642 0.137143 255 255 0 45 16
-0.256547 0.047117 0.113143 255 255 0 45 16
-0.252997 0.062360 0.093143 255 255 0 45 16
-0.314869 0.054311 0.077143 255 255 0 45 16
-0.316783 0.078979 0.125143 255 255 0 45 16
-0.305368 0.044837 0.059143 255 255 0 45 16
-0.311682 0.051160 0.111143 255 255 0 45 16
-0.300308 0.080274 0.137143 255 255 0 45 16
-0.292698 0.038532 0.087143 255 255 0 45 16
-0.310088 0.043257 0.142453 255 255 0 45 16
-0.274430 0.031232 0.057143 255 255 0 45 16
-0.256954 0.075799 0.067143 255 255 0 45 16
-0.322665 0.072793 0.095143 255 255 0 45 16
-0.260170 0.083159 0.117680 255 255 0 45 16
-0.308250 0.094489 0.126667 255 255 0 45 16
-0.278855 0.097997 0.123143 255 255 0 45 16
-0.289524 0.038524 0.063143 255 255 0 45 16
-0.275604 0.041043 0.087143 255 255 0 45 16
-0.266133 0.053747 0.127143 255 255 0 45 16
-0.270668 0.098627 0.139143 255 255 0 45 16
-0.279087 0.032541 0.136348 255 255 0 45 16
-0.323174 0.069758 0.063143 255 255 0 45 16
-0.253831 0.070517 0.125304 255 255 0 45 16
-0.258569 0.078374 0.101143 255 255 0 45 16
-0.262317 0.055023 0.083143 255 255 0 45 16
-0.264227 0.051161 0.063143 255 255 0 45 16
-0.311372 0.059700 0.141889 255 255 0 45 16
-0.299677 0.040414 0.111143 255 255 0 45 16
-0.279996 0.028959 0.095143 255 255 0 45 16
-0.279960 0.028849 0.115143 255 255 0 45 16
-0.292722 0.048080 0.137143 255 255 0 45 16
-0.295872 0.029033 0.073143 255 255 0 45 16
-0.307564 0.048320 0.128176 255 255 0 45 16
-0.262074 0.088849 0.074220 255 255 0 45 16
-0.317995 0.085794 0.089143 255 255 0 45 16
-0.310588 0.038444 0.047143 255 255 0 45 16
-0.306607 0.045459 0.087143 255 255 0 45 16
-0.317648 0.042837 0.067143 255 255 0 45 16
-0.266767 0.052447 0.043143 255 255 0 45 16
-0.323689 0.064014 0.083143 255 255 0 45 16
-0.264750 0.041556 0.135143 255 255 0 45 16
-0.262317 0.055023 0.101143 255 255 0 45 16
-0.283908 0.103679 0.139143 255 255 0 45 16
-0.287688 0.073952 0.137143 255 255 0 45 16
-0.263322 0.073668 0.142149 255 255 0 45 16
-0.275589 0.040998 0.067143 255 255 0 45 16
-0.264274 0.037497 0.107143 255 255 0 45 16
-0.253362 0.056509 0.123143 255 255 0 45 16
-0.299616 0.030867 0.129143 255 255 0 45 16
-0.318988 0.082460 0.061747 255 255 0 45 16
-0.302398 0.031068 0.061143 255 255 0 45 16
-0.319060 0.044474 0.121143 255 255 0 45 16
-0.253299 0.068586 0.079143 255 255 0 45 16
-0.293318 0.040433 0.041143 255 255 0 45 16
-0.322571 0.067958 0.129143 255 255 0 45 16
-0.276239 0.042941 0.129143 255 255 0 45 16
-0.269463 0.085720 0.143143 255 255 0 45 16
-0.284580 0.030051 0.049143 255 255 0 45 16
-0.268641 0.045444 0.117143 255 255 0 45 16
-0.272447 0.044213 0.055143 255 255 0 45 16
-0.322465 0.089732 0.129143 255 255 0 45 16
-0.312021 0.074245 0.136079 255 255 0 45 16
-0.267391 0.092133 0.123143 255 255 0 45 16
-0.302700 0.030967 0.089143 255 255 0 45 16
-0.259521 0.068613 0.042207 255 255 0 45 16
-0.294630 0.028570 0.117143 255 255 0 45 16
-0.317410 0.061898 0.103143 255 255 0 45 16
-0.319321 0.045635 0.085143 255 255 0 45 16
-0.320856 0.056527 0.046912 255 255 0 45 16
-0.283543 0.058467 0.140546 255 255 0 45 16
-0.305083 0.091329 0.143593 255 255 0 45 16
-0.324021 0.059685 0.070262 255 255 0 45 16
-0.262031 0.050901 0.142735 255 255 0 45 16
-0.299680 0.040414 0.097143 255 255 0 45 16
-0.319180 0.045215 0.103143 255 255 0 45 16
-0.300904 0.041019 0.071143 255 255 0 45 16
-0.292434 0.091344 0.136177 255 255 0 45 16
-0.264001 0.037882 0.061143 255 255 0 45 16
-0.316790 0.059997 0.121143 255 255 0 45 16
-0.259830 0.063232 0.061143 255 255 0 45 16
-0.269126 0.034290 0.095143 255 255 0 45 16
-0.311778 0.036365 0.109143 255 255 0 45 16
-0.258005 0.045174 0.125143 255 255 0 45 16
-0.268341 0.038245 0.044853 255 255 0 45 16
-0.287632 0.039170 0.099143 255 255 0 45 16
-0.288285 0.037899 0.075143 255 255 0 45 16
-0.323027 0.053692 0.113143 255 255 0 45 16
-0.286156 0.028457 0.085143 255 255 0 45 16
-0.318682 0.044600 0.053143 255 255 0 45 16
-0.288286 0.037898 0.111143 255 255 0 45 16
-0.263638 0.077781 0.131143 255 255 0 45 16
-0.261719 0.087790 0.095143 255 255 0 45 16
-0.284141 0.028741 0.126373 255 255 0 45 16
-0.284008 0.028343 0.063143 255 255 0 45 16
-0.274423 0.106847 0.117143 255 255 0 45 16
-0.302509 0.052120 0.141414 255 255 0 45 16
-0.270282 0.033378 0.079143 255 255 0 45 16
-0.254209 0.052736 0.057143 255 255 0 45 16
-0.311684 0.051160 0.097143 255 255 0 45 16
-0.319384 0.073892 0.107143 255 255 0 45 16
-0.308732 0.037384 0.133143 255 255 0 45 16
-0.322781 0.081190 0.138145 255 255 0 45 16
-0.268640 0.045444 0.099143 255 255 0 45 16
-0.284570 0.108739 0.121143 255 255 0 45 16
-0.269300 0.047413 0.077143 255 255 0 45 16
-0.269383 0.056878 0.137143 255 255 0 45 16
-0.253197 0.068620 0.102675 255 255 0 45 16
-0.253817 0.057868 0.107443 255 255 0 45 16
-0.262982 0.056909 0.117143 255 255 0 45 16
-0.279407 0.039802 0.119143 255 255 0 45 16
-0.286053 0.040755 0.141725 255 255 0 45 16
-0.275649 0.078995 0.137143 255 255 0 45 16
-0.255155 0.072183 0.055143 255 255 0 45 16
-0.256130 0.048658 0.075143 255 255 0 45 16
-0.301233 0.042002 0.122165 255 255 0 45 16
-0.318047 0.063794 0.055143 255 255 0 45 16
-0.272201 0.037175 0.143143 255 255 0 45 16
-0.284129 0.028702 0.105143 255 255 0 45 16
-0.297135 0.039156 0.055143 255 255 0 45 16
-0.255226 0.076377 0.111143 255 255 0 45 16
-0.261594 0.065811 0.131143 255 255 0 45 16
-0.311545 0.036443 0.061143 255 255 0 45 16
-0.318725 0.078330 0.051143 255 255 0 45 16
-0.256780 0.052658 0.133143 255 255 0 45 16
-0.259833 0.066400 0.071143 255 255 0 45 16
-0.303793 0.068563 0.141751 255 255 0 45 16
-0.313456 0.084836 0.133143 255 255 0 45 16
-0.317541 0.051309 0.141143 255 255 0 45 16
-0.254143 0.052541 0.089143 255 255 0 45 16
-0.311686 0.051159 0.065143 255 255 0 45 16
-0.281296 0.039144 0.053143 255 255 0 45 16
-0.254331 0.072459 0.091143 255 255 0 45 16
-0.316156 0.058100 0.087143 255 255 0 45 16
-0.261013 0.041555 0.083143 255 255 0 45 16
-0.253022 0.070787 0.141143 255 255 0 45 16
-0.257979 0.045095 0.103143 255 255 0 45 16
-0.296708 0.097810 0.127143 255 255 0 45 16
-0.312395 0.081666 0.143143 255 255 0 45 16
-0.264874 0.053097 0.053143 255 255 0 45 16
-0.277508 0.040429 0.077143 255 255 0 45 16
-0.292374 0.028131 0.093143 255 255 0 45 16
-0.307922 0.046091 0.077143 255 255 0 45 16
-0.302184 0.044847 0.043143 255 255 0 45 16
-0.263617 0.055642 0.073143 255 255 0 45 16
-0.257610 0.056598 0.044212 255 255 0 45 16
-0.316887 0.085271 0.117143 255 255 0 45 16
-0.272702 0.032371 0.109143 255 255 0 45 16
-0.321603 0.075257 0.117143 255 255 0 45 16
-0.316607 0.045295 0.133143 255 255 0 45 16
-0.279158 0.095786 0.143667 255 255 0 45 16
-0.312255 0.037126 0.087143 255 255 0 45 16
-0.304032 0.031459 0.113143 255 255 0 45 16
-0.314538 0.062858 0.132157 255 255 0 45 16
-0.292470 0.028419 0.057143 255 255 0 45 16
-0.303983 0.031312 0.101143 255 255 0 45 16
-0.274407 0.031163 0.067143 255 255 0 45 16
-0.289057 0.030824 0.135143 255 255 0 45 16
-0.267395 0.048026 0.089143 255 255 0 45 16
-0.266138 0.050571 0.109143 255 255 0 45 16
-0.322661 0.061923 0.139143 255 255 0 45 16
-0.311688 0.051159 0.051143 255 255 0 45 16
-0.299336 0.042638 0.141861 255 255 0 45 16
-0.291793 0.083123 0.141420 255 255 0 45 16
-0.319382 0.067565 0.075143 255 255 0 45 16
-0.306607 0.045459 0.105143 255 255 0 45 16
-0.322808 0.049757 0.071143 255 255 0 45 16
-0.319928 0.072664 0.085143 255 255 0 45 16
-0.256370 0.078103 0.076340 255 255 0 45 16
-0.294567 0.040989 0.131143 255 255 0 45 16
-0.299668 0.040417 0.081143 255 255 0 45 16
-0.324354 0.063793 0.097143 255 255 0 45 16
-0.253347 0.060134 0.083143 255 255 0 45 16
-0.318988 0.082460 0.098475 255 255 0 45 16
-0.289911 0.096407 0.143593 255 255 0 45 16
-0.309131 0.046700 0.119143 255 255 0 45 16
-0.314898 0.060629 0.041143 255 255 0 45 16
-0.274490 0.031414 0.087143 255 255 0 45 16
-0.253065 0.064446 0.117143 255 255 0 45 16
-0.306575 0.032758 0.053143 255 255 0 45 16
-0.315779 0.041354 0.077482 255 255 0 45 16
-0.303151 0.060341 0.136685 255 255 0 45 16
-0.311098 0.096697 0.139143 255 255 0 45 16
-0.296059 0.028971 0.083143 255 255 0 45 16
-0.265970 0.064346 0.141143 255 255 0 45 16
-0.317047 0.045147 0.044190 255 255 0 45 16
-0.288649 0.098937 0.123127 255 255 0 45 16
-0.265239 0.092008 0.136182 255 255 0 45 16
-0.289523 0.038522 0.049143 255 255 0 45 16
-0.271499 0.035079 0.131545 255 255 0 45 16
-0.283875 0.049919 0.137143 255 255 0 45 16
-0.272042 0.098167 0.117143 255 255 0 45 16
-0.257961 0.045041 0.061143 255 255 0 45 16
-0.279395 0.039765 0.095143 255 255 0 45 16
-0.262312 0.039136 0.117143 255 255 0 45 16
-0.316750 0.060010 0.065143 255 255 0 45 16
-0.323421 0.055669 0.079143 255 255 0 45 16
-0.267351 0.035286 0.053143 255 255 0 45 16
-0.317726 0.084991 0.070009 255 255 0 45 16
-0.276263 0.030406 0.123143 255 255 0 45 16
-0.274390 0.091055 0.137143 255 255 0 45 16
-0.253182 0.055971 0.099019 255 255 0 45 16
-0.296206 0.071101 0.138446 255 255 0 45 16
-0.317721 0.042813 0.093143 255 255 0 45 16
-0.313010 0.054934 0.127143 255 255 0 45 16
-0.300638 0.033922 0.137143 255 255 0 45 16
-0.285068 0.037810 0.083143 255 255 0 45 16
-0.306568 0.032736 0.069143 255 255 0 45 16
-0.317992 0.085788 0.079143 255 255 0 45 16
-0.258551 0.065712 0.087143 255 255 0 45 16
-0.259810 0.063175 0.123143 255 255 0 45 16
-0.284468 0.042322 0.133143 255 255 0 45 16
-0.273074 0.046088 0.043143 255 255 0 45 16
-0.275265 0.033726 0.047143 255 255 0 45 16
-0.305711 0.086902 0.136183 255 255 0 45 16
-0.259823 0.063215 0.103143 255 255 0 45 16
-0.260804 0.085056 0.125990 255 255 0 45 16
-0.317495 0.042888 0.111143 255 255 0 45 16
-0.261014 0.057569 0.093143 255 255 0 45 16
-0.314358 0.039720 0.127143 255 255 0 45 16
-0.253526 0.079055 0.139143 255 255 0 45 16
-0.287978 0.065419 0.138436 255 255 0 45 16
-0.255706 0.050909 0.067001 255 255 0 45 16
-0.253550 0.068502 0.063143 255 255 0 45 16
-0.318775 0.065659 0.091143 255 255 0 45 16
-0.309782 0.054950 0.135143 255 255 0 45 16
-0.325483 0.067633 0.053143 255 255 0 45 16
-0.269919 0.049265 0.133143 255 255 0 45 16
-0.321461 0.075305 0.069143 255 255 0 45 16
-0.255476 0.050221 0.049143 255 255 0 45 16
-0.293944 0.039128 0.105143 255 255 0 45 16
-0.268348 0.044570 0.142015 255 255 0 45 16
-0.291179 0.100199 0.136175 255 255 0 45 16
-0.257639 0.081897 0.057390 255 255 0 45 16
-0.292485 0.028465 0.125143 255 255 0 45 16
-0.301738 0.030906 0.121143 255 255 0 45 16
-0.274396 0.031132 0.101143 255 255 0 45 16
-0.268635 0.045427 0.069143 255 255 0 45 16
-0.324399 0.063777 0.121143 255 255 0 45 16
-0.324400 0.061668 0.061143 255 255 0 45 16
