ply
format ascii 1.0
element vertex 1112
property float x
property float y
property float z
property uchar red
property uchar green
property uchar blue
property uchar semantic_label
property uchar instance_label
end_header
0.018419 -0.129392 0.045350 0 255 0 60 13
-0.021009 -0.050410 0.044363 0 255 0 60 13
-0.087301 -0.049152 0.045350 0 255 0 60 13
-0.063679 -0.169033 0.046434 0 255 0 60 13
0.068655 -0.096153 0.046441 0 255 0 60 13
-0.081735 -0.102987 0.046418 0 255 0 60 13
-0.137494 -0.181599 0.043350 0 255 0 60 13
-0.048733 -0.179334 0.043350 0 255 0 60 13
-0.159544 -0.155995 0.040619 0 255 0 60 13
-0.082915 -0.084051 0.046389 0 255 0 60 13
-0.104849 -0.077813 0.046407 0 255 0 60 13
0.004969 -0.152082 0.046381 0 255 0 60 13
-0.100091 -0.057554 0.045350 0 255 0 60 13
-0.003235 -0.142455 0.044359 0 255 0 60 13
-0.185693 -0.112633 0.044968 0 255 0 60 13
0.073270 -0.083503 0.045350 0 255 0 60 13
0.032130 -0.059141 0.046438 0 255 0 60 13
-0.005819 -0.039959 0.046415 0 255 0 60 13
-0.020860 -0.093492 0.044379 0 255 0 60 13
-0.019093 -0.015124 0.045350 0 255 0 60 13
-0.075069 -0.154221 0.045350 0 255 0 60 13
-0.060775 -0.042749 0.053610 0 255 0 60 13
-0.034403 -0.150733 0.054735 0 255 0 60 13
0.076850 -0.099313 0.043350 0 255 0 60 13
-0.032917 -0.007766 0.039350 0 255 0 60 13
-0.045959 -0.138146 0.054686 0 255 0 60 13
-0.026721 -0.009577 0.046414 0 255 0 60 13
0.027540 -0.127863 0.038427 0 255 0 60 13
-0.051147 -0.034546 0.046442 0 255 0 60 13
-0.113223 -0.126495 0.054665 0 255 0 60 13
-0.049892 -0.075022 0.053537 0 255 0 60 13
-0.120321 -0.114263 0.054368 0 255 0 60 13
-0.062853 -0.187095 0.043350 0 255 0 60 13
-0.074731 -0.195068 0.054692 0 255 0 60 13
0.007459 -0.115533 0.045350 0 255 0 60 13
-0.027348 -0.106898 0.045350 0 255 0 60 13
-0.136016 -0.193945 0.053350 0 255 0 60 13
-0.017970 -0.135466 0.045350 0 255 0 60 13
-0.011680 -0.153586 0.043350 0 255 0 60 13
-0.009242 -0.071542 0.045350 0 255 0 60 13
-0.164362 -0.151470 0.053350 0 255 0 60 13
-0.028086 -0.043572 0.045350 0 255 0 60 13
0.006040 -0.082624 0.045350 0 255 0 60 13
-0.093593 -0.217789 0.044352 0 255 0 60 13
-0.047140 -0.119209 0.053522 0 255 0 60 13
-0.039491 -0.074072 0.045350 0 255 0 60 13
-0.147781 -0.121043 0.054606 0 255 0 60 13
0.041246 -0.102912 0.053350 0 255 0 60 13
0.061912 -0.079463 0.054031 0 255 0 60 13
-0.064409 -0.065788 0.053957 0 255 0 60 13
-0.074860 -0.050597 0.053581 0 255 0 60 13
0.058167 -0.070191 0.053546 0 255 0 60 13
-0.103876 -0.144290 0.054566 0 255 0 60 13
-0.016928 -0.156615 0.053432 0 255 0 60 13
0.013362 -0.002011 0.046439 0 255 0 60 13
-0.138079 -0.134380 0.054768 0 255 0 60 13
-0.070497 -0.130802 0.054616 0 255 0 60 13
0.008641 -0.139814 0.054179 0 255 0 60 13
0.044230 -0.121121 0.053887 0 255 0 60 13
0.012800 -0.054007 0.053573 0 255 0 60 13
0.038836 -0.065059 0.054115 0 255 0 60 13
0.028496 -0.082179 0.053691 0 255 0 60 13
0.067438 -0.066446 0.046400 0 255 0 60 13
-0.072914 -0.183549 0.054735 0 255 0 60 13
0.077572 -0.096864 0.053932 0 255 0 60 13
-0.117063 -0.197072 0.053928 0 255 0 60 13
-0.147462 -0.105815 0.046391 0 255 0 60 13
-0.048900 -0.040108 0.054103 0 255 0 60 13
-0.072240 -0.163863 0.054636 0 255 0 60 13
-0.094248 -0.136085 0.046404 0 255 0 60 13
-0.036987 -0.048237 0.046460 0 255 0 60 13
-0.086325 -0.171711 0.054636 0 255 0 60 13
-0.067613 -0.105910 0.046392 0 255 0 60 13
-0.101177 -0.065544 0.054725 0 255 0 60 13
-0.012262 -0.109431 0.044387 0 255 0 60 13
-0.055269 -0.131121 0.046409 0 255 0 60 13
0.047321 -0.048688 0.046424 0 255 0 60 13
-0.086418 -0.038010 0.046439 0 255 0 60 13
-0.007822 0.002373 0.046429 0 255 0 60 13
-0.062442 -0.097350 0.054084 0 255 0 60 13
-0.031482 -0.136610 0.046396 0 255 0 60 13
0.027184 -0.132322 0.054040 0 255 0 60 13
-0.080940 -0.206396 0.045350 0 255 0 60 13
-0.020056 -0.164887 0.045350 0 255 0 60 13
-0.018968 -0.103512 0.054114 0 255 0 60 13
-0.121782 -0.121324 0.046396 0 255 0 60 13
0.042826 -0.037563 0.046422 0 255 0 60 13
-0.142330 -0.086485 0.046388 0 255 0 60 13
-0.064579 -0.124098 0.046409 0 255 0 60 13
-0.174922 -0.112596 0.044419 0 255 0 60 13
-0.133413 -0.087197 0.054703 0 255 0 60 13
-0.005106 -0.031043 0.046430 0 255 0 60 13
0.050749 -0.073188 0.046422 0 255 0 60 13
-0.117650 -0.214567 0.039350 0 255 0 60 13
0.026916 -0.008860 0.053350 0 255 0 60 13
-0.047757 -0.048276 0.046392 0 255 0 60 13
0.022922 -0.006776 0.045350 0 255 0 60 13
-0.036350 -0.017781 0.046444 0 255 0 60 13
-0.035077 -0.170419 0.038429 0 255 0 60 13
0.063944 -0.108841 0.053350 0 255 0 60 13
-0.057760 -0.162327 0.046433 0 255 0 60 13
0.046784 -0.106087 0.045350 0 255 0 60 13
-0.022938 -0.029619 0.046460 0 255 0 60 13
-0.059553 -0.179245 0.045350 0 255 0 60 13
-0.002546 -0.128141 0.045350 0 255 0 60 13
-0.085725 -0.130485 0.046389 0 255 0 60 13
-0.052366 -0.060923 0.045350 0 255 0 60 13
-0.153906 -0.175287 0.046425 0 255 0 60 13
0.011642 -0.040464 0.045350 0 255 0 60 13
0.005402 -0.062389 0.045350 0 255 0 60 13
-0.048096 -0.164894 0.044353 0 255 0 60 13
0.005814 -0.074087 0.044355 0 255 0 60 13
-0.031331 -0.123607 0.045350 0 255 0 60 13
-0.029197 -0.088873 0.053350 0 255 0 60 13
-0.046856 -0.149293 0.045350 0 255 0 60 13
0.008955 -0.017796 0.047350 0 255 0 60 13
-0.000331 -0.016171 0.046423 0 255 0 60 13
-0.120508 -0.060412 0.044357 0 255 0 60 13
0.066849 -0.107699 0.045350 0 255 0 60 13
-0.071939 -0.036474 0.046431 0 255 0 60 13
0.020254 -0.061781 0.053772 0 255 0 60 13
-0.084094 -0.065113 0.046402 0 255 0 60 13
0.037330 -0.117438 0.045350 0 255 0 60 13
0.044362 -0.052041 0.053682 0 255 0 60 13
0.061515 -0.049424 0.049350 0 255 0 60 13
-0.019828 -0.069348 0.046469 0 255 0 60 13
0.044867 -0.090665 0.046461 0 255 0 60 13
-0.050435 -0.025629 0.053661 0 255 0 60 13
0.026061 -0.022764 0.046421 0 255 0 60 13
-0.110412 -0.080061 0.054418 0 255 0 60 13
-0.003777 -0.093061 0.046431 0 255 0 60 13
-0.001153 0.007225 0.053712 0 255 0 60 13
-0.117775 -0.205988 0.044424 0 255 0 60 13
0.024282 -0.045054 0.054665 0 255 0 60 13
-0.103839 -0.155059 0.046392 0 255 0 60 13
-0.018199 -0.003976 0.053932 0 255 0 60 13
0.019336 -0.118236 0.054112 0 255 0 60 13
0.026604 -0.072158 0.054054 0 255 0 60 13
-0.031536 -0.013679 0.054166 0 255 0 60 13
-0.141862 -0.114338 0.054657 0 255 0 60 13
-0.035170 -0.036718 0.053848 0 255 0 60 13
-0.094810 -0.188082 0.054422 0 255 0 60 13
-0.129837 -0.154778 0.044398 0 255 0 60 13
0.011227 -0.028758 0.046415 0 255 0 60 13
0.029095 -0.040952 0.046444 0 255 0 60 13
-0.075780 -0.107052 0.054549 0 255 0 60 13
-0.098819 -0.103418 0.046412 0 255 0 60 13
-0.135119 -0.131027 0.046457 0 255 0 60 13
-0.046746 -0.125522 0.046430 0 255 0 60 13
0.050585 -0.040751 0.051350 0 255 0 60 13
-0.168267 -0.142263 0.041350 0 255 0 60 13
0.005270 -0.024693 0.055402 0 255 0 60 13
-0.184998 -0.120980 0.043350 0 255 0 60 13
-0.092655 -0.059944 0.054590 0 255 0 60 13
0.060733 -0.060526 0.042785 0 255 0 60 13
-0.102173 -0.217910 0.039350 0 255 0 60 13
-0.100636 -0.114937 0.054570 0 255 0 60 13
0.022933 -0.084427 0.046404 0 255 0 60 13
0.047078 -0.085457 0.055072 0 255 0 60 13
0.079032 -0.089803 0.045122 0 255 0 60 13
0.021265 -0.139027 0.045487 0 255 0 60 13
-0.149842 -0.169332 0.038487 0 255 0 60 13
0.007609 -0.131602 0.053350 0 255 0 60 13
0.034565 -0.118555 0.054670 0 255 0 60 13
-0.010988 -0.048519 0.053686 0 255 0 60 13
0.042582 -0.074331 0.054615 0 255 0 60 13
-0.004059 -0.119060 0.053705 0 255 0 60 13
0.051067 -0.057960 0.046453 0 255 0 60 13
-0.088068 -0.204771 0.054333 0 255 0 60 13
0.018943 -0.111924 0.046450 0 255 0 60 13
-0.173105 -0.101076 0.053635 0 255 0 60 13
-0.026928 -0.057116 0.054209 0 255 0 60 13
0.023364 -0.101509 0.046433 0 255 0 60 13
0.006806 -0.039173 0.054076 0 255 0 60 13
0.007386 -0.099336 0.046446 0 255 0 60 13
-0.029999 -0.028158 0.053813 0 255 0 60 13
-0.018368 -0.062286 0.053458 0 255 0 60 13
0.032454 -0.099994 0.045350 0 255 0 60 13
-0.095577 -0.074066 0.054744 0 255 0 60 13
-0.014060 -0.019561 0.053407 0 255 0 60 13
0.000382 -0.007256 0.053509 0 255 0 60 13
0.032449 -0.043911 0.054226 0 255 0 60 13
-0.086438 -0.139400 0.054903 0 255 0 60 13
0.008193 -0.010570 0.054267 0 255 0 60 13
0.014373 -0.079256 0.054119 0 255 0 60 13
-0.092506 -0.103025 0.054350 0 255 0 60 13
-0.129369 -0.182631 0.044370 0 255 0 60 13
-0.129556 -0.128780 0.055030 0 255 0 60 13
-0.018819 -0.146594 0.053649 0 255 0 60 13
-0.024813 -0.131759 0.054280 0 255 0 60 13
0.023008 -0.105967 0.053761 0 255 0 60 13
-0.002991 -0.105685 0.054061 0 255 0 60 13
0.000925 -0.056648 0.053754 0 255 0 60 13
-0.028952 -0.116175 0.053799 0 255 0 60 13
-0.046635 -0.157832 0.054333 0 255 0 60 13
-0.111181 -0.179597 0.054950 0 255 0 60 13
0.049250 -0.069480 0.054073 0 255 0 60 13
-0.046204 -0.174914 0.054771 0 255 0 60 13
-0.052628 -0.142997 0.054532 0 255 0 60 13
-0.014228 -0.077870 0.053717 0 255 0 60 13
-0.116070 -0.162158 0.055018 0 255 0 60 13
0.035765 -0.036101 0.053714 0 255 0 60 13
-0.065252 -0.143784 0.044368 0 255 0 60 13
0.019431 -0.038386 0.055031 0 255 0 60 13
0.007779 -0.105649 0.054127 0 255 0 60 13
-0.002785 -0.058147 0.046418 0 255 0 60 13
0.057135 -0.094336 0.053842 0 255 0 60 13
-0.057198 -0.110331 0.046401 0 255 0 60 13
-0.087766 -0.077382 0.054287 0 255 0 60 13
0.008772 -0.070734 0.053842 0 255 0 60 13
-0.000818 -0.089709 0.053699 0 255 0 60 13
-0.113823 -0.167721 0.044356 0 255 0 60 13
-0.040753 -0.140356 0.046429 0 255 0 60 13
-0.073643 -0.080304 0.046411 0 255 0 60 13
-0.037062 -0.026698 0.046395 0 255 0 60 13
0.060488 -0.097295 0.046495 0 255 0 60 13
-0.114890 -0.181095 0.044446 0 255 0 60 13
-0.039254 -0.144065 0.054769 0 255 0 60 13
-0.089865 -0.114900 0.046384 0 255 0 60 13
-0.129369 -0.182631 0.053827 0 255 0 60 13
-0.138041 -0.145151 0.054417 0 255 0 60 13
-0.050922 -0.099167 0.044360 0 255 0 60 13
-0.155985 -0.111415 0.044357 0 255 0 60 13
-0.139296 -0.104673 0.046400 0 255 0 60 13
-0.113728 -0.087871 0.046375 0 255 0 60 13
-0.088835 -0.090756 0.046398 0 255 0 60 13
-0.144354 -0.145544 0.044362 0 255 0 60 13
-0.099249 -0.086336 0.046408 0 255 0 60 13
-0.031705 -0.071988 0.053999 0 255 0 60 13
-0.063117 -0.117036 0.054679 0 255 0 60 13
-0.119646 -0.094577 0.054605 0 255 0 60 13
-0.112174 -0.214511 0.053905 0 255 0 60 13
-0.116012 -0.071538 0.046437 0 255 0 60 13
0.033273 -0.067307 0.046443 0 255 0 60 13
-0.038336 -0.087610 0.053747 0 255 0 60 13
-0.080105 -0.037617 0.053619 0 255 0 60 13
-0.126915 -0.140655 0.046390 0 255 0 60 13
0.040053 -0.094766 0.053544 0 255 0 60 13
-0.175634 -0.121512 0.044417 0 255 0 60 13
0.059005 -0.109640 0.039350 0 255 0 60 13
-0.128227 -0.190798 0.044390 0 255 0 60 13
-0.099280 -0.048884 0.051350 0 255 0 60 13
-0.166194 -0.150214 0.045350 0 255 0 60 13
-0.116649 -0.101995 0.046459 0 255 0 60 13
-0.068867 -0.065432 0.046453 0 255 0 60 13
0.022854 -0.095244 0.053350 0 255 0 60 13
-0.120555 -0.156396 0.045350 0 255 0 60 13
-0.100374 -0.190329 0.044351 0 255 0 60 13
-0.029138 -0.062323 0.046419 0 255 0 60 13
0.036083 -0.020873 0.052233 0 255 0 60 13
-0.084397 -0.192502 0.046431 0 255 0 60 13
-0.044180 -0.171940 0.045350 0 255 0 60 13
-0.112697 -0.223895 0.045350 0 255 0 60 13
-0.040434 -0.125128 0.053634 0 255 0 60 13
-0.064965 -0.085427 0.053350 0 255 0 60 13
-0.167929 -0.108547 0.053350 0 255 0 60 13
-0.008576 -0.157555 0.053350 0 255 0 60 13
-0.004295 -0.110526 0.045350 0 255 0 60 13
-0.026986 -0.147736 0.054012 0 255 0 60 13
0.038890 -0.027820 0.045350 0 255 0 60 13
-0.130193 -0.159236 0.053575 0 255 0 60 13
0.006094 -0.048088 0.053492 0 255 0 60 13
-0.076416 -0.137509 0.054673 0 255 0 60 13
-0.043018 -0.022632 0.054093 0 255 0 60 13
-0.033972 -0.167816 0.054469 0 255 0 60 13
-0.016982 -0.033684 0.054183 0 255 0 60 13
-0.037343 -0.052695 0.053524 0 255 0 60 13
-0.063772 -0.035332 0.053764 0 255 0 60 13
-0.023257 -0.044848 0.053791 0 255 0 60 13
0.020854 -0.020554 0.054040 0 255 0 60 13
-0.091513 -0.068110 0.046381 0 255 0 60 13
-0.073437 -0.032766 0.053946 0 255 0 60 13
-0.080406 -0.165005 0.054765 0 255 0 60 13
-0.103950 -0.122748 0.046404 0 255 0 60 13
-0.123393 -0.085305 0.046427 0 255 0 60 13
0.014506 -0.010177 0.046403 0 255 0 60 13
0.044399 -0.062811 0.046460 0 255 0 60 13
0.002593 -0.002048 0.046418 0 255 0 60 13
-0.017019 -0.022914 0.046402 0 255 0 60 13
-0.054557 -0.122206 0.054703 0 255 0 60 13
-0.083328 -0.179128 0.054706 0 255 0 60 13
-0.076677 -0.062117 0.046436 0 255 0 60 13
-0.074318 -0.099990 0.046398 0 255 0 60 13
-0.110357 -0.202991 0.044393 0 255 0 60 13
-0.104720 -0.222284 0.053584 0 255 0 60 13
0.012016 -0.137489 0.045350 0 255 0 60 13
-0.183482 -0.107425 0.053509 0 255 0 60 13
-0.146171 -0.157063 0.044406 0 255 0 60 13
-0.037137 -0.175999 0.045350 0 255 0 60 13
-0.133451 -0.076427 0.046428 0 255 0 60 13
0.066370 -0.079819 0.046468 0 255 0 60 13
0.036662 -0.081037 0.046436 0 255 0 60 13
0.000887 -0.045878 0.046456 0 255 0 60 13
0.024698 -0.056761 0.045350 0 255 0 60 13
0.021791 -0.076260 0.046448 0 255 0 60 13
-0.050774 -0.086164 0.045350 0 255 0 60 13
-0.151116 -0.123466 0.045350 0 255 0 60 13
-0.089997 -0.183980 0.044374 0 255 0 60 13
-0.112358 -0.053890 0.045350 0 255 0 60 13
-0.152744 -0.082064 0.044385 0 255 0 60 13
-0.129295 -0.204171 0.045266 0 255 0 60 13
-0.061358 -0.196136 0.046894 0 255 0 60 13
0.085411 -0.087226 0.049350 0 255 0 60 13
-0.155554 -0.128498 0.053981 0 255 0 60 13
0.043065 -0.123579 0.045350 0 255 0 60 13
-0.118509 -0.065358 0.053350 0 255 0 60 13
-0.171888 -0.130783 0.053944 0 255 0 60 13
-0.123505 -0.069010 0.045350 0 255 0 60 13
0.043931 -0.034958 0.053583 0 255 0 60 13
-0.108988 -0.062229 0.054548 0 255 0 60 13
0.060770 -0.071297 0.046428 0 255 0 60 13
-0.079366 -0.037319 0.041350 0 255 0 60 13
-0.010744 -0.011750 0.046403 0 255 0 60 13
-0.026684 -0.020348 0.054029 0 255 0 60 13
-0.132920 -0.197007 0.041350 0 255 0 60 13
0.034003 -0.127844 0.043350 0 255 0 60 13
0.022655 -0.002571 0.053350 0 255 0 60 13
-0.141357 -0.152961 0.053883 0 255 0 60 13
-0.129526 -0.070125 0.051350 0 255 0 60 13
-0.163084 -0.099184 0.046487 0 255 0 60 13
-0.036837 -0.091319 0.046485 0 255 0 60 13
-0.037512 -0.111005 0.046464 0 255 0 60 13
-0.040377 -0.034508 0.046465 0 255 0 60 13
-0.031312 -0.078300 0.046437 0 255 0 60 13
-0.068192 -0.045746 0.046429 0 255 0 60 13
-0.017545 -0.085681 0.046444 0 255 0 60 13
-0.010126 -0.082684 0.046440 0 255 0 60 13
-0.115752 -0.146930 0.046431 0 255 0 60 13
-0.012225 -0.120202 0.046428 0 255 0 60 13
-0.012300 -0.098661 0.046429 0 255 0 60 13
-0.106406 -0.164724 0.046426 0 255 0 60 13
-0.028091 -0.150340 0.046421 0 255 0 60 13
-0.101272 -0.145394 0.046397 0 255 0 60 13
-0.064536 -0.028101 0.041350 0 255 0 60 13
-0.075095 -0.194169 0.039350 0 255 0 60 13
-0.163482 -0.087520 0.045350 0 255 0 60 13
-0.107527 -0.055168 0.052806 0 255 0 60 13
-0.001223 -0.152773 0.053350 0 255 0 60 13
-0.069562 -0.186509 0.046434 0 255 0 60 13
0.009223 0.013573 0.046420 0 255 0 60 13
-0.123631 -0.212850 0.045350 0 255 0 60 13
0.043087 -0.112954 0.046439 0 255 0 60 13
-0.140372 -0.174134 0.043350 0 255 0 60 13
-0.050211 -0.090251 0.055650 0 255 0 60 13
-0.023951 -0.120625 0.045350 0 255 0 60 13
-0.045078 -0.102956 0.061350 0 255 0 60 13
-0.157531 -0.161653 0.053350 0 255 0 60 13
0.059449 -0.105401 0.045350 0 255 0 60 13
-0.039705 -0.121594 0.045350 0 255 0 60 13
-0.118949 -0.130965 0.045350 0 255 0 60 13
-0.184231 -0.105571 0.046445 0 255 0 60 13
-0.090278 -0.209978 0.040642 0 255 0 60 13
-0.080800 -0.158693 0.044361 0 255 0 60 13
-0.178201 -0.131176 0.045184 0 255 0 60 13
-0.113770 -0.061072 0.041350 0 255 0 60 13
-0.018347 -0.163780 0.053350 0 255 0 60 13
0.021715 -0.132374 0.039350 0 255 0 60 13
-0.091364 -0.111192 0.054417 0 255 0 60 13
-0.075348 -0.124134 0.055003 0 255 0 60 13
0.011169 -0.119378 0.054269 0 255 0 60 13
-0.128993 -0.076782 0.054378 0 255 0 60 13
0.000213 -0.065564 0.054142 0 255 0 60 13
-0.103764 -0.176600 0.054855 0 255 0 60 13
-0.015653 -0.095702 0.053576 0 255 0 60 13
-0.079526 -0.097780 0.055050 0 255 0 60 13
-0.036050 -0.103943 0.053539 0 255 0 60 13
-0.100841 -0.162477 0.054414 0 255 0 60 13
-0.056598 -0.069104 0.053636 0 255 0 60 13
-0.109588 -0.103455 0.054447 0 255 0 60 13
-0.064466 -0.156409 0.054542 0 255 0 60 13
0.010345 -0.095983 0.053667 0 255 0 60 13
-0.117474 -0.078600 0.054758 0 255 0 60 13
-0.157521 -0.096937 0.054950 0 255 0 60 13
-0.086869 -0.122318 0.054790 0 255 0 60 13
-0.140120 -0.081278 0.054097 0 255 0 60 13
-0.161547 -0.113663 0.054042 0 255 0 60 13
-0.024060 -0.077528 0.045350 0 255 0 60 13
-0.041895 -0.132190 0.054341 0 255 0 60 13
-0.011531 0.000875 0.053878 0 255 0 60 13
-0.012917 -0.027727 0.053559 0 255 0 60 13
-0.083271 -0.088509 0.054682 0 255 0 60 13
-0.014754 -0.140638 0.053416 0 255 0 60 13
-0.072670 -0.146780 0.054880 0 255 0 60 13
-0.063435 -0.132264 0.054417 0 255 0 60 13
-0.099099 -0.129416 0.054880 0 255 0 60 13
-0.053208 -0.082834 0.053684 0 255 0 60 13
-0.145645 -0.094295 0.054627 0 255 0 60 13
-0.161914 -0.091400 0.051350 0 255 0 60 13
0.001579 -0.138353 0.054370 0 255 0 60 13
0.016790 -0.026510 0.053699 0 255 0 60 13
-0.082278 -0.053595 0.053863 0 255 0 60 13
-0.039479 -0.079444 0.053387 0 255 0 60 13
0.030913 -0.029433 0.054055 0 255 0 60 13
0.005908 0.005763 0.053517 0 255 0 60 13
0.022540 -0.078114 0.053534 0 255 0 60 13
-0.156979 -0.146330 0.053829 0 255 0 60 13
-0.053340 -0.151914 0.054818 0 255 0 60 13
-0.068398 -0.093285 0.054654 0 255 0 60 13
0.040296 -0.057998 0.053776 0 255 0 60 13
-0.056018 -0.129267 0.054873 0 255 0 60 13
-0.068474 -0.071744 0.053818 0 255 0 60 13
-0.102639 -0.072605 0.054881 0 255 0 60 13
-0.105561 -0.086729 0.054706 0 255 0 60 13
-0.011589 -0.089746 0.053764 0 255 0 60 13
-0.087692 -0.098923 0.046384 0 255 0 60 13
-0.056262 -0.166036 0.054822 0 255 0 60 13
-0.108540 -0.191472 0.053661 0 255 0 60 13
0.054383 -0.050149 0.046415 0 255 0 60 13
-0.053713 -0.044210 0.046459 0 255 0 60 13
-0.145608 -0.105066 0.054517 0 255 0 60 13
-0.121558 -0.185946 0.053580 0 255 0 60 13
0.029994 -0.085888 0.046489 0 255 0 60 13
-0.029908 -0.161860 0.054608 0 255 0 60 13
-0.035526 -0.041176 0.046410 0 255 0 60 13
-0.150852 -0.092085 0.046417 0 255 0 60 13
-0.118524 -0.204134 0.053898 0 255 0 60 13
-0.169284 -0.131888 0.044370 0 255 0 60 13
-0.111761 -0.119433 0.054653 0 255 0 60 13
-0.132234 -0.106134 0.046414 0 255 0 60 13
-0.110300 -0.112371 0.046402 0 255 0 60 13
0.007949 -0.047339 0.046431 0 255 0 60 13
-0.064727 -0.081016 0.046406 0 255 0 60 13
-0.045604 -0.133688 0.046406 0 255 0 60 13
-0.127457 -0.091261 0.046441 0 255 0 60 13
-0.090465 -0.156127 0.054628 0 255 0 60 13
-0.083197 -0.110049 0.046440 0 255 0 60 13
-0.061730 -0.088434 0.046409 0 255 0 60 13
-0.003645 -0.023981 0.046407 0 255 0 60 13
-0.056730 -0.138183 0.046407 0 255 0 60 13
0.025350 -0.031681 0.046390 0 255 0 60 13
-0.014304 -0.056329 0.053593 0 255 0 60 13
-0.125698 -0.170363 0.044397 0 255 0 60 13
-0.013724 -0.116493 0.053691 0 255 0 60 13
0.052172 -0.055357 0.053920 0 255 0 60 13
-0.161866 -0.128892 0.044357 0 255 0 60 13
-0.147743 -0.131814 0.044378 0 255 0 60 13
-0.092786 -0.129023 0.046415 0 255 0 60 13
0.010945 -0.054757 0.046425 0 255 0 60 13
-0.051242 -0.114395 0.046437 0 255 0 60 13
-0.012879 -0.038497 0.046417 0 255 0 60 13
-0.104401 -0.207056 0.044401 0 255 0 60 13
-0.105337 -0.151350 0.054536 0 255 0 60 13
-0.101910 -0.175851 0.044357 0 255 0 60 13
-0.112585 -0.096039 0.046418 0 255 0 60 13
0.048257 -0.104394 0.054010 0 255 0 60 13
0.070273 -0.073462 0.045350 0 255 0 60 13
-0.157913 -0.090624 0.038540 0 255 0 60 13
-0.108411 -0.218486 0.043350 0 255 0 60 13
0.069031 -0.097084 0.039350 0 255 0 60 13
-0.185045 -0.123156 0.051350 0 255 0 60 13
-0.048341 -0.188721 0.047350 0 255 0 60 13
0.067793 -0.061988 0.051961 0 255 0 60 13
0.020031 0.002841 0.046363 0 255 0 60 13
-0.157596 -0.142265 0.045350 0 255 0 60 13
0.010211 -0.108981 0.045350 0 255 0 60 13
-0.151995 -0.083919 0.051886 0 255 0 60 13
-0.093797 -0.051777 0.046396 0 255 0 60 13
-0.090294 -0.153901 0.045350 0 255 0 60 13
-0.136374 -0.090550 0.046405 0 255 0 60 13
-0.172187 -0.100705 0.039350 0 255 0 60 13
-0.093031 -0.165792 0.046410 0 255 0 60 13
-0.070152 -0.171648 0.045350 0 255 0 60 13
-0.194979 -0.111002 0.047350 0 255 0 60 13
0.000136 -0.100109 0.045350 0 255 0 60 13
0.051891 -0.081355 0.046389 0 255 0 60 13
-0.099754 -0.047712 0.044352 0 255 0 60 13
-0.152737 -0.168345 0.045350 0 255 0 60 13
-0.043150 -0.091712 0.056543 0 255 0 60 13
0.032337 -0.011600 0.046418 0 255 0 60 13
0.054738 -0.115095 0.043350 0 255 0 60 13
0.027211 -0.127048 0.045350 0 255 0 60 13
-0.089032 -0.042216 0.051350 0 255 0 60 13
-0.024345 -0.159612 0.044355 0 255 0 60 13
-0.045424 -0.182184 0.053350 0 255 0 60 13
0.048782 -0.041627 0.044804 0 255 0 60 13
-0.085772 -0.210454 0.051350 0 255 0 60 13
-0.032474 -0.166187 0.043350 0 255 0 60 13
-0.142218 -0.118795 0.046405 0 255 0 60 13
0.011057 -0.087068 0.046443 0 255 0 60 13
0.030830 -0.114651 0.045350 0 255 0 60 13
-0.084919 -0.199185 0.045350 0 255 0 60 13
0.021698 -0.049337 0.045350 0 255 0 60 13
-0.033822 -0.104118 0.045350 0 255 0 60 13
-0.080481 -0.143465 0.044365 0 255 0 60 13
0.057847 -0.112113 0.053350 0 255 0 60 13
-0.020446 0.001586 0.038404 0 255 0 60 13
-0.089369 -0.046719 0.039350 0 255 0 60 13
-0.143848 -0.184166 0.046771 0 255 0 60 13
-0.086213 -0.204022 0.038391 0 255 0 60 13
-0.145683 -0.083525 0.038400 0 255 0 60 13
0.053299 -0.108828 0.045350 0 255 0 60 13
0.008993 -0.146024 0.051350 0 255 0 60 13
-0.135305 -0.077176 0.038453 0 255 0 60 13
-0.097641 -0.218450 0.051350 0 255 0 60 13
0.019637 0.009153 0.050206 0 255 0 60 13
-0.174603 -0.097367 0.046464 0 255 0 60 13
0.077496 -0.075324 0.050202 0 255 0 60 13
0.045392 -0.027897 0.050183 0 255 0 60 13
-0.040902 -0.097275 0.060003 0 255 0 60 13
-0.118843 -0.219362 0.053592 0 255 0 60 13
0.015553 -0.098194 0.046454 0 255 0 60 13
-0.168965 -0.116660 0.044382 0 255 0 60 13
-0.063341 -0.052414 0.046451 0 255 0 60 13
0.038087 -0.063205 0.044356 0 255 0 60 13
-0.015053 -0.054475 0.046438 0 255 0 60 13
-0.002316 -0.085999 0.046438 0 255 0 60 13
-0.026779 -0.100197 0.046428 0 255 0 60 13
-0.152313 -0.099147 0.046425 0 255 0 60 13
-0.087898 -0.146462 0.046427 0 255 0 60 13
-0.006849 -0.064102 0.046428 0 255 0 60 13
-0.081511 -0.167609 0.046418 0 255 0 60 13
-0.064877 -0.037935 0.046416 0 255 0 60 13
-0.064073 -0.162721 0.044355 0 255 0 60 13
-0.068568 -0.151595 0.044357 0 255 0 60 13
-0.077016 -0.178736 0.046419 0 255 0 60 13
0.000755 -0.114958 0.046432 0 255 0 60 13
-0.037699 -0.057154 0.046409 0 255 0 60 13
-0.058154 -0.156015 0.044359 0 255 0 60 13
-0.018575 -0.109824 0.046437 0 255 0 60 13
-0.130230 -0.148465 0.046449 0 255 0 60 13
0.032721 -0.127927 0.053350 0 255 0 60 13
0.013681 0.013218 0.051826 0 255 0 60 13
-0.057170 -0.190481 0.043350 0 255 0 60 13
-0.180149 -0.129807 0.051350 0 255 0 60 13
0.075799 -0.084638 0.039350 0 255 0 60 13
-0.176308 -0.141197 0.046366 0 255 0 60 13
-0.143116 -0.073860 0.048331 0 255 0 60 13
-0.146883 -0.165979 0.053523 0 255 0 60 13
-0.054788 -0.094938 0.055350 0 255 0 60 13
-0.136741 -0.192081 0.043350 0 255 0 60 13
-0.007299 -0.148411 0.044354 0 255 0 60 13
0.021584 -0.123799 0.046443 0 255 0 60 13
-0.158083 -0.148934 0.044380 0 255 0 60 13
-0.037331 -0.097990 0.045350 0 255 0 60 13
0.070116 -0.089091 0.046442 0 255 0 60 13
-0.122270 -0.194862 0.044373 0 255 0 60 13
0.009645 -0.139408 0.039350 0 255 0 60 13
-0.171190 -0.143188 0.051350 0 255 0 60 13
-0.016195 -0.046309 0.046433 0 255 0 60 13
-0.042841 -0.020404 0.045350 0 255 0 60 13
-0.026254 -0.037430 0.046453 0 255 0 60 13
-0.095523 -0.196998 0.044352 0 255 0 60 13
0.047488 -0.097151 0.045350 0 255 0 60 13
-0.002242 -0.051456 0.045350 0 255 0 60 13
-0.131542 -0.198608 0.053817 0 255 0 60 13
-0.163644 -0.105882 0.045350 0 255 0 60 13
-0.122858 -0.201571 0.043350 0 255 0 60 13
-0.131990 -0.069366 0.044355 0 255 0 60 13
-0.106381 -0.223510 0.047350 0 255 0 60 13
-0.105071 -0.181442 0.045350 0 255 0 60 13
-0.029627 -0.135861 0.055555 0 255 0 60 13
-0.081847 -0.070677 0.054259 0 255 0 60 13
0.071138 -0.102299 0.043350 0 255 0 60 13
-0.149449 -0.175644 0.051331 0 255 0 60 13
-0.067574 -0.196765 0.045350 0 255 0 60 13
-0.145116 -0.180365 0.053350 0 255 0 60 13
0.058484 -0.054963 0.052783 0 255 0 60 13
-0.103097 -0.053377 0.041350 0 255 0 60 13
-0.171768 -0.128578 0.039350 0 255 0 60 13
-0.049781 -0.107334 0.054287 0 255 0 60 13
-0.305279 0.100056 0.057350 255 255 0 66 14
-0.269050 0.173771 0.077350 255 255 0 66 14
-0.296408 0.027926 0.061350 255 255 0 66 14
-0.314277 0.146898 0.079350 255 255 0 66 14
-0.349540 0.092960 0.055350 255 255 0 66 14
-0.278303 0.137943 0.055350 255 255 0 66 14
-0.305466 0.063311 0.057350 255 255 0 66 14
-0.337629 0.124612 0.065350 255 255 0 66 14
-0.284269 0.147372 0.083690 255 255 0 66 14
-0.307234 0.129466 0.054528 255 255 0 66 14
-0.331547 0.072187 0.061640 255 255 0 66 14
-0.300415 0.123264 0.081350 255 255 0 66 14
-0.257767 0.153766 0.055350 255 255 0 66 14
-0.283088 0.050781 0.057350 255 255 0 66 14
-0.261069 0.150275 0.081350 255 255 0 66 14
-0.275428 0.168201 0.056390 255 255 0 66 14
-0.326517 0.107789 0.055350 255 255 0 66 14
-0.321843 0.128255 0.077350 255 255 0 66 14
-0.314637 0.081176 0.055350 255 255 0 66 14
-0.287304 0.165560 0.076420 255 255 0 66 14
-0.307777 0.042964 0.055350 255 255 0 66 14
-0.293148 0.137314 0.068354 255 255 0 66 14
-0.324558 0.137566 0.059350 255 255 0 66 14
-0.271623 0.137425 0.073350 255 255 0 66 14
-0.260472 0.136521 0.059350 255 255 0 66 14
-0.299891 0.154003 0.072476 255 255 0 66 14
-0.271660 0.153535 0.067350 255 255 0 66 14
-0.297805 0.084775 0.055350 255 255 0 66 14
-0.344278 0.109035 0.055350 255 255 0 66 14
-0.309698 0.143570 0.063350 255 255 0 66 14
-0.298354 0.139524 0.083771 255 255 0 66 14
-0.274286 0.160034 0.083847 255 255 0 66 14
-0.282029 0.035047 0.055350 255 255 0 66 14
-0.335993 0.085490 0.055350 255 255 0 66 14
-0.311603 0.113586 0.055350 255 255 0 66 14
-0.294311 0.044090 0.064754 255 255 0 66 14
-0.308923 0.128306 0.069350 255 255 0 66 14
-0.334046 0.110404 0.067350 255 255 0 66 14
-0.291817 0.131380 0.055350 255 255 0 66 14
-0.285063 0.133317 0.079350 255 255 0 66 14
-0.311335 0.134280 0.083488 255 255 0 66 14
-0.296203 0.054111 0.056325 255 255 0 66 14
-0.305193 0.076364 0.062888 255 255 0 66 14
-0.317537 0.101576 0.062405 255 255 0 66 14
-0.340181 0.098897 0.062359 255 255 0 66 14
-0.262410 0.162675 0.076408 255 255 0 66 14
-0.281251 0.145240 0.069350 255 255 0 66 14
-0.318173 0.071119 0.062455 255 255 0 66 14
-0.272034 0.149121 0.055350 255 255 0 66 14
-0.322797 0.119936 0.055350 255 255 0 66 14
-0.298746 0.124474 0.063350 255 255 0 66 14
-0.270142 0.166023 0.067350 255 255 0 66 14
-0.334669 0.117286 0.055350 255 255 0 66 14
-0.272001 0.143701 0.083690 255 255 0 66 14
-0.294590 0.153988 0.083350 255 255 0 66 14
-0.323979 0.138877 0.071350 255 255 0 66 14
-0.325808 0.127389 0.065350 255 255 0 66 14
-0.342711 0.078462 0.061745 255 255 0 66 14
-0.308583 0.090093 0.062143 255 255 0 66 14
-0.296143 0.037948 0.055350 255 255 0 66 14
-0.304667 0.139131 0.074355 255 255 0 66 14
-0.303939 0.035886 0.064163 255 255 0 66 14
-0.288708 0.142342 0.055350 255 255 0 66 14
-0.264151 0.145628 0.071350 255 255 0 66 14
-0.261906 0.158565 0.065350 255 255 0 66 14
-0.280954 0.155183 0.074367 255 255 0 66 14
-0.304460 0.053195 0.063350 255 255 0 66 14
-0.325461 0.081117 0.055350 255 255 0 66 14
-0.291686 0.144375 0.076435 255 255 0 66 14
-0.270859 0.135534 0.062642 255 255 0 66 14
-0.279686 0.170794 0.071350 255 255 0 66 14
-0.295327 0.127806 0.073350 255 255 0 66 14
-0.315793 0.134636 0.064668 255 255 0 66 14
-0.304530 0.149972 0.081350 255 255 0 66 14
-0.284342 0.041646 0.063350 255 255 0 66 14
-0.284307 0.158142 0.083987 255 255 0 66 14
-0.304130 0.135034 0.063350 255 255 0 66 14
-0.319427 0.111597 0.061598 255 255 0 66 14
-0.269452 0.158750 0.057350 255 255 0 66 14
-0.315917 0.143214 0.055350 255 255 0 66 14
-0.300218 0.071902 0.055350 255 255 0 66 14
-0.283535 0.134873 0.063350 255 255 0 66 14
-0.342749 0.089232 0.061881 255 255 0 66 14
-0.264584 0.146698 0.061201 255 255 0 66 14
-0.292688 0.128872 0.083350 255 255 0 66 14
-0.335711 0.103847 0.055350 255 255 0 66 14
-0.330985 0.124184 0.072867 255 255 0 66 14
-0.276791 0.169808 0.081350 255 255 0 66 14
-0.329776 0.118201 0.063350 255 255 0 66 14
-0.270184 0.155221 0.076418 255 255 0 66 14
-0.290258 0.156856 0.075350 255 255 0 66 14
-0.290565 0.034818 0.063865 255 255 0 66 14
-0.298466 0.094181 0.055350 255 255 0 66 14
-0.290603 0.045588 0.056368 255 255 0 66 14
-0.324906 0.071768 0.055350 255 255 0 66 14
-0.308339 0.126862 0.078327 255 255 0 66 14
-0.332475 0.133211 0.067350 255 255 0 66 14
-0.316543 0.136491 0.076444 255 255 0 66 14
-0.273589 0.163648 0.075350 255 255 0 66 14
-0.279417 0.146038 0.059350 255 255 0 66 14
-0.315082 0.143552 0.070350 255 255 0 66 14
-0.336439 0.076682 0.055350 255 255 0 66 14
-0.345764 0.083699 0.055350 255 255 0 66 14
-0.261998 0.154213 0.073350 255 255 0 66 14
-0.325347 0.104891 0.064513 255 255 0 66 14
-0.264781 0.157863 0.083350 255 255 0 66 14
-0.313908 0.090099 0.055350 255 255 0 66 14
-0.307444 0.148794 0.073350 255 255 0 66 14
-0.305891 0.080396 0.055350 255 255 0 66 14
-0.310618 0.106528 0.061350 255 255 0 66 14
-0.278490 0.138404 0.081350 255 255 0 66 14
-0.308021 0.142091 0.083964 255 255 0 66 14
-0.301671 0.131713 0.083404 255 255 0 66 14
-0.304462 0.109015 0.055350 255 255 0 66 14
-0.347608 0.101259 0.055350 255 255 0 66 14
-0.299518 0.046301 0.058509 255 255 0 66 14
-0.311354 0.136429 0.057350 255 255 0 66 14
-0.268367 0.166740 0.081916 255 255 0 66 14
-0.282165 0.136823 0.071350 255 255 0 66 14
-0.289440 0.138812 0.083849 255 255 0 66 14
-0.337082 0.093679 0.055350 255 255 0 66 14
-0.277601 0.152224 0.083836 255 255 0 66 14
-0.291304 0.031309 0.055350 255 255 0 66 14
-0.277957 0.147765 0.076409 255 255 0 66 14
-0.292225 0.129691 0.063350 255 255 0 66 14
-0.318010 0.105698 0.055350 255 255 0 66 14
-0.298377 0.126574 0.055350 255 255 0 66 14
-0.304187 0.055200 0.055350 255 255 0 66 14
-0.295364 0.137459 0.059350 255 255 0 66 14
-0.290995 0.051901 0.062038 255 255 0 66 14
-0.336955 0.117606 0.069350 255 255 0 66 14
-0.308207 0.070832 0.057350 255 255 0 66 14
-0.306859 0.125303 0.061350 255 255 0 66 14
-0.317622 0.128482 0.069350 255 255 0 66 14
-0.302867 0.123996 0.073350 255 255 0 66 14
-0.287363 0.141808 0.065350 255 255 0 66 14
-0.270780 0.144194 0.067350 255 255 0 66 14
-0.280937 0.043023 0.056423 255 255 0 66 14
-0.336511 0.111166 0.059950 255 255 0 66 14
-0.276884 0.139768 0.065350 255 255 0 66 14
-0.264546 0.135928 0.067162 255 255 0 66 14
-0.305630 0.088122 0.055350 255 255 0 66 14
-0.302043 0.132633 0.071350 255 255 0 66 14
-0.309725 0.098260 0.063278 255 255 0 66 14
-0.276544 0.170962 0.063350 255 255 0 66 14
-0.312716 0.100323 0.055350 255 255 0 66 14
-0.314886 0.073662 0.055350 255 255 0 66 14
-0.300603 0.145087 0.076466 255 255 0 66 14
-0.292437 0.146230 0.083656 255 255 0 66 14
-0.311898 0.082282 0.062230 255 255 0 66 14
-0.268686 0.151511 0.083578 255 255 0 66 14
-0.301284 0.088729 0.061350 255 255 0 66 14
-0.268530 0.145788 0.077350 255 255 0 66 14
-0.310605 0.137809 0.069350 255 255 0 66 14
-0.264977 0.153010 0.056586 255 255 0 66 14
-0.296713 0.159601 0.077350 255 255 0 66 14
-0.265930 0.135368 0.077350 255 255 0 66 14
-0.288957 0.132277 0.073350 255 255 0 66 14
-0.327964 0.114619 0.057350 255 255 0 66 14
-0.267846 0.160479 0.071350 255 255 0 66 14
-0.275342 0.151970 0.061350 255 255 0 66 14
-0.297605 0.137670 0.074364 255 255 0 66 14
-0.285018 0.149226 0.076405 255 255 0 66 14
-0.302143 0.034454 0.057350 255 255 0 66 14
-0.324130 0.075184 0.061552 255 255 0 66 14
-0.331706 0.104479 0.061350 255 255 0 66 14
-0.284435 0.134363 0.055350 255 255 0 66 14
-0.287981 0.039103 0.055350 255 255 0 66 14
-0.273542 0.163532 0.061350 255 255 0 66 14
-0.271839 0.143299 0.059350 255 255 0 66 14
-0.300191 0.133389 0.055350 255 255 0 66 14
-0.294314 0.150878 0.075350 255 255 0 66 14
-0.326211 0.132584 0.073350 255 255 0 66 14
-0.316187 0.140948 0.082429 255 255 0 66 14
-0.305905 0.067448 0.062987 255 255 0 66 14
-0.316899 0.132032 0.058362 255 255 0 66 14
-0.302478 0.042947 0.063652 255 255 0 66 14
-0.280605 0.164995 0.075350 255 255 0 66 14
-0.324314 0.134366 0.065350 255 255 0 66 14
-0.331350 0.078738 0.059350 255 255 0 66 14
-0.286479 0.142165 0.072363 255 255 0 66 14
-0.280242 0.164099 0.082488 255 255 0 66 14
-0.311407 0.132094 0.075350 255 255 0 66 14
-0.290739 0.159858 0.081350 255 255 0 66 14
-0.340693 0.105503 0.061350 255 255 0 66 14
-0.262374 0.151905 0.064895 255 255 0 66 14
-0.276852 0.150369 0.070362 255 255 0 66 14
-0.305230 0.060441 0.063350 255 255 0 66 14
-0.316223 0.141038 0.063350 255 255 0 66 14
-0.319316 0.079286 0.059922 255 255 0 66 14
-0.277242 0.140656 0.075350 255 255 0 66 14
-0.343431 0.096261 0.057350 255 255 0 66 14
-0.310571 0.130275 0.063350 255 255 0 66 14
-0.299630 0.078611 0.056264 255 255 0 66 14
-0.266044 0.139636 0.060528 255 255 0 66 14
-0.311453 0.075841 0.061350 255 255 0 66 14
-0.296877 0.034425 0.065076 255 255 0 66 14
-0.336714 0.119712 0.061350 255 255 0 66 14
-0.338472 0.073704 0.061350 255 255 0 66 14
-0.299356 0.131323 0.065350 255 255 0 66 14
-0.341933 0.089562 0.055350 255 255 0 66 14
-0.325740 0.111204 0.062215 255 255 0 66 14
-0.319642 0.128140 0.063350 255 255 0 66 14
-0.323317 0.126559 0.071350 255 255 0 66 14
-0.288371 0.152186 0.083868 255 255 0 66 14
-0.298749 0.145836 0.083882 255 255 0 66 14
-0.309094 0.094201 0.055350 255 255 0 66 14
-0.304723 0.123249 0.067350 255 255 0 66 14
-0.302495 0.155108 0.078280 255 255 0 66 14
-0.299814 0.065595 0.055350 255 255 0 66 14
-0.321684 0.111840 0.055350 255 255 0 66 14
-0.305735 0.125758 0.083962 255 255 0 66 14
-0.267467 0.160632 0.063350 255 255 0 66 14
-0.310451 0.145422 0.057350 255 255 0 66 14
-0.258384 0.158052 0.077350 255 255 0 66 14
-0.299522 0.059241 0.057350 255 255 0 66 14
-0.286309 0.047323 0.061350 255 255 0 66 14
-0.273788 0.169480 0.073350 255 255 0 66 14
-0.285057 0.159996 0.074351 255 255 0 66 14
-0.330985 0.124184 0.064523 255 255 0 66 14
-0.263119 0.159090 0.059350 255 255 0 66 14
-0.303770 0.094196 0.062365 255 255 0 66 14
-0.288157 0.132859 0.067350 255 255 0 66 14
-0.302694 0.081688 0.061350 255 255 0 66 14
-0.337147 0.080709 0.059835 255 255 0 66 14
-0.294254 0.134710 0.083446 255 255 0 66 14
-0.318367 0.144382 0.075350 255 255 0 66 14
-0.289140 0.052650 0.056359 255 255 0 66 14
-0.283876 0.141060 0.084200 255 255 0 66 14
-0.266044 0.139636 0.073039 255 255 0 66 14
-0.305773 0.136528 0.083768 255 255 0 66 14
-0.342003 0.103404 0.055350 255 255 0 66 14
-0.275391 0.157431 0.074358 255 255 0 66 14
-0.318303 0.116365 0.057350 255 255 0 66 14
-0.318438 0.137882 0.069350 255 255 0 66 14
-0.288408 0.136258 0.059350 255 255 0 66 14
-0.305244 0.039120 0.059350 255 255 0 66 14
-0.300877 0.041437 0.055350 255 255 0 66 14
-0.345213 0.083922 0.061350 255 255 0 66 14
-0.301300 0.030481 0.063350 255 255 0 66 14
-0.319332 0.084665 0.055350 255 255 0 66 14
-0.322241 0.106145 0.059350 255 255 0 66 14
-0.339473 0.113161 0.055350 255 255 0 66 14
-0.326259 0.069774 0.061350 255 255 0 66 14
-0.266512 0.167489 0.076477 255 255 0 66 14
-0.333581 0.109254 0.055350 255 255 0 66 14
-0.345745 0.096650 0.062565 255 255 0 66 14
-0.341254 0.080194 0.055350 255 255 0 66 14
-0.309717 0.143562 0.073350 255 255 0 66 14
-0.269435 0.153366 0.062133 255 255 0 66 14
-0.285885 0.033913 0.059350 255 255 0 66 14
-0.299028 0.125173 0.069350 255 255 0 66 14
-0.216841 -0.019521 0.200132 0 255 0 45 15
-0.165105 0.055309 0.048385 0 255 0 45 15
-0.233583 -0.026285 0.087350 0 255 0 45 15
-0.176232 0.066830 0.153350 0 255 0 45 15
-0.156942 -0.018282 0.133350 0 255 0 45 15
-0.235292 0.057150 0.095350 0 255 0 45 15
-0.240140 0.059505 0.206269 0 255 0 45 15
-0.142310 0.014905 0.205645 0 255 0 45 15
-0.163062 -0.023678 0.053350 0 255 0 45 15
-0.254204 0.014230 0.149350 0 255 0 45 15
-0.148246 0.036235 0.105350 0 255 0 45 15
-0.248649 0.019397 0.049350 0 255 0 45 15
-0.214316 -0.036447 0.143350 0 255 0 45 15
-0.183141 0.067436 0.209350 0 255 0 45 15
-0.230333 0.061923 0.151350 0 255 0 45 15
-0.166038 -0.027806 0.185350 0 255 0 45 15
-0.145868 0.026410 0.155350 0 255 0 45 15
-0.185906 -0.037355 0.097350 0 255 0 45 15
-0.255779 0.012203 0.207350 0 255 0 45 15
-0.192845 0.022530 0.192409 0 255 0 45 15
-0.223722 0.063981 0.049350 0 255 0 45 15
-0.254713 0.014791 0.101350 0 255 0 45 15
-0.208242 -0.035461 0.048577 0 255 0 45 15
-0.144913 0.016011 0.064491 0 255 0 45 15
-0.175163 0.064187 0.087631 0 255 0 45 15
-0.152749 -0.012646 0.093350 0 255 0 45 15
-0.154966 0.048619 0.187350 0 255 0 45 15
-0.240765 -0.018402 0.167350 0 255 0 45 15
-0.243819 -0.015322 0.125350 0 255 0 45 15
-0.241573 -0.017034 0.051350 0 255 0 45 15
-0.248738 0.038072 0.177350 0 255 0 45 15
-0.247815 0.041126 0.125350 0 255 0 45 15
-0.198342 -0.038610 0.175350 0 255 0 45 15
-0.174190 -0.002288 0.209063 0 255 0 45 15
-0.148880 -0.006205 0.165350 0 255 0 45 15
-0.188557 -0.036135 0.209331 0 255 0 45 15
-0.225550 0.028730 0.199839 0 255 0 45 15
-0.212325 0.070743 0.192364 0 255 0 45 15
-0.166729 0.056809 0.123350 0 255 0 45 15
-0.183881 -0.037030 0.131350 0 255 0 45 15
-0.144436 0.009733 0.123350 0 255 0 45 15
-0.214517 -0.035947 0.111350 0 255 0 45 15
-0.245223 0.045388 0.067350 0 255 0 45 15
-0.153623 0.044848 0.075350 0 255 0 45 15
-0.243877 0.001912 0.075350 0 255 0 45 15
-0.175588 -0.025520 0.157350 0 255 0 45 15
-0.245546 0.008816 0.179350 0 255 0 45 15
-0.185790 -0.037645 0.067350 0 255 0 45 15
-0.245402 -0.015961 0.205350 0 255 0 45 15
-0.167240 0.028561 0.203405 0 255 0 45 15
-0.225536 0.063248 0.123350 0 255 0 45 15
-0.209402 -0.037932 0.081350 0 255 0 45 15
-0.195167 0.049634 0.192421 0 255 0 45 15
-0.149365 -0.011673 0.203350 0 255 0 45 15
-0.190486 -0.015344 0.192365 0 255 0 45 15
-0.150573 0.022353 0.181350 0 255 0 45 15
-0.144719 0.013932 0.091350 0 255 0 45 15
-0.156545 0.050139 0.160490 0 255 0 45 15
-0.243652 0.038672 0.151350 0 255 0 45 15
-0.153309 0.034189 0.131350 0 255 0 45 15
-0.213955 0.005373 0.192405 0 255 0 45 15
-0.170756 -0.021466 0.111350 0 255 0 45 15
-0.223992 -0.033853 0.179350 0 255 0 45 15
-0.245740 0.011944 0.125350 0 255 0 45 15
-0.252517 0.037248 0.205350 0 255 0 45 15
-0.247061 -0.008788 0.099350 0 255 0 45 15
-0.156477 -0.005919 0.069350 0 255 0 45 15
-0.151534 0.034906 0.049350 0 255 0 45 15
-0.166060 -0.027750 0.079350 0 255 0 45 15
-0.172560 0.063082 0.178270 0 255 0 45 15
-0.249123 0.036462 0.091350 0 255 0 45 15
-0.229092 0.061813 0.177350 0 255 0 45 15
-0.226693 0.063593 0.073350 0 255 0 45 15
-0.223868 -0.026674 0.065350 0 255 0 45 15
-0.162502 0.054204 0.209447 0 255 0 45 15
-0.231181 -0.018844 0.145350 0 255 0 45 15
-0.152782 0.006360 0.145350 0 255 0 45 15
-0.166305 -0.027145 0.208649 0 255 0 45 15
-0.196873 0.005802 0.207905 0 255 0 45 15
-0.216708 0.049558 0.199991 0 255 0 45 15
-0.235496 0.005298 0.200326 0 255 0 45 15
-0.253154 0.022306 0.073350 0 255 0 45 15
-0.152293 0.002244 0.048444 0 255 0 45 15
-0.194227 -0.038117 0.153350 0 255 0 45 15
-0.160104 0.005559 0.192391 0 255 0 45 15
-0.147258 0.037831 0.205350 0 255 0 45 15
-0.160065 0.053511 0.099350 0 255 0 45 15
-0.233638 -0.025996 0.109350 0 255 0 45 15
-0.207146 -0.038178 0.195350 0 255 0 45 15
-0.248602 -0.006469 0.151350 0 255 0 45 15
-0.157267 -0.004080 0.113350 0 255 0 45 15
-0.234589 -0.015907 0.187350 0 255 0 45 15
-0.223125 -0.025321 0.127350 0 255 0 45 15
-0.174564 0.049330 0.193350 0 255 0 45 15
-0.169206 0.060122 0.067717 0 255 0 45 15
-0.181889 -0.031285 0.048493 0 255 0 45 15
-0.194866 -0.031197 0.115350 0 255 0 45 15
-0.183962 -0.036833 0.189350 0 255 0 45 15
-0.243877 0.023483 0.193350 0 255 0 45 15
-0.183499 0.004736 0.192397 0 255 0 45 15
-0.217902 -0.027570 0.161350 0 255 0 45 15
-0.239354 0.046880 0.048353 0 255 0 45 15
-0.236368 0.044830 0.193350 0 255 0 45 15
-0.161895 -0.011363 0.151350 0 255 0 45 15
-0.251080 0.001158 0.057036 0 255 0 45 15
-0.192639 0.070068 0.192379 0 255 0 45 15
-0.159090 0.053424 0.141350 0 255 0 45 15
-0.152793 -0.012537 0.183350 0 255 0 45 15
-0.202660 0.068177 0.209078 0 255 0 45 15
-0.245619 0.030353 0.109350 0 255 0 45 15
-0.241017 -0.018411 0.071350 0 255 0 45 15
-0.252824 0.022024 0.167350 0 255 0 45 15
-0.237476 0.054111 0.135350 0 255 0 45 15
-0.159780 -0.021939 0.167350 0 255 0 45 15
-0.236786 0.051200 0.113350 0 255 0 45 15
-0.185428 0.025526 0.209575 0 255 0 45 15
-0.208111 0.033619 0.192420 0 255 0 45 15
-0.237362 0.049842 0.165350 0 255 0 45 15
-0.175163 0.064187 0.108427 0 255 0 45 15
-0.169511 -0.011184 0.193350 0 255 0 45 15
-0.143916 0.012099 0.167350 0 255 0 45 15
-0.152088 0.026054 0.079350 0 255 0 45 15
-0.230926 -0.027369 0.209246 0 255 0 45 15
-0.151975 0.017472 0.108360 0 255 0 45 15
-0.252706 0.026386 0.135350 0 255 0 45 15
-0.229428 -0.031078 0.048323 0 255 0 45 15
-0.220847 0.065143 0.209222 0 255 0 45 15
-0.249290 -0.004589 0.191350 0 255 0 45 15
-0.160680 0.012324 0.209350 0 255 0 45 15
-0.202543 -0.031001 0.065350 0 255 0 45 15
-0.180001 -0.035958 0.171350 0 255 0 45 15
-0.216678 -0.028083 0.095350 0 255 0 45 15
-0.169394 -0.030174 0.139350 0 255 0 45 15
-0.171281 0.067913 0.195350 0 255 0 45 15
-0.150115 0.037636 0.171350 0 255 0 45 15
-0.202527 -0.030994 0.131350 0 255 0 45 15
-0.144860 0.003090 0.183350 0 255 0 45 15
-0.144517 0.020370 0.137350 0 255 0 45 15
-0.169264 -0.030498 0.096252 0 255 0 45 15
-0.252578 0.004867 0.163990 0 255 0 45 15
-0.249819 -0.002646 0.115350 0 255 0 45 15
-0.204253 -0.007964 0.199945 0 255 0 45 15
-0.154290 0.046735 0.117350 0 255 0 45 15
-0.250734 -0.000859 0.135350 0 255 0 45 15
-0.202722 -0.038448 0.099350 0 255 0 45 15
-0.193625 -0.031712 0.083350 0 255 0 45 15
-0.146387 0.000316 0.081350 0 255 0 45 15
-0.229014 0.064000 0.194413 0 255 0 45 15
-0.223635 0.064017 0.105350 0 255 0 45 15
-0.253909 0.010801 0.085350 0 255 0 45 15
-0.154674 0.037952 0.147350 0 255 0 45 15
-0.249531 0.034700 0.055350 0 255 0 45 15
-0.156168 -0.001479 0.131350 0 255 0 45 15
-0.146123 0.002579 0.103350 0 255 0 45 15
-0.211033 0.019495 0.200121 0 255 0 45 15
-0.180258 0.034087 0.194482 0 255 0 45 15
-0.147457 0.032985 0.065350 0 255 0 45 15
-0.148267 0.018970 0.048606 0 255 0 45 15
-0.215305 -0.034000 0.208799 0 255 0 45 15
-0.235504 0.057064 0.061350 0 255 0 45 15
-0.155206 0.048523 0.059350 0 255 0 45 15
-0.155474 0.039786 0.091350 0 255 0 45 15
-0.175586 -0.025529 0.063350 0 255 0 45 15
-0.237893 0.048602 0.081350 0 255 0 45 15
-0.175262 0.018849 0.193350 0 255 0 45 15
-0.248557 -0.006451 0.175350 0 255 0 45 15
-0.238694 -0.011094 0.085350 0 255 0 45 15
-0.179678 -0.026078 0.200409 0 255 0 45 15
-0.178380 -0.034627 0.115350 0 255 0 45 15
-0.155727 0.032099 0.193350 0 255 0 45 15
-0.162598 0.056322 0.081350 0 255 0 45 15
-0.223253 -0.032897 0.195350 0 255 0 45 15
-0.201969 -0.024298 0.200090 0 255 0 45 15
-0.145565 0.028303 0.119350 0 255 0 45 15
-0.222834 -0.004686 0.199960 0 255 0 45 15
-0.156804 -0.018992 0.117350 0 255 0 45 15
-0.226617 0.015356 0.192403 0 255 0 45 15
-0.151097 -0.011393 0.055350 0 255 0 45 15
-0.198727 0.005053 0.192364 0 255 0 45 15
-0.184855 -0.029281 0.145350 0 255 0 45 15
-0.249999 -0.001516 0.209350 0 255 0 45 15
-0.162453 -0.012646 0.081350 0 255 0 45 15
-0.194000 -0.038679 0.053350 0 255 0 45 15
-0.142031 0.025803 0.195350 0 255 0 45 15
-0.207216 -0.038004 0.161350 0 255 0 45 15
-0.170763 -0.021448 0.127350 0 255 0 45 15
-0.194382 0.037009 0.200104 0 255 0 45 15
-0.223652 0.064010 0.089350 0 255 0 45 15
-0.158233 -0.020429 0.067350 0 255 0 45 15
-0.219255 -0.026967 0.079350 0 255 0 45 15
-0.160647 0.054952 0.175268 0 255 0 45 15
-0.147750 0.001674 0.209350 0 255 0 45 15
-0.246528 0.013783 0.063350 0 255 0 45 15
-0.152159 0.026026 0.095350 0 255 0 45 15
-0.178343 -0.034720 0.083350 0 255 0 45 15
-0.179871 0.011771 0.205350 0 255 0 45 15
-0.253654 0.010904 0.191350 0 255 0 45 15
-0.241450 0.043876 0.101350 0 255 0 45 15
-0.235995 -0.012160 0.113350 0 255 0 45 15
-0.209572 -0.029527 0.177350 0 255 0 45 15
-0.171811 0.061228 0.136277 0 255 0 45 15
-0.245782 0.022713 0.087350 0 255 0 45 15
-0.245275 0.034841 0.077350 0 255 0 45 15
-0.145647 0.001810 0.061350 0 255 0 45 15
-0.150140 -0.008426 0.143350 0 255 0 45 15
-0.157996 -0.021016 0.195350 0 255 0 45 15
-0.240778 0.050404 0.179350 0 255 0 45 15
-0.159394 0.059772 0.195350 0 255 0 45 15
-0.162464 0.043433 0.199890 0 255 0 45 15
-0.194148 0.079141 0.203350 0 255 0 45 15
-0.253046 0.019779 0.115350 0 255 0 45 15
-0.233373 -0.026200 0.157350 0 255 0 45 15
-0.234585 -0.015905 0.099350 0 255 0 45 15
-0.240390 0.044305 0.207350 0 255 0 45 15
-0.252807 0.024189 0.181350 0 255 0 45 15
-0.191168 -0.029674 0.165350 0 255 0 45 15
-0.244711 -0.013524 0.139350 0 255 0 45 15
-0.244629 0.003765 0.093350 0 255 0 45 15
-0.257111 0.026764 0.197015 0 255 0 45 15
-0.226763 0.063767 0.137350 0 255 0 45 15
-0.228538 -0.019934 0.175350 0 255 0 45 15
-0.214235 -0.036647 0.125350 0 255 0 45 15
-0.248643 0.037837 0.191350 0 255 0 45 15
-0.158056 -0.020866 0.103350 0 255 0 45 15
-0.204477 0.056658 0.200146 0 255 0 45 15
-0.240148 -0.007367 0.061350 0 255 0 45 15
-0.154714 0.005579 0.173350 0 255 0 45 15
-0.201947 -0.029686 0.145350 0 255 0 45 15
-0.166533 0.056888 0.153350 0 255 0 45 15
-0.198075 -0.031353 0.187350 0 255 0 45 15
-0.249809 0.035387 0.163350 0 255 0 45 15
-0.241688 -0.003675 0.163350 0 255 0 45 15
-0.184791 0.055983 0.199832 0 255 0 45 15
-0.246611 0.024535 0.155350 0 255 0 45 15
-0.153517 0.023319 0.205350 0 255 0 45 15
-0.226825 -0.032183 0.146781 0 255 0 45 15
-0.171842 -0.024116 0.173350 0 255 0 45 15
-0.151962 0.012103 0.077350 0 255 0 45 15
-0.197451 0.020669 0.205350 0 255 0 45 15
-0.161565 -0.001502 0.203986 0 255 0 45 15
-0.214287 -0.036521 0.061350 0 255 0 45 15
-0.245539 0.008800 0.109350 0 255 0 45 15
-0.221129 0.039144 0.192354 0 255 0 45 15
-0.162901 -0.024889 0.151350 0 255 0 45 15
-0.232079 -0.014892 0.203350 0 255 0 45 15
-0.254710 0.012634 0.135350 0 255 0 45 15
-0.151992 0.022854 0.167350 0 255 0 45 15
-0.153385 0.004945 0.159350 0 255 0 45 15
-0.246506 0.043991 0.139350 0 255 0 45 15
-0.235116 -0.024748 0.133350 0 255 0 45 15
-0.201931 -0.035068 0.209283 0 255 0 45 15
-0.151585 0.016506 0.193350 0 255 0 45 15
-0.182713 -0.007889 0.200301 0 255 0 45 15
-0.239442 0.052439 0.149350 0 255 0 45 15
-0.150318 0.050498 0.203350 0 255 0 45 15
-0.249542 0.024046 0.207350 0 255 0 45 15
-0.144137 -0.001926 0.195350 0 255 0 45 15
-0.144628 0.004626 0.135350 0 255 0 45 15
-0.153929 0.003740 0.091350 0 255 0 45 15
-0.193895 -0.038940 0.139350 0 255 0 45 15
-0.236005 -0.012164 0.155350 0 255 0 45 15
-0.246724 0.027749 0.123350 0 255 0 45 15
-0.245454 0.005589 0.145350 0 255 0 45 15
-0.164859 -0.014708 0.179350 0 255 0 45 15
-0.181820 -0.036792 0.157350 0 255 0 45 15
-0.244577 0.054468 0.195350 0 255 0 45 15
-0.145109 0.013775 0.153350 0 255 0 45 15
-0.235443 -0.024880 0.059350 0 255 0 45 15
-0.170706 0.063831 0.207787 0 255 0 45 15
-0.150245 -0.009871 0.123350 0 255 0 45 15
-0.158515 0.047186 0.129350 0 255 0 45 15
-0.165593 -0.018230 0.092325 0 255 0 45 15
-0.210464 0.076814 0.203350 0 255 0 45 15
-0.233762 -0.025692 0.195350 0 255 0 45 15
-0.241629 -0.003651 0.049350 0 255 0 45 15
-0.162906 0.056197 0.111350 0 255 0 45 15
-0.194267 -0.038020 0.197350 0 255 0 45 15
-0.237818 0.032402 0.199861 0 255 0 45 15
-0.217919 -0.027528 0.053350 0 255 0 45 15
-0.214274 -0.009856 0.192388 0 255 0 45 15
-0.213464 -0.027878 0.189350 0 255 0 45 15
-0.148053 0.034461 0.183350 0 255 0 45 15
-0.242399 -0.001805 0.125350 0 255 0 45 15
-0.161401 -0.014378 0.205350 0 255 0 45 15
-0.188522 -0.030883 0.179350 0 255 0 45 15
-0.249331 -0.004606 0.085350 0 255 0 45 15
-0.221840 -0.025855 0.113350 0 255 0 45 15
-0.227872 0.055834 0.203709 0 255 0 45 15
-0.167815 -0.018066 0.141350 0 255 0 45 15
-0.227462 0.062470 0.163350 0 255 0 45 15
-0.160795 -0.008749 0.167350 0 255 0 45 15
-0.237313 -0.006222 0.194496 0 255 0 45 15
-0.151694 0.019742 0.127350 0 255 0 45 15
-0.205545 0.043284 0.199570 0 255 0 45 15
-0.172298 0.003705 0.197350 0 255 0 45 15
-0.231445 -0.027579 0.075350 0 255 0 45 15
-0.246453 0.043095 0.113350 0 255 0 45 15
-0.202766 -0.038341 0.121350 0 255 0 45 15
-0.163886 0.016973 0.197350 0 255 0 45 15
-0.146510 0.041250 0.193350 0 255 0 45 15
