ply
format ascii 1.0
element vertex 1096
property float x
property float y
property float z
property uchar red
property uchar green
property uchar blue
property uchar semantic_label
property uchar instance_label
end_header
-0.490794 0.074904 -0.021282 255 0 0 41 16
-0.405969 0.142299 0.066718 255 0 0 41 16
-0.498531 0.143074 0.146718 255 0 0 41 16
-0.554631 0.120709 -0.011282 255 0 0 41 16
-0.392298 0.098787 0.034718 255 0 0 41 16
-0.090946 0.223590 -0.021728 0 255 255 60 17
0.011859 0.268040 -0.025282 0 255 255 60 17
-0.145736 0.272291 -0.023282 0 255 255 60 17
-0.022201 0.206450 -0.023282 0 255 255 60 17
-0.054379 0.279312 -0.023282 0 255 255 60 17
-0.143556 0.219257 -0.033282 0 255 255 60 17
-0.099325 0.268965 -0.025282 0 255 255 60 17
-0.050461 0.237158 -0.027281 0 255 255 60 17
0.012645 0.226620 -0.023282 0 255 255 60 17
-0.023037 0.260251 -0.027281 0 255 255 60 17
-0.122973 0.243943 -0.021341 0 255 255 60 17
-0.063820 0.208376 -0.029282 0 255 255 60 17
-0.117057 0.209802 -0.023282 0 255 255 60 17
-0.072533 0.256102 -0.021659 0 255 255 60 17
-0.014311 0.233340 -0.026101 0 255 255 60 17
-0.121015 0.280557 -0.023282 0 255 255 60 17
-0.146745 0.247809 -0.026273 0 255 255 60 17
-0.097750 0.245899 -0.021212 0 255 255 60 17
-0.041463 0.215375 -0.032230 0 255 255 60 17
-0.077160 0.278881 -0.025282 0 255 255 60 17
0.000109 0.208503 -0.029282 0 255 255 60 17
0.003628 0.247419 -0.021795 0 255 255 60 17
-0.008398 0.277213 -0.023282 0 255 255 60 17
-0.044886 0.259514 -0.022279 0 255 255 60 17
-0.072034 0.233304 -0.026116 0 255 255 60 17
-0.033985 0.278435 -0.025282 0 255 255 60 17
-0.110352 0.228429 -0.026184 0 255 255 60 17
-0.128805 0.261886 -0.026189 0 255 255 60 17
-0.129753 0.225021 -0.020972 0 255 255 60 17
-0.032265 0.244000 -0.022662 0 255 255 60 17
-0.100305 0.210855 -0.031282 0 255 255 60 17
-0.082205 0.209044 -0.029447 0 255 255 60 17
-0.028857 0.224600 -0.021923 0 255 255 60 17
-0.111523 0.256796 -0.021282 0 255 255 60 17
-0.054564 0.220702 -0.022498 0 255 255 60 17
-0.145231 0.230942 -0.021282 0 255 255 60 17
-0.007537 0.260508 -0.022180 0 255 255 60 17
-0.002662 0.222191 -0.021300 0 255 255 60 17
-0.065265 0.268718 -0.028234 0 255 255 60 17
-0.014548 0.215851 -0.033282 0 255 255 60 17
-0.057237 0.251317 -0.027281 0 255 255 60 17
-0.088542 0.258032 -0.026162 0 255 255 60 17
-0.081742 0.243969 -0.020831 0 255 255 60 17
-0.131030 0.211630 -0.029282 0 255 255 60 17
-0.071540 0.218752 -0.021909 0 255 255 60 17
-0.016746 0.248375 -0.021585 0 255 255 60 17
0.007515 0.238204 -0.032207 0 255 255 60 17
-0.091229 0.280321 -0.023282 0 255 255 60 17
-0.141659 0.259936 -0.031282 0 255 255 60 17
-0.049558 0.207709 -0.023282 0 255 255 60 17
-0.021126 0.272142 -0.020720 0 255 255 60 17
-0.105533 0.280820 -0.022336 0 255 255 60 17
-0.134612 0.238600 -0.026168 0 255 255 60 17
0.014663 0.254973 -0.023282 0 255 255 60 17
-0.134638 0.279831 -0.022300 0 255 255 60 17
-0.036609 0.210042 -0.020662 0 255 255 60 17
-0.134641 0.250974 -0.021282 0 255 255 60 17
-0.037108 0.232840 -0.028247 0 255 255 60 17
-0.114742 0.268687 -0.026147 0 255 255 60 17
-0.120788 0.219638 -0.031282 0 255 255 60 17
-0.110846 0.242980 -0.026230 0 255 255 60 17
0.005100 0.220256 -0.032100 0 255 255 60 17
-0.009930 0.209575 -0.020717 0 255 255 60 17
-0.092287 0.209943 -0.021282 0 255 255 60 17
-0.105492 0.214850 -0.020234 0 255 255 60 17
-0.140169 0.216309 -0.021282 0 255 255 60 17
-0.067190 0.244463 -0.021869 0 255 255 60 17
-0.098713 0.233772 -0.026201 0 255 255 60 17
-0.027395 0.213929 -0.032227 0 255 255 60 17
-0.080192 0.266256 -0.021282 0 255 255 60 17
-0.043669 0.247865 -0.027281 0 255 255 60 17
0.015655 0.242359 -0.023282 0 255 255 60 17
-0.003156 0.236743 -0.021346 0 255 255 60 17
-0.015273 0.221212 -0.021923 0 255 255 60 17
0.006532 0.259062 -0.032250 0 255 255 60 17
-0.055531 0.216822 -0.034278 0 255 255 60 17
-0.084402 0.233299 -0.027281 0 255 255 60 17
-0.043830 0.272020 -0.021282 0 255 255 60 17
-0.033248 0.264857 -0.022027 0 255 255 60 17
-0.056046 0.264359 -0.021552 0 255 255 60 17
0.000737 0.268891 -0.019282 0 255 255 60 17
-0.141416 0.260909 -0.019207 0 255 255 60 17
-0.060391 0.230401 -0.028262 0 255 255 60 17
0.007335 0.215576 -0.021282 0 255 255 60 17
-0.072507 0.214870 -0.034246 0 255 255 60 17
-0.100285 0.256837 -0.025282 0 255 255 60 17
-0.121511 0.233272 -0.026241 0 255 255 60 17
-0.090456 0.217285 -0.032261 0 255 255 60 17
-0.041469 0.223621 -0.022468 0 255 255 60 17
-0.132421 0.222582 -0.033282 0 255 255 60 17
-0.025954 0.236243 -0.028233 0 255 255 60 17
-0.142369 0.232289 -0.032201 0 255 255 60 17
-0.110316 0.216052 -0.033282 0 255 255 60 17
-0.006558 0.247897 -0.026208 0 255 255 60 17
-0.126386 0.271590 -0.019709 0 255 255 60 17
-0.033727 0.254671 -0.025997 0 255 255 60 17
-0.118109 0.222118 -0.021022 0 255 255 60 17
-0.080758 0.223112 -0.026193 0 255 255 60 17
-0.121629 0.253914 -0.025282 0 255 255 60 17
-0.067211 0.277448 -0.022393 0 255 255 60 17
-0.101343 0.223226 -0.025282 0 255 255 60 17
-0.065174 0.210981 -0.019282 0 255 255 60 17
0.003692 0.257709 -0.021282 0 255 255 60 17
0.006547 0.234324 -0.019124 0 255 255 60 17
-0.142370 0.240549 -0.019282 0 255 255 60 17
0.007239 0.248579 -0.031282 0 255 255 60 17
-0.089552 0.270514 -0.021282 0 255 255 60 17
-0.080753 0.214865 -0.020359 0 255 255 60 17
-0.059912 0.240587 -0.028246 0 255 255 60 17
0.006759 0.276507 -0.023282 0 255 255 60 17
-0.125866 0.215807 -0.020340 0 255 255 60 17
-0.135117 0.269644 -0.026218 0 255 255 60 17
-0.090859 0.237997 -0.021282 0 255 255 60 17
-0.013869 0.206434 -0.029282 0 255 255 60 17
-0.063575 0.258967 -0.027281 0 255 255 60 17
-0.013848 0.268265 -0.026174 0 255 255 60 17
-0.048747 0.227497 -0.028242 0 255 255 60 17
-0.089020 0.247845 -0.026201 0 255 255 60 17
-0.027131 0.214986 -0.021282 0 255 255 60 17
-0.106475 0.235707 -0.020568 0 255 255 60 17
-0.079807 0.251731 -0.026212 0 255 255 60 17
-0.063540 0.217768 -0.027281 0 255 255 60 17
-0.074065 0.208625 -0.023282 0 255 255 60 17
-0.033263 0.206930 -0.029282 0 255 255 60 17
0.001214 0.229469 -0.026171 0 255 255 60 17
-0.006296 0.215879 -0.027281 0 255 255 60 17
-0.034673 0.217805 -0.026161 0 255 255 60 17
-0.052170 0.271637 -0.028254 0 255 255 60 17
-0.107212 0.265824 -0.021282 0 255 255 60 17
-0.137515 0.226956 -0.026214 0 255 255 60 17
-0.111350 0.274025 -0.019275 0 255 255 60 17
-0.052639 0.244958 -0.022341 0 255 255 60 17
-0.041479 0.240114 -0.022695 0 255 255 60 17
-0.025520 0.250564 -0.027281 0 255 255 60 17
-0.038102 0.270190 -0.028278 0 255 255 60 17
-0.014809 0.256139 -0.026087 0 255 255 60 17
-0.071442 0.268746 -0.021282 0 255 255 60 17
-0.145758 0.222827 -0.025282 0 255 255 60 17
-0.018437 0.241589 -0.027281 0 255 255 60 17
-0.065723 0.225547 -0.021822 0 255 255 60 17
-0.001199 0.211520 -0.020646 0 255 255 60 17
-0.116179 0.238126 -0.020946 0 255 255 60 17
-0.120147 0.263543 -0.021282 0 255 255 60 17
-0.108817 0.209785 -0.027281 0 255 255 60 17
-0.022100 0.222915 -0.027281 0 255 255 60 17
-0.007516 0.227523 -0.026226 0 255 255 60 17
-0.050225 0.262907 -0.028267 0 255 255 60 17
-0.060417 0.271632 -0.019653 0 255 255 60 17
-0.107212 0.249288 -0.021282 0 255 255 60 17
-0.024034 0.268744 -0.028251 0 255 255 60 17
-0.081978 0.218225 -0.033282 0 255 255 60 17
-0.065244 0.235733 -0.021453 0 255 255 60 17
-0.102348 0.219194 -0.033282 0 255 255 60 17
-0.007505 0.211031 -0.034208 0 255 255 60 17
-0.128239 0.234949 -0.021282 0 255 255 60 17
-0.144798 0.239079 -0.027714 0 255 255 60 17
-0.115700 0.248313 -0.021115 0 255 255 60 17
-0.048736 0.211005 -0.032036 0 255 255 60 17
-0.054085 0.230890 -0.022614 0 255 255 60 17
-0.041392 0.207393 -0.027281 0 255 255 60 17
-0.110599 0.219169 -0.025282 0 255 255 60 17
-0.049239 0.254416 -0.027281 0 255 255 60 17
-0.073980 0.242034 -0.026041 0 255 255 60 17
-0.047285 0.216827 -0.026260 0 255 255 60 17
-0.007542 0.268755 -0.020140 0 255 255 60 17
-0.094304 0.261530 -0.021282 0 255 255 60 17
0.001678 0.264395 -0.026207 0 255 255 60 17
-0.056983 0.211000 -0.020545 0 255 255 60 17
-0.075586 0.227325 -0.021282 0 255 255 60 17
-0.010434 0.240618 -0.022051 0 255 255 60 17
-0.045354 0.232835 -0.022395 0 255 255 60 17
-0.093875 0.253178 -0.021401 0 255 255 60 17
-0.029372 0.272136 -0.020854 0 255 255 60 17
-0.002683 0.255176 -0.026159 0 255 255 60 17
-0.090426 0.209141 -0.029282 0 255 255 60 17
-0.002693 0.271668 -0.026210 0 255 255 60 17
-0.112323 0.278389 -0.026245 0 255 255 60 17
-0.096763 0.216796 -0.021555 0 255 255 60 17
-0.083703 0.277438 -0.020603 0 255 255 60 17
-0.019643 0.228486 -0.021859 0 255 255 60 17
-0.136063 0.232778 -0.020651 0 255 255 60 17
-0.098255 0.276943 -0.026254 0 255 255 60 17
0.007832 0.227819 -0.031282 0 255 255 60 17
0.006068 0.224136 -0.019300 0 255 255 60 17
-0.143352 0.253147 -0.020315 0 255 255 60 17
-0.019149 0.213934 -0.021152 0 255 255 60 17
-0.129740 0.245630 -0.025282 0 255 255 60 17
-0.065255 0.252226 -0.022238 0 255 255 60 17
-0.138981 0.245873 -0.026242 0 255 255 60 17
-0.103083 0.241045 -0.026245 0 255 255 60 17
-0.123447 0.225510 -0.026183 0 255 255 60 17
-0.080296 0.258037 -0.021328 0 255 255 60 17
-0.032260 0.235754 -0.022614 0 255 255 60 17
-0.100693 0.209296 -0.023282 0 255 255 60 17
-0.127359 0.275954 -0.026261 0 255 255 60 17
-0.024503 0.242065 -0.022216 0 255 255 60 17
-0.136078 0.257517 -0.026218 0 255 255 60 17
-0.038345 0.260950 -0.027281 0 255 255 60 17
0.011392 0.235176 -0.025282 0 255 255 60 17
-0.138504 0.214721 -0.029282 0 255 255 60 17
-0.142860 0.267452 -0.029282 0 255 255 60 17
-0.055594 0.208305 -0.029282 0 255 255 60 17
-0.146741 0.260175 -0.025282 0 255 255 60 17
-0.074963 0.262891 -0.026098 0 255 255 60 17
-0.079493 0.236458 -0.021282 0 255 255 60 17
-0.128316 0.255582 -0.020724 0 255 255 60 17
-0.016042 0.275998 -0.025282 0 255 255 60 17
-0.086347 0.217231 -0.025282 0 255 255 60 17
-0.072045 0.249796 -0.026177 0 255 255 60 17
-0.017240 0.262927 -0.021692 0 255 255 60 17
-0.029830 0.228964 -0.028252 0 255 255 60 17
-0.122596 0.212387 -0.029282 0 255 255 60 17
-0.091435 0.229896 -0.026179 0 255 255 60 17
-0.020116 0.210053 -0.032051 0 255 255 60 17
0.000236 0.242081 -0.026193 0 255 255 60 17
-0.042243 0.278387 -0.025282 0 255 255 60 17
-0.021115 0.255649 -0.021468 0 255 255 60 17
-0.083496 0.228665 -0.021282 0 255 255 60 17
-0.066864 0.262308 -0.021282 0 255 255 60 17
-0.064261 0.214876 -0.034228 0 255 255 60 17
-0.129056 0.219547 -0.027281 0 255 255 60 17
-0.132943 0.213449 -0.021282 0 255 255 60 17
-0.134608 0.263334 -0.021282 0 255 255 60 17
-0.105295 0.273511 -0.025282 0 255 255 60 17
-0.064282 0.247861 -0.028245 0 255 255 60 17
-0.142379 0.248781 -0.032258 0 255 255 60 17
-0.083215 0.271132 -0.026037 0 255 255 60 17
-0.006743 0.205820 -0.027281 0 255 255 60 17
-0.073969 0.225542 -0.028280 0 255 255 60 17
-0.052170 0.271637 -0.020864 0 255 255 60 17
-0.116174 0.229880 -0.021882 0 255 255 60 17
-0.009472 0.252746 -0.021480 0 255 255 60 17
-0.076162 0.216746 -0.027281 0 255 255 60 17
0.008482 0.242086 -0.020372 0 255 255 60 17
-0.137057 0.270127 -0.019166 0 255 255 60 17
-0.037103 0.224594 -0.028273 0 255 255 60 17
-0.140423 0.223558 -0.020360 0 255 255 60 17
-0.041463 0.215375 -0.021699 0 255 255 60 17
-0.053616 0.257569 -0.022408 0 255 255 60 17
-0.104046 0.228917 -0.021364 0 255 255 60 17
-0.106491 0.260446 -0.026257 0 255 255 60 17
-0.037119 0.249333 -0.022078 0 255 255 60 17
0.006845 0.211576 -0.027281 0 255 255 60 17
-0.028394 0.259525 -0.022449 0 255 255 60 17
-0.036136 0.228476 -0.022153 0 255 255 60 17
-0.022073 0.235275 -0.022076 0 255 255 60 17
-0.000232 0.215401 -0.032223 0 255 255 60 17
-0.122505 0.270622 -0.026156 0 255 255 60 17
-0.057961 0.223611 -0.028272 0 255 255 60 17
-0.086591 0.241055 -0.026193 0 255 255 60 17
-0.085629 0.253183 -0.021733 0 255 255 60 17
0.012081 0.248248 -0.025282 0 255 255 60 17
-0.036630 0.243027 -0.028268 0 255 255 60 17
-0.025980 0.277474 -0.024230 0 255 255 60 17
-0.001241 0.277490 -0.022299 0 255 255 60 17
-0.061390 0.275996 -0.026277 0 255 255 60 17
-0.029681 0.208315 -0.021282 0 255 255 60 17
-0.087090 0.263854 -0.021857 0 255 255 60 17
-0.056514 0.237679 -0.022711 0 255 255 60 17
0.011130 0.260971 -0.025282 0 255 255 60 17
-0.041973 0.254666 -0.028238 0 255 255 60 17
-0.034173 0.215619 -0.033282 0 255 255 60 17
-0.094837 0.241050 -0.026243 0 255 255 60 17
0.008214 0.265812 -0.031282 0 255 255 60 17
-0.022798 0.215830 -0.027281 0 255 255 60 17
-0.057987 0.264842 -0.028271 0 255 255 60 17
-0.021100 0.230911 -0.028265 0 255 255 60 17
-0.009381 0.232111 -0.021282 0 255 255 60 17
-0.135584 0.242964 -0.020806 0 255 255 60 17
-0.055793 0.215769 -0.027281 0 255 255 60 17
-0.119596 0.274019 -0.020833 0 255 255 60 17
-0.076425 0.273561 -0.020786 0 255 255 60 17
-0.114737 0.260440 -0.026221 0 255 255 60 17
0.006430 0.265271 -0.021282 0 255 255 60 17
0.009466 0.221228 -0.026875 0 255 255 60 17
0.009445 0.254213 -0.027696 0 255 255 60 17
-0.010287 0.216409 -0.021282 0 255 255 60 17
-0.132182 0.231810 -0.026191 0 255 255 60 17
-0.143244 0.253576 -0.027281 0 255 255 60 17
-0.043435 0.265336 -0.026170 0 255 255 60 17
-0.013111 0.246419 -0.027281 0 255 255 60 17
-0.067702 0.238407 -0.027281 0 255 255 60 17
-0.014783 0.214907 -0.026255 0 255 255 60 17
-0.099686 0.238137 -0.021100 0 255 255 60 17
-0.031554 0.271649 -0.027281 0 255 255 60 17
0.002783 0.222894 -0.025282 0 255 255 60 17
-0.096533 0.217710 -0.029282 0 255 255 60 17
-0.060401 0.246893 -0.022795 0 255 255 60 17
-0.072060 0.274535 -0.026151 0 255 255 60 17
0.008961 0.252273 -0.020857 0 255 255 60 17
-0.101148 0.248807 -0.026262 0 255 255 60 17
-0.111747 0.234961 -0.025282 0 255 255 60 17
-0.101018 0.263203 -0.021282 0 255 255 60 17
-0.148680 0.240046 -0.022334 0 255 255 60 17
-0.139939 0.225500 -0.032273 0 255 255 60 17
-0.074474 0.256585 -0.028254 0 255 255 60 17
-0.113738 0.214844 -0.020484 0 255 255 60 17
-0.119575 0.241034 -0.026242 0 255 255 60 17
-0.076412 0.248813 -0.021282 0 255 255 60 17
-0.071643 0.210068 -0.029282 0 255 255 60 17
0.005090 0.236748 -0.026266 0 255 255 60 17
-0.139944 0.233746 -0.026278 0 255 255 60 17
-0.066928 0.228979 -0.027281 0 255 255 60 17
-0.035701 0.271552 -0.019282 0 255 255 60 17
-0.050214 0.246414 -0.028243 0 255 255 60 17
-0.094832 0.232804 -0.021019 0 255 255 60 17
-0.116163 0.213388 -0.029908 0 255 255 60 17
-0.139746 0.275879 -0.023282 0 255 255 60 17
-0.124025 0.229776 -0.021282 0 255 255 60 17
-0.084311 0.208864 -0.023282 0 255 255 60 17
-0.094760 0.274429 -0.021282 0 255 255 60 17
-0.031307 0.264374 -0.028220 0 255 255 60 17
-0.025040 0.206840 -0.029282 0 255 255 60 17
-0.144330 0.265757 -0.022405 0 255 255 60 17
-0.003162 0.244989 -0.021481 0 255 255 60 17
0.009821 0.241752 -0.027281 0 255 255 60 17
-0.042203 0.228940 -0.027281 0 255 255 60 17
-0.092428 0.267245 -0.026069 0 255 255 60 17
-0.107839 0.223679 -0.021282 0 255 255 60 17
-0.017240 0.262927 -0.028245 0 255 255 60 17
-0.051890 0.214893 -0.021282 0 255 255 60 17
-0.111750 0.251451 -0.025282 0 255 255 60 17
-0.007521 0.235770 -0.026200 0 255 255 60 17
-0.024670 0.266841 -0.021282 0 255 255 60 17
-0.135066 0.220162 -0.021282 0 255 255 60 17
-0.126363 0.265400 -0.021282 0 255 255 60 17
-0.103588 0.272090 -0.019320 0 255 255 60 17
-0.019186 0.251045 -0.027281 0 255 255 60 17
-0.102849 0.217184 -0.027281 0 255 255 60 17
-0.043205 0.208386 -0.021282 0 255 255 60 17
-0.012880 0.272147 -0.020626 0 255 255 60 17
-0.047774 0.223133 -0.022883 0 255 255 60 17
-0.126365 0.238605 -0.026105 0 255 255 60 17
-0.039548 0.256123 -0.022574 0 255 255 60 17
-0.142863 0.246841 -0.020538 0 255 255 60 17
-0.088553 0.274524 -0.026228 0 255 255 60 17
-0.006085 0.266330 -0.026084 0 255 255 60 17
-0.081268 0.262402 -0.026236 0 255 255 60 17
-0.106002 0.254140 -0.026192 0 255 255 60 17
-0.013822 0.227034 -0.026200 0 255 255 60 17
-0.042446 0.236233 -0.028215 0 255 255 60 17
-0.033238 0.248365 -0.028248 0 255 255 60 17
-0.091446 0.246388 -0.020545 0 255 255 60 17
0.005069 0.269733 -0.026225 0 255 255 60 17
-0.145753 0.229010 -0.027281 0 255 255 60 17
-0.075452 0.269197 -0.026142 0 255 255 60 17
-0.105019 0.233283 -0.026205 0 255 255 60 17
-0.073007 0.237668 -0.021597 0 255 255 60 17
-0.059417 0.226035 -0.022639 0 255 255 60 17
-0.049246 0.250296 -0.022525 0 255 255 60 17
-0.008761 0.223712 -0.021282 0 255 255 60 17
-0.113770 0.264322 -0.021392 0 255 255 60 17
0.002655 0.251783 -0.026173 0 255 255 60 17
-0.128816 0.278379 -0.020555 0 255 255 60 17
-0.000622 0.217560 -0.025282 0 255 255 60 17
-0.002667 0.230437 -0.021376 0 255 255 60 17
-0.131907 0.216376 -0.033282 0 255 255 60 17
-0.068631 0.222149 -0.026208 0 255 255 60 17
-0.049741 0.264847 -0.022399 0 255 255 60 17
-0.028629 0.242049 -0.027281 0 255 255 60 17
-0.016527 0.207916 -0.021282 0 255 255 60 17
-0.130741 0.254124 -0.026229 0 255 255 60 17
-0.114471 0.220172 -0.031282 0 255 255 60 17
-0.078823 0.230874 -0.026223 0 255 255 60 17
-0.048294 0.278915 -0.022321 0 255 255 60 17
-0.138508 0.264306 -0.026239 0 255 255 60 17
-0.057498 0.258537 -0.028238 0 255 255 60 17
-0.122005 0.247824 -0.026162 0 255 255 60 17
-0.137509 0.218710 -0.034256 0 255 255 60 17
-0.117646 0.257043 -0.021756 0 255 255 60 17
-0.121043 0.259951 -0.026171 0 255 255 60 17
-0.047784 0.239625 -0.022370 0 255 255 60 17
-0.080286 0.241545 -0.026246 0 255 255 60 17
-0.139991 0.237880 -0.031282 0 255 255 60 17
-0.028878 0.257584 -0.028271 0 255 255 60 17
-0.129063 0.269122 -0.025282 0 255 255 60 17
-0.124415 0.221629 -0.021601 0 255 255 60 17
-0.061353 0.218273 -0.021628 0 255 255 60 17
-0.122484 0.237637 -0.021524 0 255 255 60 17
-0.028043 0.219597 -0.025282 0 255 255 60 17
-0.077356 0.211957 -0.032021 0 255 255 60 17
-0.061507 0.208005 -0.023282 0 255 255 60 17
-0.123085 0.210424 -0.023282 0 255 255 60 17
-0.096284 0.226982 -0.021803 0 255 255 60 17
-0.088791 0.232230 -0.021282 0 255 255 60 17
-0.039553 0.264369 -0.021668 0 255 255 60 17
-0.123462 0.250249 -0.020855 0 255 255 60 17
-0.077362 0.220204 -0.021580 0 255 255 60 17
-0.023051 0.247887 -0.021948 0 255 255 60 17
-0.119560 0.216296 -0.020720 0 255 255 60 17
-0.061868 0.265810 -0.021412 0 255 255 60 17
-0.003650 0.251294 -0.021590 0 255 255 60 17
-0.042941 0.250784 -0.021970 0 255 255 60 17
-0.092161 0.218719 -0.025282 0 255 255 60 17
-0.025465 0.229937 -0.021767 0 255 255 60 17
-0.006070 0.241592 -0.026101 0 255 255 60 17
-0.030814 0.249822 -0.022726 0 255 255 60 17
-0.143831 0.242959 -0.032224 0 255 255 60 17
-0.059438 0.259020 -0.022485 0 255 255 60 17
-0.010924 0.246924 -0.021615 0 255 255 60 17
-0.085124 0.222139 -0.021690 0 255 255 60 17
-0.094842 0.249296 -0.026232 0 255 255 60 17
-0.129763 0.241513 -0.020798 0 255 255 60 17
-0.069393 0.260428 -0.027281 0 255 255 60 17
-0.134877 0.220998 -0.027281 0 255 255 60 17
-0.097761 0.262391 -0.026253 0 255 255 60 17
-0.062494 0.362503 -0.029282 0 0 255 57 18
-0.083916 0.309653 0.060719 0 0 255 57 18
-0.124004 0.339016 0.005765 0 0 255 57 18
-0.076204 0.290980 -0.025282 0 0 255 57 18
-0.048144 0.353922 0.032719 0 0 255 57 18
-0.029595 0.320843 -0.025282 0 0 255 57 18
-0.091999 0.364016 0.056718 0 0 255 57 18
-0.059470 0.308498 0.017712 0 0 255 57 18
-0.098776 0.332727 -0.032188 0 0 255 57 18
-0.117221 0.333150 0.046719 0 0 255 57 18
-0.046962 0.325595 0.060719 0 0 255 57 18
-0.103429 0.371930 -0.027281 0 0 255 57 18
-0.096638 0.316497 0.018718 0 0 255 57 18
-0.050469 0.339233 -0.001282 0 0 255 57 18
-0.027536 0.358250 -0.027281 0 0 255 57 18
-0.064780 0.324250 -0.029282 0 0 255 57 18
-0.060512 0.366472 0.058718 0 0 255 57 18
-0.086638 0.315271 -0.010600 0 0 255 57 18
-0.047616 0.298172 -0.027281 0 0 255 57 18
-0.096638 0.341301 -0.005282 0 0 255 57 18
-0.103609 0.305074 -0.029907 0 0 255 57 18
-0.091846 0.335716 0.056718 0 0 255 57 18
-0.044060 0.325267 0.032719 0 0 255 57 18
-0.061837 0.307271 0.044718 0 0 255 57 18
-0.100482 0.342418 0.022718 0 0 255 57 18
-0.118059 0.349902 -0.027281 0 0 255 57 18
-0.046879 0.342460 -0.032145 0 0 255 57 18
-0.060465 0.312773 -0.007282 0 0 255 57 18
-0.042071 0.349507 0.058718 0 0 255 57 18
-0.082836 0.384405 -0.027281 0 0 255 57 18
-0.084796 0.306125 0.036718 0 0 255 57 18
-0.088242 0.354834 -0.031282 0 0 255 57 18
-0.074610 0.355243 0.044718 0 0 255 57 18
-0.122322 0.345757 0.028718 0 0 255 57 18
-0.044726 0.375896 -0.027281 0 0 255 57 18
-0.083241 0.312363 -0.032123 0 0 255 57 18
-0.099579 0.321237 0.042718 0 0 255 57 18
-0.080432 0.307093 0.008718 0 0 255 57 18
-0.047131 0.321910 0.008718 0 0 255 57 18
-0.047594 0.339594 0.018718 0 0 255 57 18
-0.063651 0.382668 -0.031282 0 0 255 57 18
-0.113806 0.322046 -0.025388 0 0 255 57 18
-0.050202 0.339166 0.044718 0 0 255 57 18
-0.096362 0.350675 0.043754 0 0 255 57 18
-0.026065 0.339332 -0.027281 0 0 255 57 18
-0.082337 0.328627 -0.023282 0 0 255 57 18
-0.046589 0.323837 -0.031282 0 0 255 57 18
-0.064399 0.305261 -0.027281 0 0 255 57 18
-0.096594 0.324940 0.002718 0 0 255 57 18
-0.053999 0.327746 -0.015282 0 0 255 57 18
-0.063209 0.318302 0.058718 0 0 255 57 18
-0.070391 0.314301 0.030718 0 0 255 57 18
-0.044719 0.359390 -0.031282 0 0 255 57 18
-0.083494 0.319615 0.046719 0 0 255 57 18
-0.075993 0.357965 0.061053 0 0 255 57 18
-0.059505 0.362098 0.042718 0 0 255 57 18
-0.055844 0.323042 0.044718 0 0 255 57 18
-0.107995 0.337086 0.006297 0 0 255 57 18
-0.102072 0.347977 0.058718 0 0 255 57 18
-0.091477 0.295865 -0.024914 0 0 255 57 18
-0.057340 0.350106 0.054718 0 0 255 57 18
-0.103151 0.348246 -0.032201 0 0 255 57 18
-0.052537 0.311502 0.032719 0 0 255 57 18
-0.123619 0.332292 0.020718 0 0 255 57 18
-0.102695 0.335764 0.036718 0 0 255 57 18
-0.072354 0.314693 -0.017282 0 0 255 57 18
-0.057555 0.349245 -0.022675 0 0 255 57 18
-0.095585 0.320723 0.058718 0 0 255 57 18
-0.067968 0.315748 0.006718 0 0 255 57 18
-0.087402 0.370077 -0.031282 0 0 255 57 18
-0.115536 0.348179 0.044718 0 0 255 57 18
-0.090535 0.340978 -0.021659 0 0 255 57 18
-0.088598 0.319882 0.030718 0 0 255 57 18
-0.037974 0.309322 -0.029282 0 0 255 57 18
-0.114300 0.336597 -0.032254 0 0 255 57 18
-0.096341 0.317690 -0.027937 0 0 255 57 18
-0.053658 0.323538 0.021686 0 0 255 57 18
-0.093794 0.327907 -0.011282 0 0 255 57 18
-0.076749 0.305332 0.048718 0 0 255 57 18
-0.074990 0.304122 0.021720 0 0 255 57 18
-0.102157 0.329447 0.016718 0 0 255 57 18
-0.088116 0.350680 0.059461 0 0 255 57 18
-0.083488 0.319637 0.002718 0 0 255 57 18
-0.056081 0.326203 -0.001282 0 0 255 57 18
-0.112154 0.361737 -0.031282 0 0 255 57 18
-0.086657 0.360624 0.040718 0 0 255 57 18
-0.123514 0.332711 0.034374 0 0 255 57 18
-0.073863 0.308638 -0.003282 0 0 255 57 18
-0.060436 0.292249 -0.027281 0 0 255 57 18
-0.104598 0.334178 0.051340 0 0 255 57 18
-0.083261 0.316491 0.018718 0 0 255 57 18
-0.037171 0.331795 -0.026095 0 0 255 57 18
-0.041100 0.336897 0.054718 0 0 255 57 18
-0.057061 0.334693 -0.026137 0 0 255 57 18
-0.044763 0.339872 0.032719 0 0 255 57 18
-0.052799 0.313018 0.052718 0 0 255 57 18
-0.052569 0.310900 -0.027281 0 0 255 57 18
-0.047414 0.352899 0.046719 0 0 255 57 18
-0.116730 0.343387 0.015676 0 0 255 57 18
-0.057571 0.373984 -0.023706 0 0 255 57 18
-0.101537 0.323108 0.028718 0 0 255 57 18
-0.073820 0.366685 0.050718 0 0 255 57 18
-0.035241 0.347803 -0.032193 0 0 255 57 18
-0.054637 0.340272 -0.013281 0 0 255 57 18
-0.048604 0.360340 0.058718 0 0 255 57 18
-0.092022 0.331042 0.044718 0 0 255 57 18
-0.044325 0.327395 0.046719 0 0 255 57 18
-0.100248 0.359889 -0.028106 0 0 255 57 18
-0.113333 0.340478 -0.004264 0 0 255 57 18
-0.071597 0.309460 0.059995 0 0 255 57 18
-0.056551 0.311937 0.004718 0 0 255 57 18
-0.077898 0.300724 -0.032263 0 0 255 57 18
-0.072329 0.314792 0.042718 0 0 255 57 18
-0.061035 0.318751 -0.019282 0 0 255 57 18
-0.034548 0.367118 -0.031282 0 0 255 57 18
-0.052009 0.339617 0.058718 0 0 255 57 18
-0.093348 0.313158 0.048718 0 0 255 57 18
-0.086665 0.306898 0.024718 0 0 255 57 18
-0.045389 0.333844 0.008718 0 0 255 57 18
-0.048135 0.345692 0.008718 0 0 255 57 18
-0.093469 0.378812 -0.026468 0 0 255 57 18
-0.091243 0.313338 0.008718 0 0 255 57 18
-0.071721 0.313614 -0.031282 0 0 255 57 18
-0.072792 0.304667 0.036718 0 0 255 57 18
-0.062137 0.306069 0.028718 0 0 255 57 18
-0.070392 0.314293 0.018718 0 0 255 57 18
-0.096112 0.335145 0.008718 0 0 255 57 18
-0.075243 0.319638 -0.007282 0 0 255 57 18
-0.085061 0.349918 0.044718 0 0 255 57 18
-0.069120 0.372741 -0.031282 0 0 255 57 18
-0.086643 0.323518 -0.032266 0 0 255 57 18
-0.077670 0.318172 0.056718 0 0 255 57 18
-0.052717 0.368651 -0.032113 0 0 255 57 18
-0.043950 0.329363 0.020718 0 0 255 57 18
-0.058754 0.319635 0.012718 0 0 255 57 18
-0.091482 0.304111 -0.032210 0 0 255 57 18
-0.090769 0.323505 0.012718 0 0 255 57 18
-0.064020 0.356385 0.060719 0 0 255 57 18
-0.084213 0.316729 -0.022235 0 0 255 57 18
-0.091991 0.343402 -0.032136 0 0 255 57 18
-0.093325 0.329784 -0.023282 0 0 255 57 18
-0.095368 0.313326 0.036077 0 0 255 57 18
-0.116291 0.332971 0.012718 0 0 255 57 18
-0.052706 0.352159 -0.032183 0 0 255 57 18
-0.104830 0.333245 -0.003282 0 0 255 57 18
-0.105807 0.345864 0.048718 0 0 255 57 18
-0.105077 0.323991 -0.032269 0 0 255 57 18
-0.061660 0.316247 0.036718 0 0 255 57 18
-0.068469 0.305474 0.012718 0 0 255 57 18
-0.071859 0.324941 -0.021282 0 0 255 57 18
-0.061659 0.316247 0.024718 0 0 255 57 18
-0.123036 0.342897 0.039264 0 0 255 57 18
-0.054604 0.323775 0.032719 0 0 255 57 18
-0.042931 0.366211 -0.023282 0 0 255 57 18
-0.108006 0.353578 -0.024442 0 0 255 57 18
-0.087136 0.325702 0.054718 0 0 255 57 18
-0.096841 0.340489 0.047800 0 0 255 57 18
-0.110172 0.311818 -0.025282 0 0 255 57 18
-0.082067 0.366674 0.058718 0 0 255 57 18
-0.064513 0.354405 0.048718 0 0 255 57 18
-0.105337 0.339480 -0.027281 0 0 255 57 18
-0.076456 0.323039 -0.030258 0 0 255 57 18
-0.099933 0.333015 0.026718 0 0 255 57 18
-0.050595 0.314530 0.042718 0 0 255 57 18
-0.100025 0.344247 0.012718 0 0 255 57 18
-0.092497 0.316577 -0.001282 0 0 255 57 18
-0.063606 0.316709 0.048718 0 0 255 57 18
-0.052382 0.328659 0.052718 0 0 255 57 18
-0.037327 0.355969 -0.025282 0 0 255 57 18
-0.093452 0.325215 0.022718 0 0 255 57 18
-0.062165 0.322489 -0.009282 0 0 255 57 18
-0.094907 0.327639 0.034718 0 0 255 57 18
-0.061674 0.307923 0.054718 0 0 255 57 18
-0.081011 0.354375 0.052718 0 0 255 57 18
-0.099529 0.329706 0.060719 0 0 255 57 18
-0.116247 0.345327 0.005831 0 0 255 57 18
-0.052036 0.312828 0.022718 0 0 255 57 18
-0.056114 0.301478 -0.031282 0 0 255 57 18
-0.083690 0.310561 -0.001282 0 0 255 57 18
-0.082278 0.324491 -0.014288 0 0 255 57 18
-0.040558 0.318211 -0.025793 0 0 255 57 18
-0.096344 0.354793 0.052718 0 0 255 57 18
-0.054412 0.323726 -0.025282 0 0 255 57 18
-0.061899 0.315287 -0.032197 0 0 255 57 18
-0.088360 0.333167 -0.031282 0 0 255 57 18
-0.086402 0.324486 -0.005282 0 0 255 57 18
-0.080588 0.314738 0.034718 0 0 255 57 18
-0.046874 0.334214 -0.026865 0 0 255 57 18
-0.028935 0.348293 -0.024716 0 0 255 57 18
-0.111387 0.331748 -0.024344 0 0 255 57 18
-0.068415 0.297422 -0.031282 0 0 255 57 18
-0.071150 0.369125 0.059682 0 0 255 57 18
-0.111392 0.339994 0.041771 0 0 255 57 18
-0.105833 0.345758 0.002718 0 0 255 57 18
-0.050030 0.329821 0.038718 0 0 255 57 18
-0.044944 0.350223 -0.026875 0 0 255 57 18
-0.055821 0.348812 0.044718 0 0 255 57 18
-0.078152 0.316240 0.010718 0 0 255 57 18
-0.054911 0.359850 0.050718 0 0 255 57 18
-0.069205 0.364517 0.042718 0 0 255 57 18
-0.082788 0.363780 0.049721 0 0 255 57 18
-0.096399 0.367057 -0.023282 0 0 255 57 18
-0.050122 0.330901 -0.007282 0 0 255 57 18
-0.062641 0.328847 -0.021282 0 0 255 57 18
-0.126764 0.339705 0.014718 0 0 255 57 18
-0.047974 0.346339 0.038718 0 0 255 57 18
-0.115273 0.340962 -0.024017 0 0 255 57 18
-0.093447 0.333459 -0.001282 0 0 255 57 18
-0.116885 0.339303 0.032719 0 0 255 57 18
-0.054422 0.378345 -0.031282 0 0 255 57 18
-0.027468 0.329376 -0.028265 0 0 255 57 18
-0.065511 0.309066 0.000718 0 0 255 57 18
-0.050765 0.351675 0.061200 0 0 255 57 18
-0.083918 0.301378 -0.025282 0 0 255 57 18
-0.051997 0.346736 -0.007282 0 0 255 57 18
-0.049296 0.345124 0.026718 0 0 255 57 18
-0.053117 0.317441 0.060719 0 0 255 57 18
-0.061844 0.319395 0.000718 0 0 255 57 18
-0.053777 0.360670 -0.027281 0 0 255 57 18
-0.094010 0.312987 0.026718 0 0 255 57 18
-0.128772 0.340205 0.032719 0 0 255 57 18
-0.116081 0.334980 0.002718 0 0 255 57 18
-0.051198 0.318803 0.000718 0 0 255 57 18
-0.048258 0.332498 0.028718 0 0 255 57 18
-0.064143 0.364158 0.050718 0 0 255 57 18
-0.039118 0.340525 -0.027281 0 0 255 57 18
-0.051240 0.314691 0.012718 0 0 255 57 18
-0.043561 0.343694 0.048718 0 0 255 57 18
-0.099265 0.339032 0.060503 0 0 255 57 18
-0.047786 0.317952 0.028718 0 0 255 57 18
-0.078870 0.305090 0.029715 0 0 255 57 18
-0.096258 0.351090 -0.027281 0 0 255 57 18
-0.047534 0.319950 0.050718 0 0 255 57 18
-0.086149 0.308965 0.051923 0 0 255 57 18
-0.053656 0.327661 0.010718 0 0 255 57 18
-0.047375 0.328156 0.000718 0 0 255 57 18
-0.100355 0.326393 0.050718 0 0 255 57 18
-0.090077 0.309749 0.016718 0 0 255 57 18
-0.110893 0.317196 -0.032257 0 0 255 57 18
-0.091477 0.345468 0.052718 0 0 255 57 18
-0.074506 0.306062 -0.026138 0 0 255 57 18
-0.076715 0.313735 0.024718 0 0 255 57 18
-0.052878 0.341895 -0.023282 0 0 255 57 18
-0.087757 0.348530 -0.025282 0 0 255 57 18
-0.088838 0.322982 0.040718 0 0 255 57 18
-0.085634 0.376858 -0.023282 0 0 255 57 18
-0.034252 0.318700 -0.032281 0 0 255 57 18
-0.091970 0.310418 -0.026282 0 0 255 57 18
-0.102556 0.329546 0.042718 0 0 255 57 18
-0.074986 0.316488 0.000718 0 0 255 57 18
-0.095888 0.369108 -0.032172 0 0 255 57 18
-0.054202 0.319552 -0.007282 0 0 255 57 18
-0.091776 0.335997 -0.013281 0 0 255 57 18
-0.111831 0.340104 0.050718 0 0 255 57 18
-0.070148 0.356610 0.054718 0 0 255 57 18
-0.112129 0.345304 -0.031282 0 0 255 57 18
-0.045373 0.321473 0.040718 0 0 255 57 18
-0.046677 0.319736 0.018718 0 0 255 57 18
-0.098271 0.301682 -0.024291 0 0 255 57 18
-0.085213 0.362324 -0.028756 0 0 255 57 18
-0.045401 0.307051 -0.025058 0 0 255 57 18
-0.079406 0.311210 -0.009282 0 0 255 57 18
-0.086109 0.358730 0.060719 0 0 255 57 18
-0.066790 0.378343 -0.024849 0 0 255 57 18
-0.090061 0.359411 0.049750 0 0 255 57 18
-0.118573 0.337662 0.024718 0 0 255 57 18
-0.101674 0.312837 -0.032245 0 0 255 57 18
-0.058513 0.328871 -0.032233 0 0 255 57 18
-0.064369 0.305596 0.036718 0 0 255 57 18
-0.086101 0.317425 0.058718 0 0 255 57 18
-0.038623 0.325973 -0.032210 0 0 255 57 18
-0.087163 0.379301 -0.032189 0 0 255 57 18
-0.084167 0.292112 -0.027281 0 0 255 57 18
-0.050293 0.370107 -0.024345 0 0 255 57 18
-0.077886 0.362559 0.042718 0 0 255 57 18
-0.082811 0.305817 0.016718 0 0 255 57 18
-0.052949 0.318117 -0.031282 0 0 255 57 18
-0.058269 0.321581 0.052718 0 0 255 57 18
-0.121833 0.347723 0.020718 0 0 255 57 18
-0.107022 0.332721 -0.032148 0 0 255 57 18
-0.126876 0.339732 0.024718 0 0 255 57 18
-0.098540 0.341938 0.002718 0 0 255 57 18
-0.067492 0.317660 -0.005282 0 0 255 57 18
-0.032322 0.334709 -0.032221 0 0 255 57 18
-0.060911 0.372754 -0.031282 0 0 255 57 18
-0.070732 0.304660 0.028718 0 0 255 57 18
-0.072279 0.306722 0.004718 0 0 255 57 18
-0.104587 0.317685 -0.026341 0 0 255 57 18
-0.047619 0.347759 0.018718 0 0 255 57 18
-0.044916 0.313114 -0.031282 0 0 255 57 18
-0.098579 0.325251 0.010718 0 0 255 57 18
-0.071105 0.315521 0.052718 0 0 255 57 18
-0.053679 0.356523 0.041779 0 0 255 57 18
-0.037197 0.373026 -0.026317 0 0 255 57 18
-0.066322 0.314083 -0.023282 0 0 255 57 18
-0.046421 0.334101 0.060719 0 0 255 57 18
-0.088730 0.323418 -0.021282 0 0 255 57 18
-0.055515 0.344614 -0.031282 0 0 255 57 18
-0.100482 0.342416 0.032719 0 0 255 57 18
-0.052549 0.344524 0.050718 0 0 255 57 18
-0.118146 0.358168 -0.027281 0 0 255 57 18
-0.094406 0.325453 -0.032245 0 0 255 57 18
-0.033306 0.355565 -0.032275 0 0 255 57 18
-0.100498 0.342353 0.040718 0 0 255 57 18
-0.044256 0.335623 0.040718 0 0 255 57 18
-0.089312 0.309754 0.042718 0 0 255 57 18
-0.052957 0.334618 -0.019282 0 0 255 57 18
-0.112105 0.353670 -0.031282 0 0 255 57 18
-0.096841 0.340489 -0.026527 0 0 255 57 18
-0.068694 0.321104 -0.014339 0 0 255 57 18
-0.068200 0.306551 0.050521 0 0 255 57 18
-0.066277 0.305995 0.020718 0 0 255 57 18
-0.086897 0.330767 -0.017282 0 0 255 57 18
-0.071113 0.311401 -0.010287 0 0 255 57 18
-0.102207 0.337704 0.016718 0 0 255 57 18
-0.116939 0.334283 0.038718 0 0 255 57 18
-0.100216 0.310412 -0.024980 0 0 255 57 18
-0.108011 0.361824 -0.024682 0 0 255 57 18
-0.118583 0.331481 -0.027281 0 0 255 57 18
-0.076797 0.313406 -0.025282 0 0 255 57 18
-0.094889 0.323512 -0.004657 0 0 255 57 18
-0.067996 0.290835 -0.027281 0 0 255 57 18
-0.057076 0.359432 0.059529 0 0 255 57 18
-0.093526 0.345514 0.060719 0 0 255 57 18
-0.044438 0.329484 0.054718 0 0 255 57 18
-0.052696 0.335666 -0.032246 0 0 255 57 18
-0.057399 0.308534 0.038718 0 0 255 57 18
-0.040568 0.334703 -0.032121 0 0 255 57 18
-0.102574 0.327490 0.034718 0 0 255 57 18
-0.044939 0.341976 0.059535 0 0 255 57 18
-0.043966 0.337612 0.024970 0 0 255 57 18
-0.033280 0.314335 -0.024890 0 0 255 57 18
-0.083068 0.306136 0.044718 0 0 255 57 18
-0.050733 0.331054 0.016718 0 0 255 57 18
-0.080333 0.315761 -0.015921 0 0 255 57 18
-0.064095 0.314749 0.014718 0 0 255 57 18
-0.104852 0.341427 -0.003282 0 0 255 57 18
-0.093679 0.361434 -0.031282 0 0 255 57 18
-0.033651 0.362448 -0.025282 0 0 255 57 18
-0.049767 0.306078 -0.032212 0 0 255 57 18
-0.100504 0.334061 0.002718 0 0 255 57 18
-0.085927 0.318124 0.010718 0 0 255 57 18
-0.089234 0.322102 -0.013281 0 0 255 57 18
-0.058512 0.312342 0.060719 0 0 255 57 18
-0.059464 0.300252 -0.024785 0 0 255 57 18
-0.096805 0.317807 0.010718 0 0 255 57 18
-0.083274 0.316494 0.026718 0 0 255 57 18
-0.119607 0.340118 0.046719 0 0 255 57 18
-0.068720 0.362335 0.061180 0 0 255 57 18
-0.100227 0.326905 -0.027595 0 0 255 57 18
-0.072559 0.297333 -0.024838 0 0 255 57 18
-0.064018 0.315055 -0.013281 0 0 255 57 18
-0.050051 0.346272 0.000718 0 0 255 57 18
-0.058997 0.355788 -0.031282 0 0 255 57 18
-0.068620 0.304869 0.042718 0 0 255 57 18
-0.090086 0.322315 0.004718 0 0 255 57 18
-0.090136 0.309511 0.032719 0 0 255 57 18
-0.045485 0.368909 -0.031282 0 0 255 57 18
-0.061496 0.308638 0.010718 0 0 255 57 18
-0.078340 0.307218 0.056718 0 0 255 57 18
-0.091040 0.372021 -0.023893 0 0 255 57 18
-0.044477 0.323311 0.024718 0 0 255 57 18
-0.089481 0.315980 -0.031282 0 0 255 57 18
-0.031838 0.336649 -0.023792 0 0 255 57 18
-0.044885 0.327535 0.012718 0 0 255 57 18
-0.103816 0.337311 0.044718 0 0 255 57 18
-0.088587 0.319880 0.022718 0 0 255 57 18
-0.040095 0.353136 -0.032130 0 0 255 57 18
-0.030387 0.342471 -0.032260 0 0 255 57 18
-0.052686 0.331541 0.004718 0 0 255 57 18
-0.052675 0.302681 -0.024782 0 0 255 57 18
-0.095878 0.352615 0.059540 0 0 255 57 18
-0.099043 0.323386 0.018718 0 0 255 57 18
-0.095869 0.332002 0.018718 0 0 255 57 18
-0.054160 0.294806 -0.025282 0 0 255 57 18
-0.042479 0.333118 0.032719 0 0 255 57 18
-0.097358 0.320005 0.050718 0 0 255 57 18
-0.091014 0.330790 0.051749 0 0 255 57 18
-0.112769 0.340338 0.010718 0 0 255 57 18
-0.084208 0.308482 -0.026343 0 0 255 57 18
-0.085927 0.334657 -0.023282 0 0 255 57 18
-0.045917 0.354588 0.055730 0 0 255 57 18
-0.050693 0.335167 0.050718 0 0 255 57 18
-0.112355 0.327867 -0.030094 0 0 255 57 18
-0.110525 0.333594 0.044718 0 0 255 57 18
-0.096836 0.332243 0.039710 0 0 255 57 18
-0.109941 0.345816 -0.024678 0 0 255 57 18
-0.065056 0.368764 -0.027281 0 0 255 57 18
-0.100721 0.341457 -0.032210 0 0 255 57 18
-0.054871 0.323841 0.058718 0 0 255 57 18
-0.057001 0.322310 0.004718 0 0 255 57 18
-0.099297 0.320489 0.034718 0 0 255 57 18
-0.092799 0.329175 0.058718 0 0 255 57 18
-0.059475 0.316744 -0.025897 0 0 255 57 18
-0.095807 0.315496 0.042718 0 0 255 57 18
-0.035480 0.325190 -0.025282 0 0 255 57 18
-0.057318 0.308859 0.024718 0 0 255 57 18
-0.046647 0.340342 0.004718 0 0 255 57 18
-0.091029 0.355529 0.042023 0 0 255 57 18
-0.100776 0.343531 0.052718 0 0 255 57 18
-0.042026 0.337128 0.047702 0 0 255 57 18
-0.067644 0.312597 0.024718 0 0 255 57 18
-0.038160 0.360899 -0.032210 0 0 255 57 18
-0.062313 0.325697 -0.015282 0 0 255 57 18
-0.104607 0.354793 -0.031282 0 0 255 57 18
-0.078391 0.315276 0.045753 0 0 255 57 18
-0.083729 0.318669 0.039721 0 0 255 57 18
-0.042503 0.326941 -0.026763 0 0 255 57 18
-0.118671 0.343871 -0.030262 0 0 255 57 18
-0.074858 0.304646 0.014718 0 0 255 57 18
-0.091833 0.314505 0.056718 0 0 255 57 18
-0.057227 0.310000 0.048718 0 0 255 57 18
-0.081585 0.319001 -0.005282 0 0 255 57 18
-0.072839 0.312745 0.012718 0 0 255 57 18
-0.096820 0.307504 -0.030156 0 0 255 57 18
-0.056819 0.327393 -0.009282 0 0 255 57 18
-0.091024 0.347283 0.046355 0 0 255 57 18
-0.098039 0.319146 0.024718 0 0 255 57 18
-0.047841 0.330333 -0.032148 0 0 255 57 18
-0.057967 0.318429 0.030718 0 0 255 57 18
-0.050249 0.337216 -0.009282 0 0 255 57 18
-0.059246 0.317659 0.042718 0 0 255 57 18
-0.067747 0.357970 0.044181 0 0 255 57 18
-0.087139 0.350437 0.052718 0 0 255 57 18
-0.053327 0.346129 0.058718 0 0 255 57 18
-0.057444 0.366228 -0.027281 0 0 255 57 18
-0.094873 0.298774 -0.029751 0 0 255 57 18
-0.056273 0.321317 -0.013281 0 0 255 57 18
-0.090999 0.303992 -0.025282 0 0 255 57 18
-0.086642 0.309089 0.010718 0 0 255 57 18
-0.044944 0.339916 0.012718 0 0 255 57 18
-0.065155 0.310495 0.060719 0 0 255 57 18
-0.034067 0.344242 -0.025282 0 0 255 57 18
-0.055910 0.314507 -0.001282 0 0 255 57 18
-0.082783 0.355534 0.042158 0 0 255 57 18
-0.058990 0.308378 -0.029282 0 0 255 57 18
-0.101420 0.331324 0.008718 0 0 255 57 18
-0.050897 0.347585 -0.027281 0 0 255 57 18
-0.117506 0.335335 0.018718 0 0 255 57 18
-0.041869 0.302048 -0.027281 0 0 255 57 18
-0.050057 0.324702 -0.005282 0 0 255 57 18
-0.051673 0.327166 0.026718 0 0 255 57 18
-0.109306 0.331828 0.002718 0 0 255 57 18
-0.090479 0.366003 -0.027281 0 0 255 57 18
-0.120896 0.343211 0.010718 0 0 255 57 18
-0.066134 0.298302 -0.025282 0 0 255 57 18
-0.078162 0.324468 -0.019282 0 0 255 57 18
-0.051877 0.329278 -0.023282 0 0 255 57 18
-0.048172 0.332476 0.044718 0 0 255 57 18
-0.091008 0.322544 -0.027649 0 0 255 57 18
-0.049089 0.316215 0.036718 0 0 255 57 18
-0.122546 0.336591 0.042253 0 0 255 57 18
-0.094161 0.334701 -0.027281 0 0 255 57 18
-0.106655 0.328507 -0.027281 0 0 255 57 18
-0.068141 0.318905 -0.031282 0 0 255 57 18
-0.049798 0.355555 -0.027655 0 0 255 57 18
-0.098660 0.349188 0.050718 0 0 255 57 18
-0.125277 0.333911 0.026718 0 0 255 57 18
-0.058707 0.352893 0.060719 0 0 255 57 18
-0.052564 0.323266 0.038718 0 0 255 57 18
-0.072835 0.312763 0.036718 0 0 255 57 18
-0.123031 0.334651 0.013803 0 0 255 57 18
-0.076930 0.304606 0.041533 0 0 255 57 18
-0.069672 0.379062 -0.031282 0 0 255 57 18
-0.105833 0.362290 -0.031282 0 0 255 57 18
-0.101247 0.366322 -0.029282 0 0 255 57 18
-0.044477 0.341861 0.042718 0 0 255 57 18
-0.067346 0.309978 -0.005282 0 0 255 57 18
-0.088343 0.324964 0.046719 0 0 255 57 18
-0.060485 0.378832 -0.026566 0 0 255 57 18
-0.078199 0.307783 0.002718 0 0 255 57 18
-0.094305 0.317586 0.004718 0 0 255 57 18
-0.059246 0.317660 0.018718 0 0 255 57 18
-0.078865 0.296844 -0.024498 0 0 255 57 18
-0.102415 0.327450 0.022718 0 0 255 57 18
-0.089342 0.312690 0.002718 0 0 255 57 18
-0.062608 0.353780 0.054718 0 0 255 57 18
-0.058024 0.322565 -0.032102 0 0 255 57 18
-0.049325 0.373989 -0.032252 0 0 255 57 18
-0.051808 0.316894 0.006718 0 0 255 57 18
-0.092496 0.374447 -0.032210 0 0 255 57 18
-0.079849 0.317701 -0.032210 0 0 255 57 18
-0.075000 0.320614 -0.014333 0 0 255 57 18
-0.092480 0.349708 -0.032176 0 0 255 57 18
-0.039605 0.346831 -0.027310 0 0 255 57 18
-0.096862 0.373474 -0.026445 0 0 255 57 18
-0.043904 0.327290 0.038718 0 0 255 57 18
-0.066024 0.315278 0.042718 0 0 255 57 18
-0.064088 0.314776 0.030718 0 0 255 57 18
-0.110909 0.341934 0.003483 0 0 255 57 18
-0.092816 0.356632 -0.027281 0 0 255 57 18
-0.052579 0.377470 -0.025282 0 0 255 57 18
-0.095234 0.333905 -0.007282 0 0 255 57 18
-0.110904 0.333688 0.050968 0 0 255 57 18
-0.102657 0.333694 -0.027376 0 0 255 57 18
-0.098292 0.334667 0.046087 0 0 255 57 18
-0.059985 0.356034 0.044082 0 0 255 57 18
-0.051148 0.333607 0.056718 0 0 255 57 18
-0.047862 0.363318 -0.027642 0 0 255 57 18
-0.051669 0.327165 0.046719 0 0 255 57 18
-0.074542 0.363786 0.059513 0 0 255 57 18
-0.096142 0.326755 0.028718 0 0 255 57 18
-0.094184 0.326340 0.040718 0 0 255 57 18
-0.099739 0.320599 -0.032191 0 0 255 57 18
-0.046510 0.319142 -0.027281 0 0 255 57 18
-0.116987 0.342355 0.040718 0 0 255 57 18
-0.061183 0.318157 0.006718 0 0 255 57 18
-0.083481 0.303129 -0.031282 0 0 255 57 18
-0.044050 0.333510 0.014718 0 0 255 57 18
-0.092485 0.357954 0.057672 0 0 255 57 18
-0.082787 0.318434 0.052718 0 0 255 57 18
-0.094414 0.329577 0.006718 0 0 255 57 18
-0.068674 0.316976 0.000718 0 0 255 57 18
-0.100327 0.331052 0.054718 0 0 255 57 18
-0.052904 0.326562 -0.031282 0 0 255 57 18
-0.089844 0.318944 0.016718 0 0 255 57 18
-0.083500 0.327856 -0.029282 0 0 255 57 18
-0.048762 0.320256 0.056718 0 0 255 57 18
-0.051490 0.332235 -0.001282 0 0 255 57 18
-0.077635 0.310047 -0.031282 0 0 255 57 18
-0.065944 0.307332 0.006718 0 0 255 57 18
-0.069516 0.309538 -0.027281 0 0 255 57 18
-0.070197 0.302927 -0.029282 0 0 255 57 18
-0.053897 0.333904 -0.013281 0 0 255 57 18
-0.080959 0.304978 0.022718 0 0 255 57 18
-0.046479 0.334116 0.002718 0 0 255 57 18
-0.043487 0.347798 -0.032277 0 0 255 57 18
-0.090914 0.334889 -0.019282 0 0 255 57 18
-0.045907 0.327789 0.006718 0 0 255 57 18
-0.066743 0.365964 0.056718 0 0 255 57 18
-0.058461 0.332981 -0.017282 0 0 255 57 18
-0.081492 0.355213 0.058718 0 0 255 57 18
-0.084566 0.307048 0.030718 0 0 255 57 18
-0.050277 0.345369 0.044247 0 0 255 57 18
-0.100657 0.337318 0.054718 0 0 255 57 18
-0.061889 0.298795 -0.030151 0 0 255 57 18
-0.058262 0.354674 -0.025282 0 0 255 57 18
-0.090667 0.318337 -0.007282 0 0 255 57 18
-0.048620 0.352014 0.040718 0 0 255 57 18
-0.101912 0.344947 -0.027281 0 0 255 57 18
-0.057997 0.308130 0.032719 0 0 255 57 18
-0.088569 0.299263 -0.030111 0 0 255 57 18
-0.029094 0.352455 -0.029282 0 0 255 57 18
-0.076935 0.312852 0.059457 0 0 255 57 18
-0.043383 0.329221 0.026718 0 0 255 57 18
-0.093448 0.345826 -0.026429 0 0 255 57 18
-0.051231 0.329117 0.032719 0 0 255 57 18
-0.092597 0.337370 0.050718 0 0 255 57 18
-0.091049 0.326677 -0.001282 0 0 255 57 18
-0.074537 0.355540 0.050721 0 0 255 57 18
-0.044562 0.348067 0.052718 0 0 255 57 18
-0.093696 0.336569 0.042718 0 0 255 57 18
-0.041570 0.343198 0.054718 0 0 255 57 18
-0.049314 0.357496 0.051726 0 0 255 57 18
-0.110420 0.335630 -0.001791 0 0 255 57 18
-0.076709 0.313759 0.018718 0 0 255 57 18
-0.094175 0.326377 0.016718 0 0 255 57 18
-0.044495 0.348049 0.044718 0 0 255 57 18
-0.072427 0.306130 0.054718 0 0 255 57 18
-0.084250 0.374452 -0.028726 0 0 255 57 18
-0.056768 0.324313 -0.019282 0 0 255 57 18
-0.054334 0.311340 0.016718 0 0 255 57 18
-0.113827 0.355030 -0.024681 0 0 255 57 18
-0.119082 0.337789 -0.027281 0 0 255 57 18
-0.074984 0.295876 -0.030048 0 0 255 57 18
-0.056108 0.363313 -0.032265 0 0 255 57 18
-0.048806 0.338818 0.038718 0 0 255 57 18
-0.066042 0.323475 -0.019282 0 0 255 57 18
-0.031349 0.330344 -0.023934 0 0 255 57 18
-0.032317 0.326462 -0.030082 0 0 255 57 18
-0.099025 0.331725 0.032719 0 0 255 57 18
-0.068519 0.314877 0.058718 0 0 255 57 18
-0.084479 0.308549 0.004718 0 0 255 57 18
-0.058302 0.362783 0.054718 0 0 255 57 18
-0.119150 0.333683 0.028991 0 0 255 57 18
-0.097062 0.356134 -0.031282 0 0 255 57 18
-0.245324 0.344530 -0.023282 255 255 255 0 0
0.280738 -0.009245 -0.009282 255 255 255 0 0
-0.317503 -0.089847 -0.031282 255 255 255 0 0
0.163366 0.375527 0.094718 255 255 255 0 0
-0.573045 0.145913 0.086718 255 255 255 0 0
-0.008727 0.139992 -0.017282 255 255 255 0 0
-0.383865 0.123480 -0.030274 255 255 255 0 0
0.182905 0.156278 -0.005282 255 255 255 0 0
-0.192284 0.135489 -0.031282 255 255 255 0 0
-0.066382 0.384424 -0.027281 255 255 255 0 0
0.102255 -0.001846 -0.036260 255 255 255 0 0
-0.520623 0.071006 -0.030246 255 255 255 0 0
-0.443800 0.147642 0.142718 255 255 255 0 0
-0.220092 0.003228 -0.025282 255 255 255 0 0
0.002877 0.277475 -0.023282 255 255 255 0 0
0.285506 0.109118 -0.003282 255 255 255 0 0
-0.112273 0.282500 -0.023282 255 255 255 0 0
-0.312280 0.049978 -0.015282 255 255 255 0 0
-0.377180 0.130058 0.070718 255 255 255 0 0
0.075408 0.093481 -0.033282 255 255 255 0 0
-0.222711 -0.093966 -0.027281 255 255 255 0 0
0.010061 -0.011839 -0.031282 255 255 255 0 0
-0.100596 0.143547 -0.020218 255 255 255 0 0
0.068418 0.184857 -0.035282 255 255 255 0 0
0.194421 -0.004213 -0.036242 255 255 255 0 0
-0.559959 0.144712 -0.030239 255 255 255 0 0
0.159255 0.375576 0.013745 255 255 255 0 0
-0.441069 0.067661 -0.030225 255 255 255 0 0
-0.506113 0.149837 0.108718 255 255 255 0 0
-0.315781 -0.021292 -0.023282 255 255 255 0 0
0.272481 0.052590 -0.036228 255 255 255 0 0
0.051785 0.035473 -0.036269 255 255 255 0 0
0.119622 0.150478 -0.036270 255 255 255 0 0
0.244514 0.155363 -0.003282 255 255 255 0 0
-0.379136 0.064586 -0.027281 255 255 255 0 0
-0.253606 0.050688 -0.017282 255 255 255 0 0
-0.576853 0.072658 -0.021282 255 255 255 0 0
0.116287 0.054431 -0.036208 255 255 255 0 0
-0.056320 0.279796 -0.023282 255 255 255 0 0
0.014641 0.093178 -0.019282 255 255 255 0 0
-0.377349 0.133081 0.020718 255 255 255 0 0
0.054630 0.137825 -0.036235 255 255 255 0 0
-0.221997 -0.045752 -0.025282 255 255 255 0 0
0.241474 -0.005638 -0.036249 255 255 255 0 0
-0.489417 0.149797 0.152718 255 255 255 0 0
-0.054548 0.142372 -0.019282 255 255 255 0 0
0.149308 -0.003271 -0.036241 255 255 255 0 0
0.276530 0.151502 -0.033282 255 255 255 0 0
0.118196 0.103425 -0.036272 255 255 255 0 0
0.156398 0.376288 0.054718 255 255 255 0 0
0.282679 0.035619 -0.002384 255 255 255 0 0
0.273912 0.091397 -0.036256 255 255 255 0 0
-0.572082 0.137428 0.049778 255 255 255 0 0
-0.561391 0.105905 -0.030248 255 255 255 0 0
0.160364 0.156810 -0.034245 255 255 255 0 0
-0.218452 0.038952 -0.019282 255 255 255 0 0
0.272991 0.013300 -0.036176 255 255 255 0 0
0.016207 0.244282 -0.023282 255 255 255 0 0
-0.317297 -0.055954 -0.022303 255 255 255 0 0
-0.313691 0.016378 -0.023282 255 255 255 0 0
-0.475510 0.070064 -0.030275 255 255 255 0 0
0.282895 0.069557 -0.003282 255 255 255 0 0
0.284551 0.142336 -0.002291 255 255 255 0 0
0.051763 0.068458 -0.036229 255 255 255 0 0
0.213723 0.155873 -0.006248 255 255 255 0 0
0.017269 0.124467 -0.019282 255 255 255 0 0
-0.282797 0.052933 -0.017282 255 255 255 0 0
-0.408083 0.067681 -0.030273 255 255 255 0 0
0.075480 0.052238 -0.033282 255 255 255 0 0
-0.027681 0.278920 -0.025282 255 255 255 0 0
-0.549242 0.071957 -0.030227 255 255 255 0 0
0.051737 0.109689 -0.036265 255 255 255 0 0
-0.084439 0.282753 -0.023282 255 255 255 0 0
0.155094 0.156062 -0.005282 255 255 255 0 0
0.074059 0.021674 -0.033282 255 255 255 0 0
0.076677 0.151846 -0.033282 255 255 255 0 0
-0.376374 0.136991 0.046719 255 255 255 0 0
0.075443 0.118207 -0.033282 255 255 255 0 0
-0.222033 -0.021090 -0.023282 255 255 255 0 0
-0.504665 0.151537 0.133695 255 255 255 0 0
0.275837 0.115652 -0.036251 255 255 255 0 0
-0.223953 -0.070129 -0.023282 255 255 255 0 0
-0.465393 0.151976 0.152718 255 255 255 0 0
-0.031674 0.142853 -0.019282 255 255 255 0 0
-0.078041 0.143071 -0.019282 255 255 255 0 0
0.055582 0.166444 -0.036226 255 255 255 0 0
0.280993 0.012324 -0.003282 255 255 255 0 0
0.171623 -0.004713 -0.036163 255 255 255 0 0
-0.498308 0.069564 -0.030185 255 255 255 0 0
0.216735 -0.005654 -0.036194 255 255 255 0 0
0.263788 -0.007080 -0.036173 255 255 255 0 0
-0.571584 0.131155 0.070718 255 255 255 0 0
0.265716 0.153216 -0.005282 255 255 255 0 0
-0.191342 0.155866 -0.027281 255 255 255 0 0
0.075529 0.072838 -0.032304 255 255 255 0 0
-0.231272 0.049325 -0.031282 255 255 255 0 0
-0.086648 0.385355 -0.027281 255 255 255 0 0
0.159490 0.376517 0.034718 255 255 255 0 0
0.054661 0.088348 -0.036255 255 255 255 0 0
0.159255 0.375576 0.075747 255 255 255 0 0
-0.562347 0.085531 -0.030205 255 255 255 0 0
0.010216 0.141565 -0.017282 255 255 255 0 0
-0.315315 -0.002857 -0.023282 255 255 255 0 0
0.272007 0.034157 -0.036221 255 255 255 0 0
-0.560917 0.124338 -0.030223 255 255 255 0 0
0.115466 0.166877 -0.029282 255 255 255 0 0
-0.220857 0.021001 -0.023282 255 255 255 0 0
-0.317501 -0.073306 -0.023282 255 255 255 0 0
-0.313473 0.033786 -0.021475 255 255 255 0 0
