ply
format ascii 1.0
element vertex 1137
property float x
property float y
property float z
property uchar red
property uchar green
property uchar blue
property uchar semantic_label
property uchar instance_label
end_header
-2.688607 -2.540816 0.004288 255 0 0 62 7
-2.751583 -2.572413 0.021417 255 0 0 62 7
-2.688807 -2.589846 0.012288 255 0 0 62 7
-2.793084 -2.642604 0.024288 255 0 0 62 7
-2.684483 -2.603033 0.028686 255 0 0 62 7
-2.825431 -2.515822 0.023470 255 0 0 62 7
-2.803307 -2.632983 0.017311 255 0 0 62 7
-2.718421 -2.522211 0.028874 255 0 0 62 7
-2.774719 -2.604300 0.028510 255 0 0 62 7
-2.687120 -2.528864 0.019290 255 0 0 62 7
-2.837415 -2.533722 0.028805 255 0 0 62 7
-2.677154 -2.578170 0.024288 255 0 0 62 7
-2.716077 -2.588139 0.028758 255 0 0 62 7
-2.777705 -2.618352 0.028288 255 0 0 62 7
-2.830128 -2.547539 0.021329 255 0 0 62 7
-2.686312 -2.611638 0.016288 255 0 0 62 7
-2.712716 -2.554094 0.028288 255 0 0 62 7
-2.809072 -2.525434 0.028346 255 0 0 62 7
-2.823701 -2.632737 0.003261 255 0 0 62 7
-2.774813 -2.547028 0.021370 255 0 0 62 7
-2.681997 -2.562668 0.016288 255 0 0 62 7
-2.698007 -2.618560 0.019347 255 0 0 62 7
-2.751904 -2.631640 0.028408 255 0 0 62 7
-2.763368 -2.541282 0.021385 255 0 0 62 7
-2.838500 -2.603011 0.006288 255 0 0 62 7
-2.715903 -2.618846 0.028288 255 0 0 62 7
-2.711321 -2.633102 0.028288 255 0 0 62 7
-2.730168 -2.534026 0.028288 255 0 0 62 7
-2.755653 -2.634933 0.016288 255 0 0 62 7
-2.690305 -2.630421 0.028573 255 0 0 62 7
-2.838104 -2.623541 0.003493 255 0 0 62 7
-2.809492 -2.642842 0.010288 255 0 0 62 7
-2.702213 -2.609488 0.028015 255 0 0 62 7
-2.693310 -2.634939 0.016288 255 0 0 62 7
-2.700181 -2.571071 0.019340 255 0 0 62 7
-2.748268 -2.643392 0.020288 255 0 0 62 7
-2.772246 -2.573427 0.028288 255 0 0 62 7
-2.675206 -2.633630 0.020288 255 0 0 62 7
-2.783900 -2.541681 0.028288 255 0 0 62 7
-2.746055 -2.536784 0.027808 255 0 0 62 7
-2.832113 -2.614592 0.028416 255 0 0 62 7
-2.816668 -2.613785 0.028288 255 0 0 62 7
-2.838738 -2.578424 0.028117 255 0 0 62 7
-2.774473 -2.583905 0.021357 255 0 0 62 7
-2.789830 -2.588819 0.028771 255 0 0 62 7
-2.678463 -2.526615 0.027349 255 0 0 62 7
-2.713341 -2.642604 0.010288 255 0 0 62 7
-2.701918 -2.632042 0.004288 255 0 0 62 7
-2.688538 -2.516294 0.021416 255 0 0 62 7
-2.681043 -2.625325 0.004288 255 0 0 62 7
-2.796871 -2.554608 0.028931 255 0 0 62 7
-2.703630 -2.596918 0.028542 255 0 0 62 7
-2.761365 -2.570334 0.028533 255 0 0 62 7
-2.680816 -2.624259 0.028479 255 0 0 62 7
-2.791816 -2.520923 0.028288 255 0 0 62 7
-2.792080 -2.580163 0.021382 255 0 0 62 7
-2.842036 -2.526606 0.021389 255 0 0 62 7
-2.791755 -2.565919 0.028288 255 0 0 62 7
-2.773829 -2.633114 0.028288 255 0 0 62 7
-2.809809 -2.586617 0.028705 255 0 0 62 7
-2.679198 -2.610290 0.006288 255 0 0 62 7
-2.731822 -2.527541 0.019316 255 0 0 62 7
-2.815508 -2.603808 0.021391 255 0 0 62 7
-2.789413 -2.634953 0.016288 255 0 0 62 7
-2.745469 -2.553266 0.028366 255 0 0 62 7
-2.731809 -2.642914 0.022288 255 0 0 62 7
-2.748304 -2.528127 0.021362 255 0 0 62 7
-2.802352 -2.618873 0.028661 255 0 0 62 7
-2.706826 -2.549211 0.020288 255 0 0 62 7
-2.706267 -2.522749 0.028302 255 0 0 62 7
-2.718161 -2.540228 0.028288 255 0 0 62 7
-2.759191 -2.617823 0.021425 255 0 0 62 7
-2.735177 -2.610660 0.021413 255 0 0 62 7
-2.787241 -2.634353 0.028531 255 0 0 62 7
-2.837027 -2.599234 0.028437 255 0 0 62 7
-2.681034 -2.577185 0.011068 255 0 0 62 7
-2.829930 -2.642801 0.020288 255 0 0 62 7
-2.817975 -2.548078 0.021383 255 0 0 62 7
-2.696609 -2.535026 0.028587 255 0 0 62 7
-2.767158 -2.530253 0.021357 255 0 0 62 7
-2.721899 -2.615527 0.019332 255 0 0 62 7
-2.687980 -2.600245 0.003300 255 0 0 62 7
-2.742633 -2.578405 0.019316 255 0 0 62 7
-2.754846 -2.520602 0.028288 255 0 0 62 7
-2.728041 -2.552881 0.020288 255 0 0 62 7
-2.740460 -2.625894 0.028471 255 0 0 62 7
-2.713166 -2.574445 0.028664 255 0 0 62 7
-2.726492 -2.540942 0.019321 255 0 0 62 7
-2.707496 -2.624722 0.019290 255 0 0 62 7
-2.804110 -2.569427 0.019294 255 0 0 62 7
-2.711550 -2.537984 0.019316 255 0 0 62 7
-2.824826 -2.628408 0.028568 255 0 0 62 7
-2.709915 -2.597627 0.019311 255 0 0 62 7
-2.679544 -2.565234 0.004288 255 0 0 62 7
-2.758038 -2.554683 0.021377 255 0 0 62 7
-2.744079 -2.633304 0.019371 255 0 0 62 7
-2.732615 -2.574400 0.020288 255 0 0 62 7
-2.843359 -2.630603 0.022288 255 0 0 62 7
-2.813969 -2.516214 0.026288 255 0 0 62 7
-2.722532 -2.570409 0.019288 255 0 0 62 7
-2.688678 -2.579650 0.004288 255 0 0 62 7
-2.737568 -2.516096 0.025095 255 0 0 62 7
-2.817681 -2.556319 0.028532 255 0 0 62 7
-2.725752 -2.595177 0.028288 255 0 0 62 7
-2.832374 -2.571598 0.014288 255 0 0 62 7
-2.679541 -2.550922 0.028502 255 0 0 62 7
-2.835858 -2.542232 0.014288 255 0 0 62 7
-2.811009 -2.621122 0.019296 255 0 0 62 7
-2.773144 -2.558413 0.028288 255 0 0 62 7
-2.712259 -2.531699 0.027929 255 0 0 62 7
-2.676231 -2.602689 0.022288 255 0 0 62 7
-2.838051 -2.562212 0.006288 255 0 0 62 7
-2.736642 -2.569455 0.028653 255 0 0 62 7
-2.833067 -2.609460 0.016288 255 0 0 62 7
-2.681895 -2.540198 0.018288 255 0 0 62 7
-2.719328 -2.564956 0.028567 255 0 0 62 7
-2.700588 -2.519867 0.020288 255 0 0 62 7
-2.725443 -2.584103 0.027935 255 0 0 62 7
-2.734931 -2.590265 0.028619 255 0 0 62 7
-2.745251 -2.600340 0.028625 255 0 0 62 7
-2.801493 -2.547492 0.021334 255 0 0 62 7
-2.761317 -2.598969 0.021387 255 0 0 62 7
-2.751413 -2.590851 0.019300 255 0 0 62 7
-2.769388 -2.617701 0.021375 255 0 0 62 7
-2.746206 -2.614450 0.019318 255 0 0 62 7
-2.688406 -2.559261 0.008288 255 0 0 62 7
-2.688473 -2.530621 0.004288 255 0 0 62 7
-2.725641 -2.633134 0.017313 255 0 0 62 7
-2.843102 -2.552960 0.022288 255 0 0 62 7
-2.838124 -2.642872 0.014288 255 0 0 62 7
-2.772527 -2.632470 0.004288 255 0 0 62 7
-2.723978 -2.625308 0.028779 255 0 0 62 7
-2.793129 -2.537001 0.019296 255 0 0 62 7
-2.729034 -2.524044 0.028611 255 0 0 62 7
-2.784701 -2.603165 0.028288 255 0 0 62 7
-2.820365 -2.535301 0.020288 255 0 0 62 7
-2.688269 -2.549066 0.010288 255 0 0 62 7
-2.684115 -2.572441 0.028689 255 0 0 62 7
-2.739477 -2.544316 0.028240 255 0 0 62 7
-2.738626 -2.636507 0.003624 255 0 0 62 7
-2.821547 -2.584123 0.028258 255 0 0 62 7
-2.694265 -2.600954 0.028449 255 0 0 62 7
-2.831708 -2.588097 0.014288 255 0 0 62 7
-2.762424 -2.642654 0.016288 255 0 0 62 7
-2.712335 -2.570532 0.019332 255 0 0 62 7
-2.690074 -2.595710 0.020288 255 0 0 62 7
-2.702723 -2.554173 0.028001 255 0 0 62 7
-2.760779 -2.586816 0.028195 255 0 0 62 7
-2.823040 -2.610386 0.021371 255 0 0 62 7
-2.689568 -2.569237 0.019332 255 0 0 62 7
-2.779215 -2.635074 0.016288 255 0 0 62 7
-2.734091 -2.634411 0.012288 255 0 0 62 7
-2.722192 -2.607286 0.028882 255 0 0 62 7
-2.765183 -2.626773 0.019294 255 0 0 62 7
-2.815064 -2.534384 0.028833 255 0 0 62 7
-2.815848 -2.566932 0.021347 255 0 0 62 7
-2.806019 -2.597646 0.019296 255 0 0 62 7
-2.787535 -2.616497 0.028288 255 0 0 62 7
-2.679282 -2.542798 0.006288 255 0 0 62 7
-2.838001 -2.517240 0.005452 255 0 0 62 7
-2.770606 -2.642671 0.008288 255 0 0 62 7
-2.836271 -2.634155 0.028578 255 0 0 62 7
-2.830199 -2.634446 0.010288 255 0 0 62 7
-2.716493 -2.590095 0.019332 255 0 0 62 7
-2.779633 -2.588942 0.028639 255 0 0 62 7
-2.723118 -2.553927 0.028497 255 0 0 62 7
-2.688799 -2.522373 0.012288 255 0 0 62 7
-2.835997 -2.546291 0.028798 255 0 0 62 7
-2.819767 -2.643083 0.018288 255 0 0 62 7
-2.757915 -2.544486 0.028793 255 0 0 62 7
-2.771515 -2.598847 0.021373 255 0 0 62 7
-2.724611 -2.580191 0.019288 255 0 0 62 7
-2.840408 -2.615141 0.010288 255 0 0 62 7
-2.772489 -2.516852 0.021400 255 0 0 62 7
-2.721946 -2.634987 0.008288 255 0 0 62 7
-2.790860 -2.641762 0.005353 255 0 0 62 7
-2.818314 -2.597773 0.028288 255 0 0 62 7
-2.751782 -2.621443 0.028317 255 0 0 62 7
-2.743426 -2.562895 0.028288 255 0 0 62 7
-2.712523 -2.609896 0.028288 255 0 0 62 7
-2.691917 -2.642346 0.006288 255 0 0 62 7
-2.799196 -2.584784 0.028288 255 0 0 62 7
-2.679084 -2.630761 0.012288 255 0 0 62 7
-2.811813 -2.557566 0.021386 255 0 0 62 7
-2.681712 -2.589309 0.018288 255 0 0 62 7
-2.758161 -2.564881 0.021363 255 0 0 62 7
-2.747185 -2.642867 0.006288 255 0 0 62 7
-2.696541 -2.643408 0.014288 255 0 0 62 7
-2.748673 -2.558719 0.021395 255 0 0 62 7
-2.713946 -2.525207 0.020288 255 0 0 62 7
-2.835241 -2.581212 0.003289 255 0 0 62 7
-2.734694 -2.584182 0.020288 255 0 0 62 7
-2.688521 -2.559236 0.028288 255 0 0 62 7
-2.839578 -2.534281 0.010288 255 0 0 62 7
-2.681525 -2.617974 0.010893 255 0 0 62 7
-2.791909 -2.598601 0.021364 255 0 0 62 7
-2.687536 -2.530820 0.028318 255 0 0 62 7
-2.783036 -2.524834 0.028288 255 0 0 62 7
-2.789802 -2.521351 0.019296 255 0 0 62 7
-2.827047 -2.552283 0.028605 255 0 0 62 7
-2.831007 -2.522816 0.021371 255 0 0 62 7
-2.731066 -2.562461 0.019321 255 0 0 62 7
-2.825998 -2.595444 0.021383 255 0 0 62 7
-2.779019 -2.537956 0.021380 255 0 0 62 7
-2.789462 -2.558228 0.021347 255 0 0 62 7
-2.680013 -2.595804 0.004288 255 0 0 62 7
-2.707883 -2.559210 0.021352 255 0 0 62 7
-2.745519 -2.572741 0.028288 255 0 0 62 7
-2.758086 -2.526048 0.021383 255 0 0 62 7
-2.731633 -2.642083 0.005375 255 0 0 62 7
-2.764264 -2.614700 0.028288 255 0 0 62 7
-2.687857 -2.590048 0.003266 255 0 0 62 7
-2.716818 -2.635009 0.016288 255 0 0 62 7
-2.706082 -2.618071 0.028288 255 0 0 62 7
-2.770645 -2.642851 0.020288 255 0 0 62 7
-2.803950 -2.636007 0.008288 255 0 0 62 7
-2.688950 -2.642977 0.024288 255 0 0 62 7
-2.791881 -2.531132 0.028703 255 0 0 62 7
-2.801643 -2.625157 0.021405 255 0 0 62 7
-2.693188 -2.576647 0.028119 255 0 0 62 7
-2.688611 -2.608289 0.008288 255 0 0 62 7
-2.823380 -2.573509 0.021417 255 0 0 62 7
-2.764474 -2.633058 0.028148 255 0 0 62 7
-2.707420 -2.585889 0.028274 255 0 0 62 7
-2.789490 -2.625696 0.028074 255 0 0 62 7
-2.699377 -2.634627 0.028318 255 0 0 62 7
-2.763198 -2.559721 0.028511 255 0 0 62 7
-2.778678 -2.574832 0.021353 255 0 0 62 7
-2.694180 -2.610173 0.020288 255 0 0 62 7
-2.814336 -2.636772 0.028366 255 0 0 62 7
-2.689615 -2.540602 0.028537 255 0 0 62 7
-2.691694 -2.550383 0.019290 255 0 0 62 7
-2.796361 -2.609923 0.021359 255 0 0 62 7
-2.776940 -2.528174 0.021392 255 0 0 62 7
-2.697932 -2.579728 0.019290 255 0 0 62 7
-2.685457 -2.521039 0.028441 255 0 0 62 7
-2.695777 -2.531113 0.019311 255 0 0 62 7
-2.754296 -2.537077 0.021353 255 0 0 62 7
-2.739382 -2.601587 0.019321 255 0 0 62 7
-2.794329 -2.571506 0.021380 255 0 0 62 7
-2.774964 -2.624694 0.021343 255 0 0 62 7
-2.785086 -2.585739 0.021395 255 0 0 62 7
-2.816803 -2.581042 0.021349 255 0 0 62 7
-2.686297 -2.582708 0.028288 255 0 0 62 7
-2.682253 -2.515586 0.003357 255 0 0 62 7
-2.714920 -2.606787 0.020288 255 0 0 62 7
-2.812814 -2.543040 0.028525 255 0 0 62 7
-2.676876 -2.557622 0.022044 255 0 0 62 7
-2.682942 -2.638120 0.004288 255 0 0 62 7
-2.804186 -2.608260 0.028991 255 0 0 62 7
-2.805774 -2.634503 0.028288 255 0 0 62 7
-2.709239 -2.642544 0.020288 255 0 0 62 7
-2.766062 -2.602050 0.028127 255 0 0 62 7
-2.842394 -2.616496 0.022288 255 0 0 62 7
-2.699166 -2.628538 0.020288 255 0 0 62 7
-2.730555 -2.617776 0.019302 255 0 0 62 7
-2.739212 -2.620025 0.021365 255 0 0 62 7
-2.818399 -2.523451 0.028288 255 0 0 62 7
-2.722749 -2.523335 0.019321 255 0 0 62 7
-2.838199 -2.566270 0.028981 255 0 0 62 7
-2.804592 -2.533216 0.028288 255 0 0 62 7
-2.800415 -2.523184 0.028772 255 0 0 62 7
-2.745463 -2.591718 0.028288 255 0 0 62 7
-2.687656 -2.536929 0.012288 255 0 0 62 7
-2.838152 -2.594906 0.010686 255 0 0 62 7
-2.832132 -2.532800 0.006288 255 0 0 62 7
-2.679535 -2.526387 0.004288 255 0 0 62 7
-2.837934 -2.641980 0.005366 255 0 0 62 7
-2.769928 -2.581764 0.028288 255 0 0 62 7
-2.838358 -2.627577 0.014288 255 0 0 62 7
-2.763376 -2.522077 0.028288 255 0 0 62 7
-2.735272 -2.553389 0.028498 255 0 0 62 7
-2.837097 -2.525611 0.014288 255 0 0 62 7
-2.777685 -2.566865 0.028288 255 0 0 62 7
-2.755571 -2.610414 0.019300 255 0 0 62 7
-2.730310 -2.597382 0.021390 255 0 0 62 7
-2.756743 -2.577450 0.027944 255 0 0 62 7
-2.799735 -2.596938 0.028618 255 0 0 62 7
-2.826168 -2.577006 0.028759 255 0 0 62 7
-2.774010 -2.610584 0.021431 255 0 0 62 7
-2.688463 -2.626723 0.010288 255 0 0 62 7
-2.824343 -2.635758 0.016288 255 0 0 62 7
-2.770192 -2.554145 0.021394 255 0 0 62 7
-2.693310 -2.586844 0.019332 255 0 0 62 7
-2.811227 -2.574048 0.021342 255 0 0 62 7
-2.733608 -2.545563 0.019304 255 0 0 62 7
-2.839957 -2.516824 0.021347 255 0 0 62 7
-2.816708 -2.638313 0.007733 255 0 0 62 7
-2.765523 -2.589897 0.021369 255 0 0 62 7
-2.835744 -2.552479 0.014288 255 0 0 62 7
-2.703309 -2.537691 0.021378 255 0 0 62 7
-2.824798 -2.560940 0.028441 255 0 0 62 7
-2.777875 -2.638388 0.007693 255 0 0 62 7
-2.682068 -2.572876 0.018288 255 0 0 62 7
-2.800583 -2.566087 0.028288 255 0 0 62 7
-2.680644 -2.556821 0.010288 255 0 0 62 7
-2.830080 -2.537693 0.028288 255 0 0 62 7
-2.778849 -2.556394 0.021388 255 0 0 62 7
-2.751611 -2.639881 0.027529 255 0 0 62 7
-2.764493 -2.536954 0.028356 255 0 0 62 7
-2.782100 -2.533212 0.028366 255 0 0 62 7
-2.818541 -2.627700 0.021366 255 0 0 62 7
-2.832029 -2.522599 0.008288 255 0 0 62 7
-2.807730 -2.576836 0.028606 255 0 0 62 7
-2.690598 -2.622180 0.028264 255 0 0 62 7
-2.831819 -2.622833 0.028710 255 0 0 62 7
-2.698688 -2.544807 0.028805 255 0 0 62 7
-2.804573 -2.542747 0.028289 255 0 0 62 7
-2.686733 -2.594376 0.028554 255 0 0 62 7
-2.834286 -2.567102 0.021361 255 0 0 62 7
-2.704018 -2.531406 0.028743 255 0 0 62 7
-2.836734 -2.607475 0.028337 255 0 0 62 7
-2.732219 -2.625601 0.028373 255 0 0 62 7
-2.753710 -2.553559 0.028743 255 0 0 62 7
-2.719130 -2.515926 0.021366 255 0 0 62 7
-2.756035 -2.583735 0.021393 255 0 0 62 7
-2.706173 -2.580021 0.019311 255 0 0 62 7
-2.783054 -2.547321 0.021399 255 0 0 62 7
-2.705709 -2.606700 0.019354 255 0 0 62 7
-2.689861 -2.560996 0.019318 255 0 0 62 7
-2.790832 -2.574294 0.028340 255 0 0 62 7
-2.722069 -2.597089 0.019330 255 0 0 62 7
-2.681869 -2.617901 0.020288 255 0 0 62 7
-2.842347 -2.598103 0.022288 255 0 0 62 7
-2.740065 -2.643278 0.020288 255 0 0 62 7
-2.778631 -2.603468 0.021354 255 0 0 62 7
-2.831803 -2.598300 0.006288 255 0 0 62 7
-2.797164 -2.546367 0.028389 255 0 0 62 7
-2.681544 -2.521870 0.021323 255 0 0 62 7
-2.699104 -2.546763 0.019311 255 0 0 62 7
-2.743806 -2.545441 0.021418 255 0 0 62 7
-2.830985 -2.565759 0.008288 255 0 0 62 7
-2.677587 -2.639258 0.014288 255 0 0 62 7
-2.839862 -2.574095 0.010721 255 0 0 62 7
-2.833407 -2.591825 0.021312 255 0 0 62 7
-2.753701 -2.635348 0.008288 255 0 0 62 7
-2.682074 -2.597411 0.020288 255 0 0 62 7
-2.809241 -2.588783 0.020288 255 0 0 62 7
-2.688812 -2.604158 0.019311 255 0 0 62 7
-2.837613 -2.582752 0.021180 255 0 0 62 7
-2.739489 -2.530001 0.020288 255 0 0 62 7
-2.682159 -2.572857 0.003479 255 0 0 62 7
-2.839978 -2.545782 0.008288 255 0 0 62 7
-2.738674 -2.607872 0.028156 255 0 0 62 7
-2.698007 -2.618560 0.028178 255 0 0 62 7
-2.833899 -2.632614 0.003338 255 0 0 62 7
-2.768065 -2.572999 0.021386 255 0 0 62 7
-2.719356 -2.632425 0.028767 255 0 0 62 7
-2.843132 -2.534551 0.022288 255 0 0 62 7
-2.783914 -2.618703 0.021423 255 0 0 62 7
-2.792278 -2.629193 0.021364 255 0 0 62 7
-2.840604 -2.635278 0.016288 255 0 0 62 7
-2.683246 -2.616450 0.028288 255 0 0 62 7
-2.747718 -2.544609 0.028715 255 0 0 62 7
-2.809904 -2.529346 0.021363 255 0 0 62 7
-2.730433 -2.607579 0.028049 255 0 0 62 7
-2.686211 -2.635381 0.012288 255 0 0 62 7
-2.842908 -2.561180 0.022288 255 0 0 62 7
-2.779340 -2.597183 0.028430 255 0 0 62 7
-2.779564 -2.627098 0.028288 255 0 0 62 7
-2.758898 -2.626064 0.028011 255 0 0 62 7
-2.795236 -2.614251 0.028188 255 0 0 62 7
-2.812011 -2.606596 0.028445 255 0 0 62 7
-2.810593 -2.619166 0.028203 255 0 0 62 7
-2.784009 -2.561431 0.028011 255 0 0 62 7
-2.819250 -2.621415 0.028297 255 0 0 62 7
-2.737814 -2.536491 0.028406 255 0 0 62 7
-2.809318 -2.545828 0.021360 255 0 0 62 7
-2.808240 -2.521521 0.021397 255 0 0 62 7
-2.725934 -2.624892 0.019318 255 0 0 62 7
-2.688673 -2.579651 0.012288 255 0 0 62 7
-2.824335 -2.587619 0.021377 255 0 0 62 7
-2.801786 -2.539251 0.021363 255 0 0 62 7
-2.831791 -2.555364 0.021329 255 0 0 62 7
-2.786504 -2.573169 0.021373 255 0 0 62 7
-2.746915 -2.608165 0.028661 255 0 0 62 7
-2.804145 -2.643028 0.016288 255 0 0 62 7
-2.832007 -2.579854 0.012288 255 0 0 62 7
-2.746679 -2.635917 0.012288 255 0 0 62 7
-2.785625 -2.642875 0.020288 255 0 0 62 7
-2.689766 -2.618267 0.019306 255 0 0 62 7
-2.747057 -2.522258 0.028231 255 0 0 62 7
-2.678143 -2.544347 0.024288 255 0 0 62 7
-2.722041 -2.529620 0.028795 255 0 0 62 7
-2.836369 -2.574838 0.020288 255 0 0 62 7
-2.680530 -2.532309 0.022288 255 0 0 62 7
-2.798270 -2.638143 0.028213 255 0 0 62 7
-2.826509 -2.540130 0.021334 255 0 0 62 7
-2.720183 -2.554551 0.020288 255 0 0 62 7
-2.814647 -2.614215 0.020288 255 0 0 62 7
-2.789755 -2.549987 0.028726 255 0 0 62 7
-2.800475 -2.576333 0.020288 255 0 0 62 7
-2.758236 -2.603714 0.028517 255 0 0 62 7
-2.700181 -2.571071 0.028711 255 0 0 62 7
-2.717788 -2.548093 0.028288 255 0 0 62 7
-2.706494 -2.639248 0.027513 255 0 0 62 7
-2.810716 -2.629363 0.021358 255 0 0 62 7
-2.698102 -2.561289 0.028794 255 0 0 62 7
-2.773467 -2.550313 0.028288 255 0 0 62 7
-2.780236 -2.611019 0.028288 255 0 0 62 7
-2.737826 -2.522175 0.020288 255 0 0 62 7
-2.789537 -2.597060 0.028579 255 0 0 62 7
-2.753124 -2.570041 0.028630 255 0 0 62 7
-2.676488 -2.623135 0.022168 255 0 0 62 7
-2.682499 -2.535980 0.003388 255 0 0 62 7
-2.759824 -2.572706 0.021357 255 0 0 62 7
-2.679883 -2.591011 0.010288 255 0 0 62 7
-2.767991 -2.543791 0.028288 255 0 0 62 7
-2.811585 -2.643071 0.018288 255 0 0 62 7
-2.707124 -2.603733 0.028288 255 0 0 62 7
-2.681327 -2.568944 0.010641 255 0 0 62 7
-2.686657 -2.555543 0.015162 255 0 0 62 7
-2.763765 -2.639343 0.009623 255 0 0 62 7
-2.771194 -2.539619 0.021375 255 0 0 62 7
-2.789414 -2.634960 0.008288 255 0 0 62 7
-2.696392 -2.635261 0.008288 255 0 0 62 7
-2.772081 -2.613039 0.028288 255 0 0 62 7
-2.830033 -2.604810 0.021357 255 0 0 62 7
-2.826045 -2.566809 0.019294 255 0 0 62 7
-2.803354 -2.604347 0.021404 255 0 0 62 7
-2.718226 -2.642888 0.016288 255 0 0 62 7
-2.803156 -2.555317 0.021363 255 0 0 62 7
-2.706078 -2.637292 0.007664 255 0 0 62 7
-2.797654 -2.635245 0.012288 255 0 0 62 7
-2.794839 -2.516191 0.021347 255 0 0 62 7
-2.796455 -2.552652 0.019296 255 0 0 62 7
-2.831391 -2.582341 0.028288 255 0 0 62 7
-2.772520 -2.632433 0.020288 255 0 0 62 7
-2.768093 -2.640467 0.026876 255 0 0 62 7
-2.682067 -2.525849 0.014288 255 0 0 62 7
-2.723392 -2.641790 0.005352 255 0 0 62 7
-2.824014 -2.528392 0.021324 255 0 0 62 7
-2.818467 -2.566375 0.028288 255 0 0 62 7
-2.834750 -2.540423 0.021411 255 0 0 62 7
-2.681402 -2.607777 0.020672 255 0 0 62 7
-2.694114 -2.523288 0.019311 255 0 0 62 7
-2.820281 -2.549311 0.028288 255 0 0 62 7
-2.824035 -2.614264 0.028288 255 0 0 62 7
-2.831504 -2.606542 0.008288 255 0 0 62 7
-2.754043 -2.598471 0.020288 255 0 0 62 7
-2.750265 -2.529755 0.028288 255 0 0 62 7
-2.762730 -2.634472 0.018288 255 0 0 62 7
-2.689357 -2.601997 0.012288 255 0 0 62 7
-2.776818 -2.643034 0.016288 255 0 0 62 7
-2.757357 -2.628437 0.019289 255 0 0 62 7
-2.681854 -2.581100 0.018288 255 0 0 62 7
-2.680257 -2.631246 0.026288 255 0 0 62 7
-2.712921 -2.554050 0.019330 255 0 0 62 7
-2.680618 -2.642703 0.020288 255 0 0 62 7
-2.831234 -2.639315 0.027344 255 0 0 62 7
-2.718709 -2.581283 0.028288 255 0 0 62 7
-2.832593 -2.620624 0.008288 255 0 0 62 7
-2.830156 -2.615007 0.021405 255 0 0 62 7
-2.711824 -2.625847 0.028767 255 0 0 62 7
-2.705115 -2.642379 0.014288 255 0 0 62 7
-2.769308 -2.530748 0.028288 255 0 0 62 7
-2.803987 -2.559229 0.028848 255 0 0 62 7
-2.756245 -2.642444 0.020288 255 0 0 62 7
-2.691968 -2.638246 0.028900 255 0 0 62 7
-2.725348 -2.641375 0.025802 255 0 0 62 7
-2.680072 -2.567166 0.022288 255 0 0 62 7
-2.828631 -2.521256 0.028288 255 0 0 62 7
-2.815604 -2.642737 0.024288 255 0 0 62 7
-2.681081 -2.548550 0.010771 255 0 0 62 7
-2.735011 -2.616829 0.028288 255 0 0 62 7
-2.735838 -2.633011 0.028146 255 0 0 62 7
-2.694704 -2.516443 0.026288 255 0 0 62 7
-2.699179 -2.585596 0.028416 255 0 0 62 7
-2.752134 -2.642338 0.014288 255 0 0 62 7
-2.814846 -2.581457 0.028424 255 0 0 62 7
-2.752755 -2.539449 0.028522 255 0 0 62 7
-2.768358 -2.564758 0.028682 255 0 0 62 7
-2.790076 -2.609214 0.027950 255 0 0 62 7
-2.833795 -2.526313 0.028434 255 0 0 62 7
-2.804772 -2.591778 0.028804 255 0 0 62 7
-2.792495 -2.582119 0.028372 255 0 0 62 7
-2.747794 -2.583442 0.019289 255 0 0 62 7
-2.801936 -2.616916 0.021373 255 0 0 62 7
-2.687342 -2.545174 0.016288 255 0 0 62 7
-2.776136 -2.591730 0.021393 255 0 0 62 7
-2.775059 -2.567423 0.021358 255 0 0 62 7
-2.702846 -2.564370 0.019311 255 0 0 62 7
-2.828323 -2.625621 0.021347 255 0 0 62 7
-2.711040 -2.593299 0.028682 255 0 0 62 7
-2.790246 -2.590776 0.021367 255 0 0 62 7
-2.763075 -2.549523 0.021377 255 0 0 62 7
-2.746376 -2.596011 0.019316 255 0 0 62 7
-2.809802 -2.634683 0.012288 255 0 0 62 7
-2.781977 -2.523014 0.021349 255 0 0 62 7
-2.698886 -2.593837 0.019304 255 0 0 62 7
-2.714489 -2.619146 0.019311 255 0 0 62 7
-2.731529 -2.535782 0.019304 255 0 0 62 7
-2.786872 -2.603761 0.021363 255 0 0 62 7
-2.767451 -2.522012 0.021379 255 0 0 62 7
-2.684578 -2.545762 0.028529 255 0 0 62 7
-2.823333 -2.602145 0.021381 255 0 0 62 7
-2.785719 -2.540621 0.021359 255 0 0 62 7
-2.702927 -2.516655 0.026288 255 0 0 62 7
-2.754466 -2.518638 0.021391 255 0 0 62 7
-2.727985 -2.567205 0.028622 255 0 0 62 7
-2.837150 -2.609432 0.003416 255 0 0 62 7
-2.681740 -2.603616 0.004288 255 0 0 62 7
-2.806775 -2.562726 0.021358 255 0 0 62 7
-2.832877 -2.544910 0.008288 255 0 0 62 7
-2.763198 -2.559721 0.021382 255 0 0 62 7
-2.804016 -2.626698 0.027947 255 0 0 62 7
-2.707761 -2.549013 0.027982 255 0 0 62 7
-2.688743 -2.618485 0.012288 255 0 0 62 7
-2.837031 -2.603323 0.020288 255 0 0 62 7
-2.792436 -2.528970 0.020288 255 0 0 62 7
-2.836907 -2.566545 0.012288 255 0 0 62 7
-2.840061 -2.623126 0.021868 255 0 0 62 7
-2.816705 -2.590200 0.028288 255 0 0 62 7
-2.836829 -2.550204 0.020954 255 0 0 62 7
-2.836512 -2.587076 0.028288 255 0 0 62 7
-2.681525 -2.617974 0.003543 255 0 0 62 7
-2.776940 -2.528174 0.028482 255 0 0 62 7
-2.776197 -2.543921 0.028288 255 0 0 62 7
-2.686364 -2.563784 0.003422 255 0 0 62 7
-2.831029 -2.537124 0.012288 255 0 0 62 7
-2.785672 -2.569256 0.028656 255 0 0 62 7
-2.688574 -2.631898 0.020288 255 0 0 62 7
-2.780155 -2.635859 0.028288 255 0 0 62 7
-2.833578 -2.573387 0.028396 255 0 0 62 7
-2.741925 -2.584689 0.028541 255 0 0 62 7
-2.818962 -2.605119 0.028288 255 0 0 62 7
-2.831649 -2.641271 0.011994 255 0 0 62 7
-2.681818 -2.609733 0.028627 255 0 0 62 7
-2.681521 -2.607752 0.012288 255 0 0 62 7
-2.815859 -2.518885 0.020288 255 0 0 62 7
-2.827638 -2.545442 0.028288 255 0 0 62 7
-2.791149 -2.643120 0.016288 255 0 0 62 7
-2.712314 -2.543956 0.028288 255 0 0 62 7
-2.747390 -2.567170 0.020288 255 0 0 62 7
-2.798780 -2.582828 0.021420 255 0 0 62 7
-2.766901 -2.515995 0.026288 255 0 0 62 7
-2.724365 -2.559796 0.021421 255 0 0 62 7
-2.743411 -2.625267 0.020288 255 0 0 62 7
-2.832738 -2.516314 0.022288 255 0 0 62 7
-2.825091 -2.552699 0.021343 255 0 0 62 7
-2.693656 -2.607711 0.028288 255 0 0 62 7
-2.778212 -2.582257 0.028288 255 0 0 62 7
-2.839023 -2.588587 0.008288 255 0 0 62 7
-2.700672 -2.611860 0.019318 255 0 0 62 7
-2.746471 -2.538740 0.021339 255 0 0 62 7
-2.838076 -2.556073 0.003434 255 0 0 62 7
-2.737198 -2.634766 0.018288 255 0 0 62 7
-2.753046 -2.588914 0.028288 255 0 0 62 7
-2.826287 -2.596803 0.028288 255 0 0 62 7
-2.840047 -2.555724 0.010288 255 0 0 62 7
-2.794742 -2.621546 0.028288 255 0 0 62 7
-2.763444 -2.580115 0.028554 255 0 0 62 7
-2.840259 -2.614441 0.028288 255 0 0 62 7
-2.761929 -2.596795 0.028288 255 0 0 62 7
-2.686780 -2.565740 0.028540 255 0 0 62 7
-2.734682 -2.643480 0.016288 255 0 0 62 7
-2.752906 -2.617115 0.019302 255 0 0 62 7
-2.843812 -2.640774 0.018288 255 0 0 62 7
-2.723827 -2.547643 0.021395 255 0 0 62 7
-2.720207 -2.540233 0.021416 255 0 0 62 7
-2.757698 -2.591560 0.021393 255 0 0 62 7
-2.757940 -2.634447 0.028288 255 0 0 62 7
-2.732975 -2.590681 0.021352 255 0 0 62 7
-2.716616 -2.600292 0.021384 255 0 0 62 7
-2.740385 -2.635163 0.010288 255 0 0 62 7
-2.699603 -2.635690 0.014288 255 0 0 62 7
-2.723874 -2.519007 0.026889 255 0 0 62 7
-2.740242 -2.596012 0.028288 255 0 0 62 7
-2.789765 -2.558163 0.028288 255 0 0 62 7
-2.795482 -2.634646 0.019400 255 0 0 62 7
-2.711748 -2.635110 0.010288 255 0 0 62 7
-2.714588 -2.638851 0.028288 255 0 0 62 7
-2.715217 -2.516758 0.026954 255 0 0 62 7
-2.717956 -2.558502 0.028288 255 0 0 62 7
-2.720205 -2.613842 0.028288 255 0 0 62 7
-2.730317 -2.578174 0.028288 255 0 0 62 7
-2.837072 -2.609448 0.010288 255 0 0 62 7
-2.776817 -2.517977 0.026872 255 0 0 62 7
-2.723406 -2.536042 0.028288 255 0 0 62 7
-2.747505 -2.626442 0.028288 255 0 0 62 7
-2.789216 -2.537833 0.028661 255 0 0 62 7
-2.815583 -2.642641 0.012714 255 0 0 62 7
-2.676426 -2.584363 0.022288 255 0 0 62 7
-2.687649 -2.565556 0.014288 255 0 0 62 7
-2.693386 -2.625677 0.019311 255 0 0 62 7
-2.706570 -2.572272 0.028288 255 0 0 62 7
-2.681949 -2.585169 0.012288 255 0 0 62 7
-2.826905 -2.638190 0.005910 255 0 0 62 7
-2.818085 -2.629841 0.028288 255 0 0 62 7
-2.795642 -2.591673 0.028288 255 0 0 62 7
-2.816311 -2.540252 0.021375 255 0 0 62 7
-2.799250 -2.642757 0.022288 255 0 0 62 7
-2.710761 -2.587224 0.020288 255 0 0 62 7
-2.708224 -2.522334 0.019316 255 0 0 62 7
-2.688087 -2.596133 0.008288 255 0 0 62 7
-2.837566 -2.611388 0.020504 255 0 0 62 7
-2.726284 -2.602327 0.028288 255 0 0 62 7
-2.833845 -2.559017 0.010288 255 0 0 62 7
-2.680019 -2.595803 0.026288 255 0 0 62 7
-2.831315 -2.630077 0.028288 255 0 0 62 7
-2.685323 -2.520408 0.006288 255 0 0 62 7
-2.719410 -2.594202 0.028288 255 0 0 62 7
-2.736935 -2.561214 0.028544 255 0 0 62 7
-2.708661 -2.559045 0.028288 255 0 0 62 7
-2.682126 -2.534015 0.016288 255 0 0 62 7
-2.712318 -2.580759 0.028288 255 0 0 62 7
-2.823305 -2.534676 0.028630 255 0 0 62 7
-2.833334 -2.585707 0.008288 255 0 0 62 7
-2.679589 -2.632699 0.004288 255 0 0 62 7
-2.690459 -2.640764 0.012288 255 0 0 62 7
-2.688493 -2.530617 0.012288 255 0 0 62 7
-2.724758 -2.542402 0.028288 255 0 0 62 7
-2.694898 -2.555836 0.028088 255 0 0 62 7
-2.742804 -2.559966 0.019289 255 0 0 62 7
-2.741046 -2.609412 0.019321 255 0 0 62 7
-2.728401 -2.569162 0.021380 255 0 0 62 7
-2.840080 -2.527022 0.027834 255 0 0 62 7
-2.758782 -2.617910 0.028288 255 0 0 62 7
-2.697318 -2.528741 0.027930 255 0 0 62 7
-2.836706 -2.540007 0.028231 255 0 0 62 7
-2.687524 -2.622833 0.004288 255 0 0 62 7
-2.690997 -2.643299 0.018288 255 0 0 62 7
-2.811888 -2.596399 0.021361 255 0 0 62 7
-2.812351 -2.569720 0.028413 255 0 0 62 7
-2.680299 -2.558939 0.004288 255 0 0 62 7
-2.734194 -2.529081 0.028643 255 0 0 62 7
-2.796162 -2.560893 0.028520 255 0 0 62 7
-2.765353 -2.608335 0.028521 255 0 0 62 7
-2.768567 -2.642695 0.014288 255 0 0 62 7
-2.712968 -2.525414 0.028505 255 0 0 62 7
-2.750459 -2.576741 0.028521 255 0 0 62 7
-2.682745 -2.556375 0.028149 255 0 0 62 7
-2.681965 -2.542228 0.012288 255 0 0 62 7
-2.718619 -2.571241 0.028251 255 0 0 62 7
-2.704831 -2.631423 0.028610 255 0 0 62 7
-2.809598 -2.537529 0.028288 255 0 0 62 7
-2.731727 -2.584812 0.028199 255 0 0 62 7
-2.751952 -2.603005 0.028260 255 0 0 62 7
-2.836061 -2.603529 0.012288 255 0 0 62 7
-2.742851 -2.531331 0.028396 255 0 0 62 7
-2.836395 -2.627994 0.008288 255 0 0 62 7
-2.748578 -2.615990 0.028179 255 0 0 62 7
-2.773008 -2.625110 0.028537 255 0 0 62 7
-2.784160 -2.639097 0.007571 255 0 0 62 7
-2.681450 -2.579142 0.003365 255 0 0 62 7
-2.687340 -2.573800 0.014288 255 0 0 62 7
-2.822964 -2.571553 0.028659 255 0 0 62 7
-2.834608 -2.626329 0.021435 255 0 0 62 7
-2.759994 -2.554268 0.028227 255 0 0 62 7
-2.828909 -2.609139 0.028514 255 0 0 62 7
-2.746451 -2.634844 0.028491 255 0 0 62 7
-2.798194 -2.599310 0.021403 255 0 0 62 7
-2.773348 -2.588233 0.028578 255 0 0 62 7
-2.777629 -2.617994 0.021375 255 0 0 62 7
-2.825535 -2.622124 0.028344 255 0 0 62 7
-2.798166 -2.531841 0.028749 255 0 0 62 7
-2.688741 -2.551011 0.004288 255 0 0 62 7
-2.807390 -2.613713 0.028310 255 0 0 62 7
-2.799999 -2.521228 0.021315 255 0 0 62 7
-2.731973 -2.605207 0.021344 255 0 0 62 7
-2.695021 -2.566033 0.019290 255 0 0 62 7
-2.824722 -2.522107 0.021370 255 0 0 62 7
-2.759749 -2.533873 0.021390 255 0 0 62 7
-2.680816 -2.624259 0.010914 255 0 0 62 7
-2.712259 -2.531699 0.019302 255 0 0 62 7
-2.710841 -2.544269 0.019330 255 0 0 62 7
-2.785795 -2.579454 0.021369 255 0 0 62 7
-2.789169 -2.566469 0.021361 255 0 0 62 7
-2.831083 -2.561649 0.028424 255 0 0 62 7
-2.745100 -2.522674 0.021406 255 0 0 62 7
-2.786258 -2.552774 0.021355 255 0 0 62 7
-2.702723 -2.554173 0.019297 255 0 0 62 7
-2.726369 -2.530745 0.019333 255 0 0 62 7
-2.749381 -2.552434 0.021368 255 0 0 62 7
-2.687829 -2.522579 0.019354 255 0 0 62 7
-2.712656 -2.629760 0.019340 255 0 0 62 7
-2.736519 -2.559257 0.019304 255 0 0 62 7
-2.704292 -2.619269 0.019304 255 0 0 62 7
-2.749532 -2.630100 0.019318 255 0 0 62 7
-2.706882 -2.573736 0.019297 255 0 0 62 7
-2.771515 -2.598847 0.028504 255 0 0 62 7
-2.728240 -2.635741 0.010288 255 0 0 62 7
-2.773396 -2.559598 0.021358 255 0 0 62 7
-2.808609 -2.552113 0.021341 255 0 0 62 7
-2.798582 -2.533798 0.021349 255 0 0 62 7
-2.692772 -2.574690 0.019318 255 0 0 62 7
-2.790907 -2.613127 0.021347 255 0 0 62 7
-2.796333 -2.542454 0.021413 255 0 0 62 7
-2.822392 -2.636198 0.010288 255 0 0 62 7
-2.690324 -2.534317 0.019354 255 0 0 62 7
-2.771269 -2.578452 0.021378 255 0 0 62 7
-2.789074 -2.623740 0.021365 255 0 0 62 7
-2.682253 -2.515586 0.021400 255 0 0 62 7
-2.827217 -2.533845 0.021337 255 0 0 62 7
-2.743342 -2.572120 0.019302 255 0 0 62 7
-2.831083 -2.561649 0.021347 255 0 0 62 7
-2.817266 -2.554362 0.021395 255 0 0 62 7
-2.727352 -2.612323 0.019316 255 0 0 62 7
-2.770806 -2.605131 0.021400 255 0 0 62 7
-2.788555 -2.515482 0.021333 255 0 0 62 7
-2.768529 -2.546320 0.021371 255 0 0 62 7
-2.687026 -2.586135 0.017172 255 0 0 62 7
-2.840061 -2.623126 0.010196 255 0 0 62 7
-2.745743 -2.641129 0.025708 255 0 0 62 7
-2.769637 -2.618872 0.028288 255 0 0 62 7
-2.823824 -2.642934 0.023377 255 0 0 62 7
-2.797211 -2.517731 0.026930 255 0 0 62 7
-2.731699 -2.517344 0.026868 255 0 0 62 7
-2.692530 -2.583173 0.028288 255 0 0 62 7
-2.784355 -2.640018 0.026288 255 0 0 62 7
-2.739874 -2.642376 0.005316 255 0 0 62 7
-2.805263 -2.632567 0.003259 255 0 0 62 7
-2.836038 -2.527881 0.020288 255 0 0 62 7
-2.762830 -2.529129 0.028514 255 0 0 62 7
-2.764443 -2.642530 0.022288 255 0 0 62 7
-2.756233 -2.632765 0.003239 255 0 0 62 7
-2.679909 -2.581514 0.028725 255 0 0 62 7
-2.778440 -2.573710 0.028288 255 0 0 62 7
-2.767000 -2.587227 0.028288 255 0 0 62 7
-2.680783 -2.628355 0.020288 255 0 0 62 7
-2.778168 -2.630147 0.021390 255 0 0 62 7
-2.833232 -2.614354 0.012288 255 0 0 62 7
-2.756280 -2.604129 0.021388 255 0 0 62 7
-2.825658 -2.632321 0.021355 255 0 0 62 7
-2.829665 -2.574218 0.021348 255 0 0 62 7
-2.816878 -2.619874 0.021348 255 0 0 62 7
-2.798396 -2.566552 0.020288 255 0 0 62 7
-2.838832 -2.521153 0.010138 255 0 0 62 7
-2.737189 -2.595919 0.020288 255 0 0 62 7
-2.831722 -2.602406 0.028288 255 0 0 62 7
-2.710152 -2.564862 0.020288 255 0 0 62 7
-3.052082 -2.533607 0.216288 0 255 0 83 8
-3.071763 -2.645440 0.003421 0 255 0 83 8
-3.118737 -2.428942 0.014288 0 255 0 83 8
-3.026494 -2.692190 0.312288 0 255 0 83 8
-3.087073 -2.678990 0.169343 0 255 0 83 8
-3.063957 -2.550999 0.364517 0 255 0 83 8
-3.064543 -2.534517 0.081312 0 255 0 83 8
-3.111275 -2.456169 0.308288 0 255 0 83 8
-3.109519 -2.621057 0.265142 0 255 0 83 8
-3.003900 -2.461530 0.286288 0 255 0 83 8
-2.978986 -2.661071 0.221342 0 255 0 83 8
-3.012290 -2.625366 0.086679 0 255 0 83 8
-2.994113 -2.597567 0.308288 0 255 0 83 8
-3.012672 -2.569446 0.006288 0 255 0 83 8
-2.961994 -2.566538 0.212288 0 255 0 83 8
-3.112080 -2.616423 0.084288 0 255 0 83 8
-3.032239 -2.608858 0.174288 0 255 0 83 8
-3.105285 -2.562661 0.009345 0 255 0 83 8
-3.103480 -2.640743 0.346681 0 255 0 83 8
-3.110128 -2.533006 0.276288 0 255 0 83 8
-3.039297 -2.598512 0.250288 0 255 0 83 8
-3.111739 -2.573784 0.208288 0 255 0 83 8
-3.019207 -2.532857 0.288288 0 255 0 83 8
-3.054899 -2.446601 0.240288 0 255 0 83 8
-3.058731 -2.670701 0.254134 0 255 0 83 8
-3.068777 -2.592913 0.310971 0 255 0 83 8
-3.059608 -2.592817 0.048288 0 255 0 83 8
-3.061871 -2.589281 0.118288 0 255 0 83 8
-3.012191 -2.631521 0.022288 0 255 0 83 8
-3.080947 -2.544354 0.160288 0 255 0 83 8
-3.064471 -2.655168 0.066288 0 255 0 83 8
-3.024930 -2.677886 0.180288 0 255 0 83 8
-3.078634 -2.629666 0.211300 0 255 0 83 8
-3.008939 -2.562693 0.082288 0 255 0 83 8
-3.060432 -2.486318 0.290086 0 255 0 83 8
-2.980993 -2.516602 0.242288 0 255 0 83 8
-3.106432 -2.515390 0.214288 0 255 0 83 8
-3.025236 -2.555140 0.156288 0 255 0 83 8
-3.056945 -2.537249 0.024288 0 255 0 83 8
-3.114346 -2.614909 0.028288 0 255 0 83 8
-3.037552 -2.638399 0.303817 0 255 0 83 8
-3.107866 -2.565185 0.064288 0 255 0 83 8
-3.042712 -2.643436 0.133310 0 255 0 83 8
-3.014952 -2.570555 0.212288 0 255 0 83 8
-3.027770 -2.640478 0.217270 0 255 0 83 8
-3.079165 -2.564829 0.248288 0 255 0 83 8
-3.055687 -2.622276 0.356288 0 255 0 83 8
-3.099095 -2.504681 0.314977 0 255 0 83 8
-3.064392 -2.577487 0.194288 0 255 0 83 8
-3.048087 -2.485956 0.206288 0 255 0 83 8
-3.006985 -2.632628 0.262288 0 255 0 83 8
-3.114896 -2.579020 0.290577 0 255 0 83 8
-3.076113 -2.632247 0.164288 0 255 0 83 8
-3.058551 -2.525567 0.263439 0 255 0 83 8
-3.003121 -2.591849 0.046288 0 255 0 83 8
-3.086243 -2.550029 0.314288 0 255 0 83 8
-3.000108 -2.558436 0.253285 0 255 0 83 8
-3.019339 -2.593198 0.132288 0 255 0 83 8
-3.041526 -2.560903 0.326288 0 255 0 83 8
-3.079805 -2.645775 0.286288 0 255 0 83 8
-3.059915 -2.694986 0.200288 0 255 0 83 8
-3.038557 -2.486879 0.252288 0 255 0 83 8
-3.052342 -2.563691 0.283091 0 255 0 83 8
-3.108271 -2.615188 0.313317 0 255 0 83 8
-3.023190 -2.551596 0.044288 0 255 0 83 8
-2.990928 -2.607415 0.176288 0 255 0 83 8
-2.982052 -2.569681 0.336288 0 255 0 83 8
-3.052125 -2.610765 0.085106 0 255 0 83 8
-3.084324 -2.483285 0.257459 0 255 0 83 8
-3.072961 -2.604291 0.272288 0 255 0 83 8
-3.073595 -2.585755 0.156288 0 255 0 83 8
-3.028221 -2.681276 0.220288 0 255 0 83 8
-3.055199 -2.654088 0.190288 0 255 0 83 8
-3.028111 -2.603601 0.287686 0 255 0 83 8
-3.044427 -2.651506 0.032288 0 255 0 83 8
-3.007953 -2.605841 0.228288 0 255 0 83 8
-3.046318 -2.585418 0.364288 0 255 0 83 8
-3.098858 -2.647859 0.239395 0 255 0 83 8
-3.096652 -2.637479 0.054288 0 255 0 83 8
-2.996461 -2.483558 0.255506 0 255 0 83 8
-3.098244 -2.596873 0.237415 0 255 0 83 8
-3.056699 -2.632284 0.242530 0 255 0 83 8
-3.098910 -2.604910 0.178288 0 255 0 83 8
-3.023419 -2.494955 0.288288 0 255 0 83 8
-3.039773 -2.562273 0.239242 0 255 0 83 8
-3.041507 -2.604843 0.210288 0 255 0 83 8
-3.050572 -2.670796 0.290288 0 255 0 83 8
-3.123350 -2.561075 0.256288 0 255 0 83 8
-3.082486 -2.541974 0.050288 0 255 0 83 8
-3.069845 -2.453647 0.273025 0 255 0 83 8
-3.023527 -2.528922 0.252288 0 255 0 83 8
-3.049009 -2.528770 0.168288 0 255 0 83 8
-3.012083 -2.635633 0.160288 0 255 0 83 8
-3.029634 -2.646216 0.064288 0 255 0 83 8
-3.015711 -2.583745 0.332523 0 255 0 83 8
-2.990269 -2.546215 0.208288 0 255 0 83 8
-3.085918 -2.542241 0.222288 0 255 0 83 8
-3.073803 -2.472264 0.226288 0 255 0 83 8
-3.084075 -2.510972 0.282288 0 255 0 83 8
-3.054366 -2.611689 0.144288 0 255 0 83 8
-3.086998 -2.640157 0.087459 0 255 0 83 8
-3.081592 -2.614725 0.335055 0 255 0 83 8
-3.025963 -2.680075 0.268288 0 255 0 83 8
-3.066166 -2.667205 0.140288 0 255 0 83 8
-3.086641 -2.561523 0.282288 0 255 0 83 8
-3.009672 -2.603431 0.003367 0 255 0 83 8
-3.064511 -2.587685 0.228288 0 255 0 83 8
-3.115518 -2.581945 0.036288 0 255 0 83 8
-3.073247 -2.508130 0.211386 0 255 0 83 8
-3.066235 -2.609810 0.186611 0 255 0 83 8
-3.016662 -2.665174 0.296288 0 255 0 83 8
-3.032902 -2.578047 0.185432 0 255 0 83 8
-3.001724 -2.594897 0.081860 0 255 0 83 8
-3.031702 -2.543542 0.005345 0 255 0 83 8
-3.006761 -2.589737 0.256246 0 255 0 83 8
-3.037471 -2.647640 0.272288 0 255 0 83 8
-3.036933 -2.548914 0.074288 0 255 0 83 8
-3.009538 -2.622036 0.054288 0 255 0 83 8
-3.041371 -2.584425 0.154288 0 255 0 83 8
-3.068805 -2.660381 0.225821 0 255 0 83 8
-3.089096 -2.553834 0.087239 0 255 0 83 8
-2.987785 -2.577413 0.227221 0 255 0 83 8
-3.098842 -2.469975 0.282288 0 255 0 83 8
-3.037967 -2.640355 0.003389 0 255 0 83 8
-3.106165 -2.631993 0.196288 0 255 0 83 8
-3.098197 -2.625508 0.003484 0 255 0 83 8
-3.111933 -2.532622 0.320288 0 255 0 83 8
-3.080732 -2.543344 0.005345 0 255 0 83 8
-3.018332 -2.663411 0.148288 0 255 0 83 8
-3.076167 -2.648593 0.034288 0 255 0 83 8
-3.045085 -2.634753 0.164288 0 255 0 83 8
-3.110275 -2.586137 0.087912 0 255 0 83 8
-3.024831 -2.559315 0.270806 0 255 0 83 8
-3.108782 -2.604856 0.056288 0 255 0 83 8
-3.048758 -2.617614 0.114288 0 255 0 83 8
-3.064504 -2.587687 0.340288 0 255 0 83 8
-3.038878 -2.586921 0.310288 0 255 0 83 8
-3.100812 -2.580093 0.262288 0 255 0 83 8
-3.008841 -2.599518 0.198944 0 255 0 83 8
-3.057471 -2.679148 0.174288 0 255 0 83 8
-3.090920 -2.668227 0.270288 0 255 0 83 8
-3.083047 -2.621572 0.250288 0 255 0 83 8
-3.013614 -2.661889 0.202288 0 255 0 83 8
-3.042260 -2.559700 0.206288 0 255 0 83 8
-3.053963 -2.616508 0.292288 0 255 0 83 8
-3.069747 -2.559000 0.336288 0 255 0 83 8
-3.048477 -2.535887 0.289928 0 255 0 83 8
-3.052805 -2.537012 0.053288 0 255 0 83 8
-3.076574 -2.523781 0.307199 0 255 0 83 8
-3.104869 -2.560705 0.233168 0 255 0 83 8
-3.062587 -2.496455 0.236288 0 255 0 83 8
-3.002338 -2.645883 0.228554 0 255 0 83 8
-3.022470 -2.631381 0.188288 0 255 0 83 8
-2.996521 -2.531938 0.262288 0 255 0 83 8
-3.052400 -2.559589 0.162288 0 255 0 83 8
-3.055071 -2.576528 0.258288 0 255 0 83 8
-3.028327 -2.624002 0.246288 0 255 0 83 8
-3.046331 -2.650845 0.087153 0 255 0 83 8
-3.102626 -2.555047 0.036288 0 255 0 83 8
-3.051570 -2.630737 0.204919 0 255 0 83 8
-3.036569 -2.556820 0.353280 0 255 0 83 8
-3.030284 -2.556111 0.298026 0 255 0 83 8
-3.062955 -2.565524 0.309833 0 255 0 83 8
-3.009691 -2.507327 0.261804 0 255 0 83 8
-3.026970 -2.616112 0.148288 0 255 0 83 8
-3.056719 -2.613141 0.324288 0 255 0 83 8
-2.977676 -2.550936 0.240288 0 255 0 83 8
-3.090071 -2.654614 0.210288 0 255 0 83 8
-3.092366 -2.578837 0.176288 0 255 0 83 8
-3.110540 -2.510427 0.291298 0 255 0 83 8
-3.060753 -2.545546 0.245384 0 255 0 83 8
-3.084301 -2.579372 0.212288 0 255 0 83 8
-3.061836 -2.637216 0.268288 0 255 0 83 8
-3.052825 -2.590169 0.286288 0 255 0 83 8
-3.039153 -2.660550 0.166288 0 255 0 83 8
-3.077321 -2.536913 0.282288 0 255 0 83 8
-3.008720 -2.570094 0.032288 0 255 0 83 8
-3.043610 -2.508296 0.276288 0 255 0 83 8
-3.067577 -2.558408 0.212944 0 255 0 83 8
-3.098439 -2.635680 0.028288 0 255 0 83 8
-3.069268 -2.633702 0.139374 0 255 0 83 8
-3.014206 -2.571797 0.058288 0 255 0 83 8
-3.076338 -2.669003 0.190288 0 255 0 83 8
-3.062738 -2.612598 0.223176 0 255 0 83 8
-3.037544 -2.696079 0.284288 0 255 0 83 8
-3.078783 -2.639987 0.188288 0 255 0 83 8
-3.049539 -2.468187 0.276288 0 255 0 83 8
-3.029435 -2.633990 0.042288 0 255 0 83 8
-3.051228 -2.592553 0.176288 0 255 0 83 8
-3.011442 -2.607144 0.028288 0 255 0 83 8
-3.060555 -2.496515 0.261234 0 255 0 83 8
-3.082451 -2.647623 0.258288 0 255 0 83 8
-3.092712 -2.445793 0.282288 0 255 0 83 8
-3.103996 -2.479640 0.312288 0 255 0 83 8
-3.087950 -2.606161 0.302288 0 255 0 83 8
-3.074856 -2.592655 0.250288 0 255 0 83 8
-3.042327 -2.660866 0.220288 0 255 0 83 8
-3.045827 -2.546674 0.266288 0 255 0 83 8
-3.061849 -2.521841 0.238288 0 255 0 83 8
-3.088167 -2.655276 0.162288 0 255 0 83 8
-3.054491 -2.467985 0.252288 0 255 0 83 8
-3.052956 -2.614678 0.262713 0 255 0 83 8
-3.002386 -2.617248 0.280543 0 255 0 83 8
-3.101461 -2.554291 0.264288 0 255 0 83 8
-3.041559 -2.580296 0.218793 0 255 0 83 8
-3.063740 -2.593983 0.072288 0 255 0 83 8
-3.028554 -2.587149 0.268288 0 255 0 83 8
-3.106959 -2.556171 0.304288 0 255 0 83 8
-3.043828 -2.677548 0.202288 0 255 0 83 8
-3.057239 -2.577107 0.138288 0 255 0 83 8
-3.023539 -2.616841 0.268288 0 255 0 83 8
-3.035964 -2.669406 0.309229 0 255 0 83 8
-3.083697 -2.487507 0.286288 0 255 0 83 8
-3.077756 -2.548583 0.028288 0 255 0 83 8
-3.041291 -2.694469 0.186288 0 255 0 83 8
-3.078020 -2.578680 0.268601 0 255 0 83 8
-3.067705 -2.554291 0.268288 0 255 0 83 8
-3.066229 -2.657884 0.170288 0 255 0 83 8
-3.038847 -2.615632 0.309696 0 255 0 83 8
-3.001246 -2.586820 0.018288 0 255 0 83 8
-3.044373 -2.510178 0.252288 0 255 0 83 8
-3.058050 -2.590542 0.094288 0 255 0 83 8
-3.076186 -2.589293 0.289345 0 255 0 83 8
-3.061925 -2.512582 0.289386 0 255 0 83 8
-3.034546 -2.681976 0.159609 0 255 0 83 8
-3.014114 -2.588174 0.302288 0 255 0 83 8
-3.068899 -2.588797 0.364288 0 255 0 83 8
-3.054660 -2.641931 0.050288 0 255 0 83 8
-3.067863 -2.598231 0.206288 0 255 0 83 8
-3.081057 -2.623017 0.282288 0 255 0 83 8
-3.017888 -2.550568 0.022288 0 255 0 83 8
-3.058278 -2.649333 0.292288 0 255 0 83 8
-3.113186 -2.599831 0.011474 0 255 0 83 8
-3.066650 -2.611767 0.163443 0 255 0 83 8
-3.050766 -2.508820 0.212288 0 255 0 83 8
-3.023080 -2.571955 0.250288 0 255 0 83 8
-3.061128 -2.566549 0.234288 0 255 0 83 8
-3.025248 -2.618993 0.222288 0 255 0 83 8
-3.046795 -2.624166 0.183670 0 255 0 83 8
-3.021334 -2.650025 0.174288 0 255 0 83 8
-3.022109 -2.590564 0.220288 0 255 0 83 8
-3.045622 -2.671443 0.134288 0 255 0 83 8
-3.078475 -2.638538 0.066288 0 255 0 83 8
-3.094039 -2.605945 0.267350 0 255 0 83 8
-3.030974 -2.645931 0.151328 0 255 0 83 8
-3.020531 -2.625659 0.003335 0 255 0 83 8
-3.072472 -2.639155 0.229613 0 255 0 83 8
-3.039074 -2.626324 0.280288 0 255 0 83 8
-3.030851 -2.635734 0.082901 0 255 0 83 8
-3.115311 -2.587111 0.066288 0 255 0 83 8
-3.039322 -2.540915 0.240288 0 255 0 83 8
-3.094109 -2.528232 0.292288 0 255 0 83 8
-3.102532 -2.632765 0.074288 0 255 0 83 8
-3.046902 -2.599607 0.230288 0 255 0 83 8
-3.038554 -2.546919 0.030288 0 255 0 83 8
-3.078974 -2.592790 0.185090 0 255 0 83 8
-3.076234 -2.548389 0.070288 0 255 0 83 8
-3.041602 -2.599737 0.132288 0 255 0 83 8
-3.053575 -2.579111 0.324288 0 255 0 83 8
-3.061520 -2.654967 0.020288 0 255 0 83 8
-3.070024 -2.598781 0.135235 0 255 0 83 8
-3.009545 -2.603458 0.064288 0 255 0 83 8
-3.020853 -2.641948 0.238288 0 255 0 83 8
-3.107657 -2.564202 0.085156 0 255 0 83 8
-3.068682 -2.650184 0.087433 0 255 0 83 8
-3.085161 -2.566939 0.302288 0 255 0 83 8
-3.017464 -2.552702 0.066288 0 255 0 83 8
-3.065909 -2.607835 0.108288 0 255 0 83 8
-3.099197 -2.620593 0.042288 0 255 0 83 8
-3.029293 -2.595171 0.196288 0 255 0 83 8
-3.033650 -2.528815 0.274288 0 255 0 83 8
-3.054378 -2.650226 0.254288 0 255 0 83 8
-3.049535 -2.656298 0.147709 0 255 0 83 8
-3.060025 -2.647935 0.212125 0 255 0 83 8
-3.026849 -2.645763 0.022288 0 255 0 83 8
-3.052097 -2.543296 0.005312 0 255 0 83 8
-3.046086 -2.630451 0.225214 0 255 0 83 8
-3.071121 -2.526985 0.219043 0 255 0 83 8
-3.121577 -2.629689 0.318288 0 255 0 83 8
-3.014382 -2.545179 0.260288 0 255 0 83 8
-3.050754 -2.594699 0.266721 0 255 0 83 8
-3.106460 -2.580814 0.018288 0 255 0 83 8
-3.114881 -2.607805 0.234288 0 255 0 83 8
-3.059658 -2.574404 0.174288 0 255 0 83 8
-3.049456 -2.569353 0.344288 0 255 0 83 8
-3.049570 -2.592906 0.196288 0 255 0 83 8
-3.071216 -2.553545 0.292288 0 255 0 83 8
-3.060180 -2.639043 0.178288 0 255 0 83 8
-3.029198 -2.515449 0.288288 0 255 0 83 8
-3.017371 -2.476120 0.286288 0 255 0 83 8
-3.037985 -2.662843 0.186288 0 255 0 83 8
-3.050867 -2.551737 0.226288 0 255 0 83 8
-3.074648 -2.562818 0.162288 0 255 0 83 8
-3.007891 -2.579274 0.228288 0 255 0 83 8
-3.067183 -2.632100 0.294288 0 255 0 83 8
-3.057162 -2.605605 0.245734 0 255 0 83 8
-3.000783 -2.584874 0.064288 0 255 0 83 8
-3.046932 -2.570975 0.300288 0 255 0 83 8
-3.047380 -2.607684 0.161951 0 255 0 83 8
-3.101520 -2.571640 0.046288 0 255 0 83 8
-3.071846 -2.472681 0.282288 0 255 0 83 8
-3.082253 -2.637076 0.017392 0 255 0 83 8
-3.070638 -2.649768 0.153325 0 255 0 83 8
-3.014367 -2.635137 0.068288 0 255 0 83 8
-3.084009 -2.616475 0.182288 0 255 0 83 8
-3.057602 -2.607675 0.060288 0 255 0 83 8
-3.000872 -2.571650 0.332288 0 255 0 83 8
-3.097803 -2.623654 0.340288 0 255 0 83 8
-3.043638 -2.628553 0.146288 0 255 0 83 8
-3.016713 -2.569220 0.193355 0 255 0 83 8
-3.091902 -2.557414 0.056288 0 255 0 83 8
-3.079220 -2.613184 0.201769 0 255 0 83 8
-3.024656 -2.596157 0.238288 0 255 0 83 8
-3.073515 -2.514208 0.266288 0 255 0 83 8
-3.048798 -2.643213 0.068288 0 255 0 83 8
-3.067141 -2.537121 0.040288 0 255 0 83 8
-3.057475 -2.593270 0.148288 0 255 0 83 8
-3.058970 -2.575633 0.212288 0 255 0 83 8
-3.050546 -2.584101 0.240288 0 255 0 83 8
-3.055839 -2.560903 0.193292 0 255 0 83 8
-3.041659 -2.565962 0.266288 0 255 0 83 8
-3.034534 -2.542940 0.056288 0 255 0 83 8
-3.093846 -2.544646 0.278288 0 255 0 83 8
-3.041171 -2.645808 0.178745 0 255 0 83 8
-3.108112 -2.623401 0.058288 0 255 0 83 8
-3.069294 -2.572356 0.292288 0 255 0 83 8
-3.094800 -2.522953 0.310288 0 255 0 83 8
-3.073200 -2.536766 0.263327 0 255 0 83 8
-3.028499 -2.554446 0.252288 0 255 0 83 8
-3.081352 -2.669982 0.150288 0 255 0 83 8
-3.036218 -2.468594 0.250288 0 255 0 83 8
-3.027878 -2.632276 0.170288 0 255 0 83 8
-3.050453 -2.545185 0.086288 0 255 0 83 8
-3.025956 -2.554987 0.087591 0 255 0 83 8
-3.010109 -2.629919 0.224288 0 255 0 83 8
-3.069879 -2.621304 0.264288 0 255 0 83 8
-3.025521 -2.649135 0.295291 0 255 0 83 8
-3.082214 -2.559934 0.224288 0 255 0 83 8
-3.036819 -2.615711 0.196288 0 255 0 83 8
-3.039233 -2.665546 0.270288 0 255 0 83 8
-3.074670 -2.649497 0.052288 0 255 0 83 8
-3.030577 -2.644061 0.198288 0 255 0 83 8
-3.041574 -2.532270 0.256288 0 255 0 83 8
-3.111956 -2.600092 0.038288 0 255 0 83 8
-3.005561 -2.555232 0.211225 0 255 0 83 8
-3.073960 -2.684632 0.180288 0 255 0 83 8
-3.051191 -2.625609 0.130288 0 255 0 83 8
-3.086008 -2.544267 0.296288 0 255 0 83 8
-3.017539 -2.621204 0.038288 0 255 0 83 8
-3.108564 -2.600813 0.076288 0 255 0 83 8
-3.046097 -2.654985 0.306288 0 255 0 83 8
-3.085551 -2.633351 0.040288 0 255 0 83 8
-3.055339 -2.558552 0.256288 0 255 0 83 8
-3.058590 -2.544985 0.068288 0 255 0 83 8
-3.060611 -2.631453 0.155708 0 255 0 83 8
-3.063365 -2.626778 0.192288 0 255 0 83 8
-3.059685 -2.672543 0.196288 0 255 0 83 8
-3.099841 -2.569952 0.292288 0 255 0 83 8
-3.073820 -2.607020 0.320288 0 255 0 83 8
-3.057578 -2.607561 0.306987 0 255 0 83 8
-3.040387 -2.613260 0.239339 0 255 0 83 8
-3.054081 -2.610349 0.199269 0 255 0 83 8
-3.012606 -2.578756 0.076288 0 255 0 83 8
-3.054865 -2.642897 0.007279 0 255 0 83 8
-3.059438 -2.548976 0.346288 0 255 0 83 8
-3.061325 -2.577094 0.276288 0 255 0 83 8
-3.083683 -2.552940 0.260288 0 255 0 83 8
-3.046596 -2.575136 0.197474 0 255 0 83 8
-3.005879 -2.616505 0.014288 0 255 0 83 8
-3.002773 -2.609451 0.044288 0 255 0 83 8
-3.057162 -2.605605 0.125640 0 255 0 83 8
-3.038500 -2.648421 0.048288 0 255 0 83 8
-3.094658 -2.634439 0.250288 0 255 0 83 8
-3.053375 -2.592097 0.214288 0 255 0 83 8
-3.003803 -2.612857 0.078288 0 255 0 83 8
-3.029411 -2.572655 0.158288 0 255 0 83 8
-3.057162 -2.605605 0.279313 0 255 0 83 8
-3.054572 -2.651138 0.275392 0 255 0 83 8
-3.082708 -2.658451 0.178288 0 255 0 83 8
-3.088415 -2.627587 0.195157 0 255 0 83 8
-3.092331 -2.651291 0.272288 0 255 0 83 8
-3.080329 -2.498446 0.264288 0 255 0 83 8
-3.034263 -2.603687 0.270288 0 255 0 83 8
-3.057882 -2.556379 0.324288 0 255 0 83 8
-3.006548 -2.521398 0.288288 0 255 0 83 8
-3.077961 -2.491830 0.210288 0 255 0 83 8
-3.057625 -2.578926 0.157414 0 255 0 83 8
-3.097132 -2.553164 0.072288 0 255 0 83 8
-3.059506 -2.539677 0.273510 0 255 0 83 8
-3.014404 -2.606452 0.154288 0 255 0 83 8
-3.051851 -2.522902 0.278674 0 255 0 83 8
-3.053835 -2.589954 0.303105 0 255 0 83 8
-3.011169 -2.586755 0.032288 0 255 0 83 8
-3.030636 -2.582618 0.324288 0 255 0 83 8
-3.059010 -2.643159 0.032288 0 255 0 83 8
-3.060275 -2.480218 0.232288 0 255 0 83 8
-3.017022 -2.652986 0.220288 0 255 0 83 8
-3.011134 -2.586763 0.004288 0 255 0 83 8
-3.049091 -2.586874 0.346802 0 255 0 83 8
-3.109026 -2.588447 0.050288 0 255 0 83 8
-3.056827 -2.498217 0.278288 0 255 0 83 8
-3.065240 -2.659094 0.264288 0 255 0 83 8
-3.045449 -2.606050 0.184288 0 255 0 83 8
-3.098637 -2.566119 0.024288 0 255 0 83 8
-3.062861 -2.622796 0.175490 0 255 0 83 8
-3.073568 -2.576974 0.238288 0 255 0 83 8
