ply
format ascii 1.0
element vertex 1085
property float x
property float y
property float z
property uchar red
property uchar green
property uchar blue
property uchar semantic_label
property uchar instance_label
end_header
-0.701699 1.517540 0.152005 255 255 255 1 15
-0.691296 1.522706 0.170774 255 255 255 1 15
-0.690312 1.518395 0.143583 255 255 254 1 15
-0.882526 1.511151 0.323648 255 255 255 1 15
-0.691663 1.272020 -0.133236 137 108 70 12 4
-0.697247 1.270396 -0.133332 136 104 68 12 4
-0.698492 1.289834 -0.132340 95 77 52 12 4
-0.692021 1.296092 -0.129094 99 79 54 12 4
-0.791053 1.425598 -0.124742 57 43 29 12 4
-0.792291 1.438230 -0.125907 66 51 32 12 4
-0.780797 1.404455 -0.125832 79 62 43 12 4
-0.799818 1.410803 -0.131925 43 32 21 12 4
-0.799677 1.421010 -0.131379 57 46 32 12 4
-0.799759 1.441000 -0.129571 48 37 25 12 4
-1.234473 1.487079 0.154709 221 213 159 1 15
-0.829911 1.511291 0.345483 255 255 254 1 15
-0.770979 1.514664 0.079457 255 255 223 12 4
-0.755492 1.504368 0.076827 255 254 229 12 4
-0.757313 1.518046 0.104156 255 254 243 1 15
-0.774248 1.518279 0.096224 254 255 230 1 15
-0.749209 1.516373 0.092394 254 254 241 12 4
-1.301494 1.406693 0.179440 79 63 38 24 8
-1.307023 1.430105 0.194324 161 128 87 24 8
-1.307450 1.414305 0.180777 111 88 57 24 8
-1.298445 1.409701 0.198461 153 122 82 24 8
-0.812380 1.393368 -0.122767 24 20 12 12 4
-0.793314 1.399056 -0.127581 56 43 25 12 4
-0.795905 1.395764 -0.121530 42 34 21 12 4
-0.799399 1.408961 -0.122848 44 35 24 12 4
-0.808139 1.378945 -0.128267 31 25 15 12 4
-1.288655 1.268213 0.207254 135 104 70 24 8
-1.287752 1.244711 0.198067 134 106 68 24 8
-1.289477 1.209414 0.205640 151 119 72 24 8
-1.290920 1.258529 0.228765 166 131 81 24 8
-1.289777 1.279742 0.278932 186 146 96 24 8
-1.287526 1.294440 0.264860 186 146 95 24 8
-1.289062 1.295433 0.287993 185 149 94 24 8
-1.264203 1.505974 0.150576 120 107 77 1 15
-1.280953 1.523113 0.145692 114 100 72 1 15
-1.271226 1.499527 0.155048 179 160 116 1 15
-1.272011 1.476655 0.144440 110 95 67 1 15
-1.276002 1.495380 0.164272 229 208 148 1 15
-1.258885 1.492724 0.170837 239 218 156 1 15
-1.274265 1.497399 0.150134 117 103 74 1 15
-0.754497 1.349571 -0.132365 118 96 65 12 4
-0.727416 1.340583 -0.130960 124 96 64 12 4
-0.715570 1.347746 -0.126936 90 71 48 12 4
-0.742527 1.356842 -0.128871 124 97 67 12 4
-0.742280 1.376187 -0.133287 116 90 62 12 4
-0.634070 1.246325 -0.002618 49 47 37 0 0
-0.907532 1.512133 0.262966 254 255 255 1 15
-0.878233 1.513552 0.255672 254 255 254 1 15
-0.893789 1.512607 0.235672 254 255 255 1 15
-0.876058 1.514135 0.235734 254 255 252 1 15
-0.725434 1.217039 -0.143801 141 111 76 12 4
-0.907876 1.511668 0.238956 254 255 255 1 15
-0.925254 1.513113 0.257422 254 254 255 1 15
-0.742932 1.494279 -0.117551 60 49 36 12 4
-0.741620 1.473560 -0.131507 63 51 39 12 4
-0.736358 1.477357 -0.123918 47 41 29 12 4
-0.637159 1.518418 0.144390 253 246 199 1 15
-0.652652 1.519389 0.143251 255 254 250 1 15
-0.629716 1.522981 0.154608 255 255 253 1 15
-0.975270 1.508362 0.285186 255 255 255 1 15
-0.987382 1.507972 0.297723 255 255 255 1 15
-0.685101 1.520132 0.265609 254 255 254 1 15
-0.942449 1.501522 0.159678 255 255 252 1 15
-0.967717 1.503090 0.137862 239 238 215 1 15
-0.947575 1.502588 0.139136 239 238 223 1 15
-0.972813 1.495535 0.153838 254 253 242 1 15
-0.953086 1.498207 0.144971 254 255 241 1 15
-0.950157 1.502223 0.153066 254 255 241 1 15
-0.960945 1.503174 0.155317 253 252 245 1 15
-0.612648 1.519616 0.336884 254 255 255 1 15
-0.780454 1.518941 0.174685 255 255 253 1 15
-0.795064 1.519669 0.188748 254 255 253 1 15
-0.777120 1.519682 0.203172 254 255 253 1 15
-1.121489 1.503337 0.294619 255 255 254 1 15
-1.133006 1.499023 0.330329 255 255 255 1 15
-1.126510 1.502657 0.312047 255 255 255 1 15
-1.252771 1.490875 0.315026 255 254 229 1 15
-0.609725 1.509751 0.127334 255 254 224 1 15
-0.614471 1.510750 0.119420 250 246 206 1 15
-0.601621 1.512638 0.112975 239 235 185 1 15
-0.598813 1.511044 0.124210 254 255 223 1 15
-0.613110 1.522281 0.115006 255 253 219 1 15
-0.590361 1.520903 0.134169 254 254 231 1 15
-1.273223 1.489047 0.279675 254 255 207 1 15
-1.285012 1.486848 0.299371 255 254 197 1 15
-1.000502 1.508455 0.281259 255 255 255 1 15
-1.068102 1.502798 0.339723 255 255 255 1 15
-1.022482 1.503022 0.330861 255 255 255 1 15
-0.732290 1.520228 0.254073 254 255 255 1 15
-0.743284 1.516298 0.278987 254 255 254 1 15
-0.706168 1.518811 0.279570 254 255 255 1 15
-0.705243 1.518684 0.312621 253 255 255 1 15
-0.809451 1.518016 0.214134 253 255 254 1 15
-0.678925 1.269786 -0.127165 82 67 45 12 4
-0.685480 1.283703 -0.127444 80 65 43 12 4
-1.002824 1.505168 0.309515 255 255 255 1 15
-1.037808 1.502903 0.310027 255 255 255 1 15
-1.019553 1.505775 0.300400 255 255 255 1 15
-1.304786 1.472132 0.335811 226 187 128 24 8
-1.297453 1.478746 0.338479 251 224 160 1 15
-0.770997 1.520941 0.155241 255 255 254 1 15
-0.757633 1.518526 0.136564 255 255 255 1 15
-0.821126 1.520732 -0.019653 165 133 87 12 4
-0.824830 1.528561 -0.027093 156 127 84 12 4
-0.814499 1.513354 -0.017681 165 132 87 12 4
-0.824179 1.527006 0.003192 168 135 94 12 4
-0.815022 1.516722 0.001525 185 150 106 12 4
-0.714586 1.454921 0.078888 221 203 157 1 15
-0.707592 1.443640 0.072419 245 220 167 1 15
-1.224068 1.489992 0.178106 255 242 187 1 15
-1.206367 1.487908 0.172682 253 249 194 1 15
-1.206259 1.490647 0.181873 253 250 196 1 15
-1.185013 1.497977 0.185315 252 244 184 1 15
-1.225398 1.498264 0.170491 255 248 193 1 15
-0.905902 1.494676 0.127583 127 128 107 1 15
-0.934025 1.489870 0.130020 127 127 111 1 15
-0.915147 1.505808 0.135878 239 239 207 1 15
-0.664310 1.234598 -0.112884 68 57 37 12 4
-0.736573 1.488883 0.073570 254 254 215 1 15
-1.293916 1.481833 0.323448 255 250 187 1 15
-1.286224 1.480533 0.355850 255 238 173 1 15
-1.035383 1.507743 0.227352 255 255 255 1 15
-1.022026 1.506809 0.248774 255 255 255 1 15
-1.003799 1.508369 0.245835 255 255 255 1 15
-1.008251 1.506875 0.268318 255 255 255 1 15
-0.888476 1.509112 0.341461 255 255 255 1 15
-0.798203 1.213311 0.139758 172 155 119 40 9
-0.915809 1.508250 0.340819 255 255 255 1 15
-0.971068 1.506470 0.132980 189 191 160 1 15
-1.069904 1.504675 0.267628 255 255 255 1 15
-1.088959 1.506626 0.285083 255 255 255 1 15
-1.300208 1.393079 0.236639 177 142 93 24 8
-1.285455 1.349272 0.340361 173 137 87 24 8
-1.286192 1.357562 0.332820 176 137 88 24 8
-1.092457 1.506446 0.150324 238 239 200 1 15
-1.125672 1.507001 0.159508 254 254 216 1 15
-1.115931 1.500031 0.162511 254 255 208 1 15
-1.096998 1.490943 0.141579 191 186 140 1 15
-1.103230 1.499624 0.154360 192 191 150 1 15
-1.102571 1.481491 0.144925 238 238 185 1 15
-1.103363 1.504724 0.164092 255 255 214 1 15
-1.307100 1.434054 0.212917 168 136 83 24 8
-1.302566 1.412259 0.222837 174 134 88 24 8
-1.310161 1.432429 0.222532 177 140 91 24 8
-1.297599 1.405790 0.212774 162 129 80 24 8
-1.303258 1.408679 0.235218 178 140 96 24 8
-1.179990 1.496256 0.346378 254 254 242 1 15
-1.299259 1.266888 0.179077 100 79 52 24 8
-1.290826 1.234337 0.185419 102 79 49 24 8
-1.298248 1.260523 0.184706 110 85 59 24 8
-1.291582 1.260837 0.172339 83 66 43 24 8
-1.290875 1.238170 0.177625 92 71 48 24 8
-1.287808 1.257904 0.192208 107 81 53 24 8
-1.283685 1.242860 0.170605 61 51 34 24 8
-0.759965 1.517538 -0.019449 254 233 178 12 4
-0.760643 1.516954 0.007499 254 246 186 12 4
-0.758054 1.520527 -0.007758 252 233 170 12 4
-1.312855 1.448475 0.192029 162 128 87 24 8
-1.315455 1.467366 0.195420 168 132 90 24 8
-1.319030 1.444201 0.181120 134 104 68 24 8
-1.319075 1.450969 0.186494 142 112 71 24 8
-1.310185 1.425048 0.179565 158 125 86 24 8
-1.080496 1.506507 0.223500 255 255 255 1 15
-0.652688 1.521298 0.161357 255 254 254 1 15
-0.663631 1.511859 0.138449 255 254 245 1 15
-0.675789 1.520602 0.158739 255 255 255 1 15
-0.663916 1.519878 0.150261 255 255 251 1 15
-0.605285 1.521249 0.153108 253 253 248 1 15
-0.608251 1.522743 0.161910 255 255 254 1 15
-1.005739 1.510314 0.195203 254 255 251 1 15
-1.033512 1.499225 0.164381 253 254 244 1 15
-1.000639 1.506242 0.174030 254 254 249 1 15
-1.027782 1.508448 0.195836 254 255 254 1 15
-1.017031 1.504245 0.178304 254 255 240 1 15
-1.000326 1.509362 0.184283 254 255 255 1 15
-1.008577 1.498748 0.166073 255 254 249 1 15
-0.643282 1.521036 0.252458 254 255 252 1 15
-0.624205 1.523296 0.240240 255 254 254 1 15
-0.751501 1.436677 -0.141378 86 68 47 12 4
-0.765062 1.412768 -0.125308 109 86 58 12 4
-0.776539 1.418278 -0.126590 91 74 46 12 4
-0.754955 1.411482 -0.133929 109 87 61 12 4
-0.762012 1.433454 -0.130404 115 93 60 12 4
-0.804770 1.506774 0.069021 252 222 166 12 4
-0.797103 1.516212 0.094552 253 255 217 1 15
-0.793287 1.516736 0.081296 255 255 218 12 4
-0.803511 1.503583 0.086975 234 198 143 12 4
-0.802720 1.507249 0.100051 251 225 166 12 4
-0.747001 1.495736 -0.051660 60 54 31 12 4
-0.739329 1.487472 -0.047298 57 48 36 12 4
-0.653185 1.520017 0.266570 254 255 254 1 15
-0.662115 1.522147 0.241223 253 255 254 1 15
-0.797197 1.515902 0.049447 251 230 173 12 4
-0.811890 1.509998 0.031264 201 166 115 12 4
-0.787664 1.514775 0.066564 255 246 192 12 4
-1.255964 1.492260 0.244014 254 254 234 1 15
-1.270772 1.493042 0.234511 254 255 232 1 15
-0.775318 1.368416 -0.127292 84 63 48 12 4
-0.781668 1.361326 -0.124716 55 43 25 12 4
-0.656070 1.206267 -0.138391 102 84 56 12 4
-0.658981 1.220477 -0.137069 96 79 55 12 4
-0.647436 1.225368 -0.118759 64 51 37 12 4
-0.652006 1.241261 -0.124742 74 58 40 12 4
-0.646040 1.227421 -0.130670 51 39 28 12 4
-0.644698 1.211132 -0.132672 40 31 22 12 4
-0.664360 1.242746 -0.123694 69 55 40 12 4
-0.655242 1.225576 -0.131498 49 38 27 12 4
-0.658144 1.231704 -0.119698 67 53 36 12 4
-1.313901 1.469746 0.154194 141 112 77 1 15
-1.309476 1.489994 0.156113 151 123 88 1 15
-1.299574 1.491153 0.155761 149 125 88 1 15
-1.320338 1.469180 0.162300 171 143 103 1 15
-1.305933 1.469995 0.148476 86 67 46 1 15
-0.802602 1.295755 -0.130106 58 45 32 12 4
-0.787793 1.284678 -0.130154 74 61 43 12 4
-0.797864 1.301255 -0.126198 60 50 35 12 4
-0.791457 1.300805 -0.128555 65 54 38 12 4
-1.293079 1.312916 0.238138 183 146 97 24 8
-1.271055 1.490761 0.174647 255 242 179 1 15
-1.273759 1.487001 0.181475 248 226 163 1 15
-1.289932 1.489711 0.189693 242 219 153 1 15
-1.291274 1.493070 0.168315 241 212 149 1 15
-1.286723 1.482448 0.175743 233 205 142 1 15
-1.298492 1.368315 0.234465 180 143 95 24 8
-1.296218 1.388659 0.249109 179 143 91 24 8
-0.685818 1.503052 0.120675 253 253 252 1 15
-0.701319 1.515049 0.131267 255 255 255 1 15
-0.696931 1.507532 0.121844 255 255 255 1 15
-0.680828 1.515515 0.135714 254 254 254 1 15
-1.309639 1.443807 0.311674 172 135 90 24 8
-1.312524 1.444634 0.293765 175 139 87 24 8
-1.276249 1.334250 0.181675 124 97 66 24 8
-1.282210 1.350654 0.191794 136 107 72 24 8
-1.275534 1.346986 0.181004 103 77 46 24 8
-1.291518 1.336479 0.198649 129 99 60 24 8
-0.785125 1.486069 -0.114979 67 53 35 12 4
-0.773559 1.497345 -0.109875 45 35 25 12 4
-0.747878 1.490915 -0.108907 34 30 17 12 4
-0.757485 1.486089 -0.112725 59 52 38 12 4
-0.762089 1.497890 -0.107637 51 39 24 12 4
-0.747561 1.492548 -0.121916 60 48 38 12 4
-0.661844 1.518288 0.331802 254 255 253 1 15
-0.677309 1.515725 0.340284 254 254 255 1 15
-0.659987 1.518829 0.354641 254 255 253 1 15
-0.645573 1.519181 0.338753 254 255 253 1 15
-0.778023 1.502796 -0.076389 56 48 29 12 4
-0.752575 1.505042 -0.079503 60 42 33 12 4
-0.766681 1.501487 -0.070090 62 47 33 12 4
-0.783091 1.502333 -0.064781 64 52 29 12 4
-0.789460 1.518071 0.221341 253 255 255 1 15
-0.777957 1.518921 0.230925 254 255 254 1 15
-1.296855 1.391655 0.320128 173 138 88 24 8
-1.292829 1.360382 0.307440 175 140 91 24 8
-0.817266 1.517216 0.019051 167 134 94 12 4
-0.819519 1.512541 0.027794 173 138 98 12 4
-0.814452 1.513312 0.038769 157 128 90 12 4
-1.166490 1.499399 0.315794 255 255 254 1 15
-1.184841 1.496938 0.290825 255 255 254 1 15
-1.186868 1.495537 0.309956 255 255 254 1 15
-1.291246 1.351563 0.263861 177 141 96 24 8
-1.291771 1.365341 0.251350 176 141 95 24 8
-1.289755 1.332112 0.248953 179 145 94 24 8
-1.293107 1.334778 0.239280 177 144 98 24 8
-1.252989 1.495399 0.221836 254 252 213 1 15
-0.913925 1.479972 0.130714 191 190 162 1 15
-1.268618 1.493153 0.188955 252 238 179 1 15
-1.144294 1.502761 0.212994 254 255 253 1 15
-0.747350 1.496615 -0.091552 47 40 32 12 4
-1.291954 1.350430 0.206919 147 117 72 24 8
-1.296470 1.357697 0.221049 174 139 86 24 8
-0.751394 1.263957 -0.136114 131 103 68 12 4
-0.742801 1.240274 -0.139032 130 100 66 12 4
-0.601364 1.521904 0.277118 254 255 253 1 15
-0.585890 1.522958 0.290682 254 255 253 1 15
-0.622926 1.523182 0.255013 254 254 252 1 15
-0.671862 1.265092 -0.095467 44 40 33 0 0
-0.664149 1.252632 -0.084678 45 41 35 0 0
-0.680502 1.522150 0.248639 255 255 252 1 15
-0.692338 1.522533 0.223909 254 255 254 1 15
-0.702698 1.520671 0.244596 254 255 253 1 15
-0.701213 1.518928 0.258235 255 255 248 1 15
-0.627350 1.522417 0.227801 255 255 253 1 15
-0.634761 1.523744 0.216317 255 255 255 1 15
-0.605233 1.523615 0.203665 255 255 254 1 15
-1.302008 1.494290 0.163350 227 195 138 1 15
-0.785319 1.253935 -0.130643 39 32 16 12 4
-0.802549 1.282022 -0.131948 41 34 18 12 4
-0.810337 1.288402 -0.126121 51 41 27 12 4
-0.801914 1.253964 -0.124679 53 45 30 12 4
-0.796131 1.263097 -0.131044 39 29 17 12 4
-0.817151 1.261135 -0.121184 40 34 23 12 4
-0.812967 1.247137 -0.123754 22 18 13 12 4
-0.725071 1.367831 -0.131135 103 82 58 12 4
-0.746544 1.390707 -0.135277 117 90 62 12 4
-0.732706 1.382146 -0.130693 110 86 63 12 4
-0.738431 1.515928 0.128957 255 255 255 1 15
-0.728875 1.507013 0.120918 247 247 247 1 15
-0.717227 1.509982 0.127085 255 254 251 1 15
-0.728859 1.515481 0.128547 255 255 250 1 15
-0.795572 1.509747 0.114481 254 254 235 1 15
-0.790342 1.515428 0.127409 255 254 235 1 15
-0.805930 1.509877 0.133155 252 239 179 1 15
-0.788205 1.518666 0.093606 254 255 247 1 15
-0.631471 1.523111 0.264627 254 255 253 1 15
-0.626239 1.521861 0.276914 254 255 254 1 15
-1.138136 1.500599 0.318032 255 255 255 1 15
-0.960476 1.512289 0.194459 254 255 252 1 15
-0.943390 1.514420 0.188229 252 255 255 1 15
-0.964111 1.510424 0.180098 254 255 254 1 15
-0.772328 1.513764 0.339087 255 255 255 1 15
-1.145222 1.498624 0.335709 255 254 253 1 15
-1.154855 1.496879 0.354789 255 254 238 1 15
-1.292215 1.386351 0.333108 170 132 85 24 8
-1.286796 1.356475 0.349567 163 128 83 24 8
-1.285343 1.313546 0.318058 180 143 92 24 8
-0.971978 1.509079 0.303843 255 255 255 1 15
-0.959113 1.508009 0.328121 255 255 255 1 15
-0.932272 1.508720 0.314748 255 255 255 1 15
-1.287613 1.489182 0.226585 254 246 182 1 15
-1.286576 1.492168 0.212170 252 242 180 1 15
-1.279000 1.491180 0.201532 255 252 200 1 15
-0.672530 1.221168 -0.137777 137 107 80 12 4
-0.665884 1.232303 -0.135346 110 89 61 12 4
-0.746032 1.474552 -0.135979 74 60 43 12 4
-0.771826 1.462871 -0.124732 84 63 48 12 4
-0.767444 1.479135 -0.121122 100 77 52 12 4
-0.755062 1.475159 -0.118048 100 78 56 12 4
-0.627394 1.245772 -0.052703 49 42 37 0 0
-0.602327 1.251428 -0.053372 41 40 31 0 0
-0.620792 1.246583 -0.041599 43 43 29 0 0
-0.607906 1.252198 -0.030299 48 41 30 0 0
-0.721334 1.447463 0.043175 251 238 184 1 15
-0.727152 1.459388 0.048453 253 241 188 1 15
-0.723663 1.451982 0.069034 255 253 209 1 15
-0.731365 1.465982 0.062069 255 251 205 1 15
-1.288133 1.308960 0.295736 182 145 97 24 8
-1.289722 1.313116 0.272578 183 146 93 24 8
-1.305079 1.417247 0.301367 173 138 88 24 8
-1.302931 1.400869 0.310410 172 138 89 24 8
-1.305862 1.414900 0.315233 173 137 88 24 8
-1.283756 1.236079 0.335670 181 144 96 24 8
-1.284295 1.261266 0.328163 186 148 98 24 8
-1.284069 1.282226 0.329067 182 146 96 24 8
-1.283683 1.257227 0.349560 184 146 96 24 8
-0.637949 1.239525 -0.031372 42 38 34 0 0
-0.614973 1.523426 0.183797 255 255 253 1 15
-0.583972 1.525687 0.202376 255 255 255 1 15
-1.308675 1.453903 0.330398 173 134 86 24 8
-1.306273 1.439939 0.330495 170 133 79 24 8
-1.306602 1.444400 0.347682 164 128 82 24 8
-1.304671 1.448595 0.367600 174 136 86 24 8
-1.259269 1.490627 0.274078 255 254 233 1 15
-1.250423 1.489028 0.300474 255 253 233 1 15
-1.244114 1.492614 0.259951 255 254 235 1 15
-1.266376 1.489285 0.321233 255 254 225 1 15
-1.271165 1.489277 0.309096 255 254 228 1 15
-0.848340 1.513285 0.332845 255 255 255 1 15
-0.870696 1.510106 0.361340 255 255 255 1 15
-0.859807 1.511634 0.353540 255 255 255 1 15
-0.649045 1.269218 -0.057504 16 19 14 0 0
-0.645959 1.258630 -0.044617 43 43 35 0 0
-0.632860 1.249715 -0.042274 43 43 34 0 0
-0.642642 1.247179 -0.038612 43 41 35 0 0
-1.315317 1.455389 0.224748 176 137 91 24 8
-1.312252 1.455451 0.208659 173 138 89 24 8
-1.312856 1.443201 0.201338 165 130 83 24 8
-0.968947 1.515854 0.132448 127 128 106 1 15
-1.292085 1.326946 0.206557 138 108 67 24 8
-1.292199 1.303386 0.219189 147 115 73 24 8
-1.295254 1.333460 0.220689 179 140 96 24 8
-1.121096 1.500116 0.174505 254 254 225 1 15
-1.295311 1.373290 0.219577 169 131 87 24 8
-1.296624 1.391431 0.220944 169 131 82 24 8
-1.288564 1.368851 0.205057 151 119 72 24 8
-0.608219 1.258220 0.042252 49 39 24 0 0
-0.602393 1.264894 0.040479 53 43 29 0 0
-0.598245 1.272419 0.047374 38 31 24 0 0
-0.947624 1.511921 0.268576 255 255 255 1 15
-0.956148 1.512902 0.249378 255 255 255 1 15
-1.236769 1.492479 0.293082 254 255 238 1 15
-1.235858 1.494696 0.316067 255 255 233 1 15
-0.765584 1.331597 -0.129762 109 88 57 12 4
-0.773196 1.327936 -0.127605 97 76 50 12 4
-0.782697 1.311379 -0.128090 50 39 25 12 4
-0.896559 1.502095 0.124114 128 127 101 1 15
-0.902208 1.506213 0.132578 192 191 163 1 15
-1.319804 1.483184 0.180112 182 150 105 1 15
-1.320330 1.459402 0.186250 137 108 69 24 8
-1.309204 1.487780 0.171266 196 167 114 1 15
-1.297675 1.487027 0.177291 232 200 143 1 15
-1.313642 1.476419 0.192400 177 147 101 1 15
-1.302110 1.479229 0.179578 232 203 148 1 15
-1.313445 1.483262 0.170938 179 150 103 1 15
-1.086765 1.505393 0.297488 255 255 254 1 15
-1.071650 1.505037 0.304644 255 255 254 1 15
-1.085851 1.504352 0.314370 255 255 254 1 15
-0.607617 1.250527 -0.062384 50 46 30 0 0
-0.620803 1.244171 -0.072949 46 41 40 0 0
-0.614027 1.246423 -0.086584 52 47 32 0 0
-0.623221 1.241652 -0.088612 59 52 45 0 0
-0.628481 1.240047 -0.064656 42 43 35 0 0
-0.926272 1.512098 0.240434 255 255 248 1 15
-0.952908 1.511932 0.220567 254 255 252 1 15
-0.993537 1.497664 0.153091 254 255 248 1 15
-0.972999 1.505425 0.162861 255 254 248 1 15
-0.992690 1.504759 0.145177 239 238 213 1 15
-0.983113 1.497745 0.154668 253 252 232 1 15
-0.993067 1.503268 0.139976 253 253 236 1 15
-0.977259 1.502994 0.145198 255 253 236 1 15
-0.724060 1.522894 0.210881 254 255 253 1 15
-0.748001 1.520102 0.224491 255 255 246 1 15
-0.722172 1.521043 0.230922 254 255 253 1 15
-0.876285 1.515825 0.206320 254 255 253 1 15
-1.290437 1.336445 0.303324 176 140 91 24 8
-1.289403 1.359773 0.322966 174 139 91 24 8
-1.288429 1.319716 0.303962 179 142 95 24 8
-1.293127 1.377904 0.316986 175 139 92 24 8
-1.284601 1.338485 0.322506 175 141 90 24 8
-0.649330 1.224842 -0.073707 47 44 42 0 0
-0.656896 1.230457 -0.086555 75 69 69 0 0
-0.649956 1.228613 -0.063888 41 37 31 0 0
-1.223239 1.485637 0.148287 190 180 136 1 15
-1.212572 1.498812 0.161432 190 185 141 1 15
-1.200819 1.495929 0.160863 253 246 190 1 15
-1.290654 1.384978 0.205648 144 117 75 24 8
-1.287783 1.374110 0.183394 151 120 80 24 8
-1.301160 1.405745 0.186744 128 103 67 24 8
-1.284434 1.368701 0.183897 109 84 54 24 8
-0.744169 1.491577 -0.097870 23 22 13 12 4
-1.311073 1.476000 0.252227 221 185 128 1 15
-1.310637 1.479047 0.240030 250 222 157 1 15
-1.303094 1.485458 0.245643 255 231 166 1 15
-0.723901 1.466883 0.080506 255 252 208 1 15
-0.721295 1.456699 0.085573 221 213 170 1 15
-0.835458 1.515630 0.223322 254 255 255 1 15
-0.752725 1.518940 0.233951 254 255 254 1 15
-0.757319 1.518417 0.258696 254 255 254 1 15
-0.745888 1.506015 0.080972 254 254 218 12 4
-0.746534 1.450678 -0.132953 98 74 57 12 4
-0.754060 1.461355 -0.140723 83 65 49 12 4
-0.764805 1.446671 -0.133400 115 90 60 12 4
-0.767479 1.457606 -0.130334 115 90 60 12 4
-0.756938 1.450551 -0.128454 113 89 62 12 4
-0.746694 1.451272 -0.127947 103 84 56 12 4
-0.760652 1.466096 -0.127704 110 86 61 12 4
-0.771034 1.433716 -0.124837 112 89 62 12 4
-0.778620 1.444383 -0.123047 86 64 46 12 4
-1.104833 1.504747 0.237303 255 255 253 1 15
-1.120578 1.504381 0.234387 255 255 255 1 15
-1.125127 1.504672 0.199894 254 255 249 1 15
-1.117404 1.503975 0.208028 253 254 251 1 15
-1.273545 1.491831 0.249121 254 255 222 1 15
-1.295060 1.487548 0.258883 255 254 207 1 15
-1.273891 1.492603 0.257604 254 255 202 1 15
-0.778392 1.506322 -0.040972 69 53 37 12 4
-0.758918 1.504030 -0.058503 67 55 34 12 4
-0.748945 1.505361 -0.032845 83 59 43 12 4
-0.758149 1.510692 -0.031767 77 56 40 12 4
-1.016135 1.506659 0.230127 255 255 252 1 15
-1.015882 1.509160 0.206983 254 255 250 1 15
-1.286499 1.248625 0.266361 187 149 99 24 8
-1.288646 1.269994 0.265886 186 147 99 24 8
-1.287187 1.222444 0.261692 186 150 100 24 8
-1.287509 1.256995 0.252209 187 149 101 24 8
-1.288335 1.247518 0.243721 184 148 97 24 8
-0.849027 1.507777 0.150974 255 255 249 1 15
-0.800959 1.339062 -0.120729 42 35 21 12 4
-1.245070 1.491986 0.337099 254 255 219 1 15
-1.313413 1.469815 0.262453 225 189 129 24 8
-1.312590 1.457372 0.280457 221 186 127 24 8
-1.307936 1.474515 0.289598 237 202 140 1 15
-1.297799 1.487367 0.279474 255 247 181 1 15
-0.748630 1.414108 -0.133071 86 68 49 12 4
-0.841065 1.510683 0.152671 254 255 223 1 15
-0.763941 1.236195 -0.135655 122 95 67 12 4
-0.780057 1.242966 -0.132141 46 35 24 12 4
-0.792706 1.236701 -0.127253 45 31 24 12 4
-0.789778 1.219872 -0.128598 57 43 33 12 4
-0.775353 1.214096 -0.135257 93 70 45 12 4
-0.753474 1.309513 -0.132818 129 100 68 12 4
-0.749891 1.297286 -0.135363 129 99 72 12 4
-0.733717 1.264552 -0.139539 129 99 70 12 4
-1.271616 1.474374 0.523592 83 69 42 1 15
-1.280697 1.481214 0.521027 95 79 53 1 15
-1.273369 1.483831 0.532361 113 94 70 1 15
-1.325428 1.414472 0.412183 104 79 46 24 8
-1.295666 1.410556 0.404929 131 100 61 24 8
-1.300030 1.409359 0.426022 130 101 65 24 8
-1.302893 1.423887 0.405889 133 102 62 24 8
-0.865926 1.213823 0.476384 208 197 171 3 3
-0.864104 1.224489 0.484253 192 175 142 3 3
-0.906964 1.210503 0.479249 205 189 149 3 3
-0.894627 1.213280 0.481131 184 163 131 3 3
-1.119840 1.480171 0.518191 249 227 168 1 15
-1.315900 1.440524 0.486397 111 84 55 24 8
-1.319091 1.447799 0.491644 109 86 55 1 15
-1.296531 1.453906 0.503963 64 46 25 1 15
-1.300075 1.445834 0.500075 67 50 28 1 15
-1.311275 1.431248 0.506809 89 67 45 1 15
-1.297962 1.436352 0.516741 69 51 25 1 15
-1.308013 1.444188 0.503566 88 66 41 1 15
-1.304649 1.446770 0.508674 69 50 30 1 15
-1.306562 1.425078 0.499461 82 61 40 24 8
-1.319222 1.449583 0.496675 81 61 38 1 15
-1.007975 1.503436 0.352329 255 255 255 1 15
-1.001918 1.488908 0.519750 237 229 191 0 0
-0.981930 1.497956 0.487789 255 254 251 1 15
-0.983427 1.489485 0.504931 248 242 225 1 15
-0.999102 1.496009 0.493797 209 199 174 1 15
-0.991437 1.485273 0.511345 201 194 156 1 15
-0.746464 1.209732 0.463645 208 187 151 3 3
-0.766321 1.505486 0.489796 252 252 237 1 15
-1.355334 1.465046 0.471688 62 49 28 24 8
-1.254323 1.468923 0.531076 104 89 71 1 15
-1.226852 1.463466 0.523899 122 100 68 1 15
-1.247677 1.464458 0.523530 124 106 76 1 15
-1.236985 1.468416 0.524463 127 109 82 1 15
-0.677514 1.513094 0.422527 255 255 255 1 15
-1.008243 1.217140 0.495702 163 145 116 3 3
-1.005002 1.228381 0.501491 166 147 115 3 3
-0.824840 1.509774 0.398952 255 255 254 1 15
-0.826875 1.509169 0.420172 255 255 253 1 15
-0.605875 1.512044 0.444255 255 255 251 1 15
-0.602309 1.512967 0.454485 254 255 253 1 15
-0.622129 1.511382 0.456851 255 254 254 1 15
-0.850693 1.507066 0.470586 255 254 249 1 15
-0.958466 1.505700 0.368982 255 255 255 1 15
-1.285625 1.378660 0.436418 122 92 60 24 8
-1.288600 1.388160 0.445434 126 95 61 24 8
-1.281229 1.343272 0.405880 142 106 69 24 8
-1.279150 1.335687 0.416983 141 104 67 24 8
-1.281625 1.347123 0.415671 137 102 66 24 8
-1.279970 1.356158 0.429309 134 102 64 24 8
-1.107473 1.483927 0.514294 248 224 170 1 15
-1.082636 1.477566 0.515910 200 174 127 1 15
-1.306209 1.432861 0.381186 148 114 73 24 8
-1.300252 1.457848 0.373420 168 132 82 24 8
-1.328600 1.400659 0.468941 96 75 47 24 8
-1.327864 1.412027 0.470615 91 73 44 24 8
-1.325785 1.414338 0.475767 117 87 56 24 8
-1.331833 1.422204 0.462254 91 73 45 24 8
-1.336289 1.406058 0.483763 88 69 41 24 8
-1.325978 1.416651 0.462037 116 86 58 24 8
-1.340978 1.408390 0.469520 63 52 28 24 8
-1.350330 1.426346 0.469510 62 51 27 24 8
-1.332175 1.428453 0.469431 91 72 47 24 8
-1.334232 1.414572 0.476888 108 85 49 24 8
-1.344726 1.416180 0.479338 95 74 44 24 8
-1.334597 1.421571 0.484982 88 72 40 24 8
-1.304448 1.384163 0.502703 78 56 38 24 8
-1.296069 1.396567 0.501591 78 58 37 24 8
-1.297024 1.369182 0.500405 75 56 34 24 8
-1.303297 1.382291 0.508167 70 53 32 24 8
-1.312067 1.391867 0.506893 70 54 33 24 8
-1.295061 1.390688 0.515768 84 65 37 24 8
-1.297915 1.360823 0.502111 81 64 42 24 8
-1.286503 1.347471 0.368844 157 126 76 24 8
-1.284126 1.336220 0.385419 152 115 71 24 8
-1.284956 1.349951 0.389735 152 115 71 24 8
-1.285206 1.365929 0.378746 145 111 69 24 8
-0.938503 1.501100 0.522261 206 192 157 1 15
-0.954398 1.497157 0.521391 201 187 153 1 15
-0.810346 1.494264 0.506308 246 236 215 1 15
-0.783000 1.493911 0.498336 240 233 218 1 15
-0.798437 1.497833 0.502094 239 231 211 1 15
-0.780289 1.498713 0.506669 173 151 126 1 15
-0.788990 1.506312 0.485939 254 253 251 1 15
-0.792702 1.489713 0.495027 254 253 251 1 15
-0.804195 1.500451 0.491318 255 252 241 1 15
-0.819806 1.497976 0.495988 255 255 251 1 15
-0.803526 1.503030 0.508170 211 199 178 1 15
-1.295667 1.440485 0.522219 119 97 61 1 15
-1.282868 1.365837 0.444216 121 90 58 24 8
-1.274767 1.333845 0.436695 127 96 59 24 8
-0.660186 1.499356 0.496954 205 197 184 1 15
-1.277101 1.241072 0.492323 100 77 47 24 8
-1.275598 1.248234 0.501533 78 60 36 24 8
-1.284421 1.247296 0.509221 77 63 40 3 3
-1.283641 1.257801 0.508036 85 69 46 3 3
-1.282884 1.272512 0.510711 81 64 42 24 8
-1.269909 1.237866 0.501205 99 86 64 24 8
-1.292358 1.249824 0.503902 82 69 49 3 3
-1.286515 1.254719 0.502240 72 54 33 24 8
-1.281601 1.263435 0.502105 72 55 33 24 8
-1.280879 1.238169 0.502292 72 56 32 24 8
-1.278940 1.256603 0.505726 90 75 53 24 8
-1.287461 1.265128 0.507867 70 54 33 24 8
-1.269642 1.248792 0.507123 53 43 28 3 3
-1.272224 1.239293 0.511307 93 80 55 3 3
-1.229081 1.486395 0.446913 255 248 181 1 15
-0.648737 1.312546 0.485746 129 116 95 3 3
-0.745694 1.237697 0.477811 198 185 152 3 3
-0.730442 1.219899 0.467919 185 169 137 3 3
-0.757627 1.216761 0.468547 215 194 156 3 3
-0.739259 1.241676 0.482976 206 187 163 3 3
-0.702515 1.277933 0.488287 161 146 125 3 3
-1.016901 1.498055 0.474164 254 254 230 1 15
-1.008308 1.501071 0.457011 251 255 244 1 15
-1.281296 1.477504 0.484841 77 62 38 1 15
-1.281610 1.477467 0.496910 93 73 48 1 15
-1.291646 1.462661 0.504461 63 46 28 1 15
-1.279174 1.461026 0.512260 66 52 34 1 15
-1.267548 1.474640 0.511248 82 65 43 1 15
-1.267883 1.469872 0.515075 82 65 43 1 15
-1.282833 1.459482 0.515835 80 64 42 1 15
-1.282499 1.470215 0.517674 81 66 43 1 15
-1.318222 1.404769 0.445156 114 85 56 24 8
-1.292996 1.401403 0.452035 117 88 58 24 8
-1.306729 1.419009 0.437841 129 98 64 24 8
-1.307924 1.428563 0.434630 127 97 64 24 8
-1.322276 1.402864 0.432385 125 96 62 24 8
-1.306593 1.417948 0.453015 111 80 56 24 8
-1.323878 1.415986 0.442629 117 87 55 24 8
-1.305206 1.435164 0.423508 126 97 61 24 8
-1.302658 1.405158 0.435062 130 101 64 24 8
-1.299316 1.403089 0.447505 109 80 56 24 8
-0.717270 1.514444 0.400439 255 255 255 1 15
-0.858511 1.512167 0.370325 255 255 255 1 15
-0.862855 1.509003 0.398563 255 255 255 1 15
-0.945060 1.502682 0.474079 255 255 249 1 15
-0.968221 1.504613 0.471480 254 254 251 1 15
-0.956948 1.501754 0.485268 254 254 240 1 15
-1.273214 1.248657 0.464849 119 95 57 24 8
-1.277542 1.265101 0.446609 126 95 63 24 8
-1.276621 1.241910 0.484767 98 77 50 24 8
-1.270017 1.236932 0.475921 106 81 52 24 8
-1.292946 1.395079 0.365565 156 123 78 24 8
-1.067769 1.222826 0.498043 174 148 106 3 3
-0.617003 1.257030 0.474663 229 223 208 3 3
-0.598269 1.244554 0.469230 242 228 192 3 3
-0.605809 1.267689 0.476146 133 115 91 3 3
-1.289191 1.343116 0.498726 75 57 34 24 8
-1.295222 1.352010 0.499825 84 66 41 24 8
-1.283083 1.352359 0.493867 73 56 33 24 8
-1.282705 1.346884 0.509856 116 100 57 24 8
-1.271179 1.345235 0.517061 111 92 63 24 8
-1.284841 1.360186 0.501508 73 57 33 24 8
-1.281609 1.322990 0.491064 76 58 38 24 8
-1.282281 1.342707 0.487768 79 62 37 24 8
-1.280798 1.333900 0.505894 60 43 23 24 8
-1.289554 1.356257 0.506307 71 54 32 24 8
-1.299424 1.365283 0.507741 93 75 48 24 8
-1.285766 1.369014 0.511755 94 75 47 24 8
-1.278120 1.355753 0.511770 125 107 77 24 8
-1.282673 1.371329 0.519700 132 112 83 24 8
-0.998151 1.509876 0.526842 105 96 73 0 0
-0.988069 1.500286 0.523949 104 93 70 0 0
-0.977651 1.482533 0.512486 137 124 96 1 15
-0.971484 1.487032 0.522267 188 173 132 1 15
-0.984214 1.489187 0.519862 191 178 137 0 0
-0.732453 1.515963 0.361852 255 254 255 1 15
-0.711107 1.515962 0.384672 255 255 255 1 15
-0.740223 1.514691 0.397496 255 255 254 1 15
-1.291487 1.423659 0.520001 129 111 73 1 15
-1.156035 1.494017 0.446331 255 254 208 1 15
-1.139914 1.496222 0.449615 255 254 211 1 15
-1.149083 1.495838 0.464266 255 255 203 1 15
-1.288790 1.382832 0.368573 151 119 74 24 8
-1.288524 1.386196 0.390549 146 113 69 24 8
-1.287363 1.365690 0.362155 156 121 76 24 8
-0.686366 1.513729 0.465385 254 254 247 1 15
-0.695708 1.508846 0.481634 255 254 250 1 15
-0.707643 1.510709 0.475748 255 255 252 1 15
-0.685460 1.513348 0.452575 253 255 250 1 15
-0.677745 1.503223 0.484939 239 234 221 1 15
-0.630055 1.268530 0.498722 84 78 58 3 3
-0.642539 1.279649 0.494270 86 76 60 3 3
-1.099584 1.498389 0.405573 253 255 235 1 15
-1.080415 1.496152 0.422665 253 254 234 1 15
-0.663357 1.214090 0.459375 201 184 157 3 3
-0.648769 1.243586 0.469733 222 203 176 3 3
-0.645164 1.211884 0.457404 228 212 171 3 3
-0.648491 1.223920 0.458734 232 217 176 3 3
-1.263897 1.482480 0.482388 121 97 71 1 15
-1.272643 1.478979 0.492352 122 96 64 1 15
-1.240990 1.481702 0.488890 131 105 69 1 15
-1.257278 1.468987 0.522212 90 71 45 1 15
-1.241704 1.461830 0.515369 96 77 51 1 15
-1.240833 1.472757 0.505817 118 94 57 1 15
-0.774246 1.511424 0.438444 255 255 255 1 15
-0.809313 1.508828 0.442230 255 255 255 1 15
-1.339684 1.442928 0.478300 90 71 41 24 8
-1.345939 1.451248 0.457224 63 49 25 24 8
-1.338823 1.435632 0.463010 102 75 48 24 8
-1.327970 1.448893 0.481255 114 89 56 1 15
-1.341791 1.438364 0.472400 114 81 56 24 8
-1.331570 1.439522 0.469290 118 88 56 1 15
-1.356143 1.434201 0.486605 59 47 23 24 8
-1.355484 1.436782 0.472206 62 49 28 24 8
-1.349647 1.460943 0.465456 63 50 26 24 8
-1.331801 1.437086 0.477656 115 90 59 1 15
-1.063122 1.486356 0.516187 182 156 114 1 15
-1.067637 1.495661 0.519633 202 182 137 0 0
-1.043749 1.489547 0.519553 204 177 136 0 0
-1.040912 1.497652 0.521824 185 167 131 0 0
-0.918295 1.506164 0.434162 255 255 255 1 15
-0.931082 1.506261 0.446588 255 255 255 1 15
-0.902274 1.504806 0.443624 255 255 255 1 15
-0.904710 1.505641 0.453759 254 253 254 1 15
-0.601074 1.486939 0.495198 211 200 179 1 15
-1.190953 1.493444 0.485994 253 250 189 1 15
-1.197452 1.489883 0.460187 255 246 177 1 15
-1.162347 1.494605 0.466381 250 236 173 1 15
-1.288560 1.399940 0.466021 97 75 48 24 8
-1.288870 1.394743 0.481682 89 65 40 24 8
-0.875526 1.224396 0.483565 187 166 134 3 3
-0.620346 1.263757 0.480395 127 115 94 3 3
-0.608060 1.279564 0.479967 127 115 95 3 3
-0.622956 1.276671 0.484385 83 77 61 3 3
-0.614755 1.272999 0.476243 149 140 122 3 3
-1.309938 1.426281 0.471564 107 80 52 24 8
-1.313175 1.418440 0.466961 105 80 52 24 8
-1.321431 1.430450 0.457059 120 94 58 24 8
-1.316038 1.411533 0.484393 119 91 58 24 8
-1.297962 1.397657 0.481132 94 68 46 24 8
-1.319665 1.405380 0.458978 121 91 62 24 8
-1.294942 1.401441 0.472226 96 70 47 24 8
-1.314766 1.404536 0.476908 119 91 60 24 8
-1.316503 1.411112 0.467075 118 92 56 24 8
-1.302890 1.420184 0.465282 101 77 50 24 8
-1.297668 1.408505 0.464009 105 79 54 24 8
-1.307650 1.409791 0.473491 109 82 55 24 8
-1.307591 1.398598 0.481758 110 83 53 24 8
-1.321443 1.412333 0.453933 121 86 58 24 8
-1.194836 1.490691 0.499013 224 191 133 1 15
-1.227705 1.461662 0.516841 120 93 56 1 15
-1.216382 1.481520 0.495578 130 103 66 1 15
-1.227900 1.472082 0.506230 122 96 62 1 15
-1.205679 1.478750 0.509061 149 115 75 1 15
-1.204584 1.486985 0.499905 179 146 105 1 15
-1.198699 1.466774 0.525484 168 132 88 1 15
-1.098464 1.562080 0.533650 103 88 65 0 0
-1.101289 1.549005 0.527540 191 189 155 0 0
-1.113693 1.573185 0.536634 108 97 69 0 0
-1.011432 1.494154 0.495350 255 254 238 1 15
-1.027053 1.483046 0.514037 248 237 190 1 15
-1.023044 1.493045 0.505926 251 242 195 1 15
-1.012302 1.486782 0.509516 250 237 190 1 15
-1.030502 1.492950 0.497444 255 250 206 1 15
-1.200723 1.491331 0.428037 255 249 184 1 15
-0.620690 1.502791 0.493014 243 237 228 1 15
-0.905355 1.507829 0.362804 255 255 254 1 15
-0.941363 1.507501 0.367367 255 255 254 1 15
-0.918118 1.506457 0.376158 255 255 255 1 15
-0.903397 1.509345 0.389673 255 255 255 1 15
-1.141875 1.496854 0.410776 254 254 213 1 15
-1.142454 1.499268 0.390027 255 255 215 1 15
-1.160567 1.494319 0.417967 255 254 213 1 15
-1.165976 1.493323 0.394586 255 255 209 1 15
-0.707816 1.499540 0.491401 238 230 208 1 15
-0.887952 1.509814 0.363281 255 255 255 1 15
-0.870887 1.505100 0.462655 254 253 245 1 15
-0.860019 1.504293 0.483447 254 255 236 1 15
-0.890297 1.504587 0.464714 255 253 245 1 15
-0.893240 1.501737 0.491819 254 254 252 1 15
-0.877519 1.505431 0.477108 254 255 236 1 15
-1.292480 1.466761 0.495255 71 55 31 1 15
-1.276146 1.302072 0.425723 142 106 68 24 8
-1.279160 1.313216 0.417802 145 113 68 24 8
-1.280801 1.312426 0.386416 150 116 72 24 8
-1.279548 1.324767 0.401241 143 109 71 24 8
-0.903278 1.505249 0.426089 255 255 255 1 15
-1.308958 1.440997 0.392395 134 104 64 24 8
-1.301518 1.456231 0.404907 132 102 62 24 8
-1.307900 1.449460 0.415970 135 102 67 24 8
-1.307358 1.432877 0.401351 133 100 61 24 8
-1.017801 1.501343 0.423338 255 255 255 1 15
-0.986807 1.503886 0.406187 255 255 255 1 15
-0.980501 1.504141 0.443041 255 255 255 1 15
-1.259022 1.481498 0.468524 220 182 124 1 15
-1.249047 1.482646 0.479079 182 146 103 1 15
-1.233082 1.484135 0.472588 185 150 105 1 15
-1.247472 1.485370 0.457563 218 181 128 1 15
-1.105896 1.559148 0.521058 128 126 99 0 0
-1.087638 1.556397 0.533872 115 102 73 0 0
-1.290700 1.478962 0.389728 251 223 152 1 15
-1.291405 1.477904 0.373125 245 211 146 1 15
-1.268665 1.488102 0.360640 254 254 196 1 15
-0.598238 1.510401 0.470678 254 254 249 1 15
-0.605131 1.502869 0.481610 254 255 252 1 15
-0.583747 1.513167 0.454934 255 252 249 1 15
-0.632030 1.260513 0.496245 128 114 92 3 3
-0.694221 1.246891 0.481107 181 168 146 3 3
-0.774004 1.512433 0.452682 255 255 247 1 15
-0.758190 1.513166 0.473465 255 254 252 1 15
-0.747765 1.508638 0.480389 254 255 249 1 15
-0.770691 1.511901 0.479245 255 255 252 1 15
-1.179873 1.490951 0.456021 254 254 196 1 15
-1.301558 1.424813 0.363113 151 118 74 24 8
-1.296365 1.409902 0.365257 147 113 71 24 8
-1.305324 1.419518 0.394200 145 111 64 24 8
-1.299779 1.416250 0.379448 145 112 67 24 8
-1.285922 1.314597 0.351752 167 131 86 24 8
-0.937052 1.217786 0.487048 195 171 129 3 3
-0.957714 1.231960 0.495378 196 176 131 3 3
-0.920899 1.229181 0.496401 200 179 136 3 3
-0.936507 1.230607 0.493030 141 122 98 3 3
-0.719120 1.492564 0.492906 252 246 234 1 15
-0.728974 1.484578 0.499826 237 232 218 1 15
-0.720890 1.491447 0.501575 211 199 178 1 15
-0.740598 1.491411 0.497587 211 199 184 1 15
-1.294315 1.381524 0.507165 71 52 34 24 8
-1.291630 1.391179 0.502356 72 52 28 24 8
-1.285551 1.371604 0.496041 79 60 37 24 8
-1.286465 1.375552 0.503852 74 57 34 24 8
-1.293986 1.394327 0.484944 84 65 39 24 8
-1.109389 1.501075 0.379263 255 254 230 1 15
-1.127527 1.500229 0.349108 255 253 240 1 15
-1.121838 1.499537 0.385619 255 254 221 1 15
-1.285735 1.481186 0.426872 247 207 146 1 15
-1.279799 1.480777 0.442835 240 203 140 1 15
-1.064590 1.496991 0.420829 255 255 247 1 15
-1.066211 1.501175 0.398905 255 255 244 1 15
-1.032079 1.498590 0.410918 255 255 248 1 15
-1.290839 1.444464 0.515483 71 59 35 1 15
-1.274606 1.442118 0.517245 83 68 45 1 15
-1.264302 1.423016 0.517620 88 74 51 1 15
-1.283426 1.432478 0.518761 72 57 31 1 15
-1.142898 1.480377 0.534560 127 113 81 1 15
-1.143019 1.478112 0.519288 222 190 137 1 15
-1.143072 1.482692 0.524272 180 154 113 1 15
-1.130091 1.482774 0.524174 180 154 113 1 15
-1.042147 1.227783 0.501543 182 164 119 3 3
-1.034942 1.235048 0.510202 151 137 104 3 3
-1.030401 1.241382 0.503377 172 154 117 3 3
-1.017050 1.232758 0.502424 182 159 116 3 3
-1.186279 1.493957 0.366860 255 255 207 1 15
-1.179590 1.494121 0.381053 255 255 202 1 15
-1.201941 1.492417 0.383567 253 255 196 1 15
-1.282520 1.296653 0.406938 155 116 74 24 8
-1.281336 1.291079 0.391738 155 119 74 24 8
-1.279833 1.272876 0.406800 150 116 76 24 8
-1.363419 1.457467 0.479968 60 48 24 24 8
-1.359907 1.463555 0.469558 64 49 31 24 8
-1.361884 1.452848 0.475972 62 50 28 24 8
-1.350345 1.452584 0.477964 60 47 24 24 8
-0.804714 1.218563 0.471931 174 159 134 3 3
-0.820275 1.253897 0.488742 197 185 161 3 3
-1.188114 1.490943 0.468973 239 213 151 1 15
-1.266061 1.486160 0.386622 255 228 156 1 15
-1.284100 1.481021 0.411723 254 223 155 1 15
-0.705322 1.512050 0.444570 254 254 252 1 15
-0.689255 1.514885 0.442195 254 254 252 1 15
-0.702724 1.510680 0.458047 253 255 249 1 15
-1.312191 1.448641 0.449473 119 89 59 24 8
-1.302576 1.449726 0.423832 156 122 81 24 8
-1.307633 1.453834 0.432940 123 95 61 24 8
-1.309509 1.442407 0.434394 123 95 61 24 8
-1.301253 1.460605 0.432594 150 117 76 24 8
-1.316023 1.425647 0.444624 112 84 53 24 8
-0.627979 1.285705 0.482675 128 116 95 3 3
-0.648377 1.295669 0.486095 147 142 117 3 3
-0.642132 1.280494 0.488038 147 143 115 3 3
-0.637144 1.296177 0.482492 83 77 59 3 3
-1.335195 1.388992 0.420239 69 52 35 24 8
-1.324933 1.395833 0.407575 71 53 37 24 8
-0.919553 1.507680 0.407789 255 255 255 1 15
-0.933237 1.505093 0.397739 255 255 255 1 15
-0.592317 1.517899 0.495796 207 195 183 1 15
-0.598631 1.497552 0.492513 227 216 204 1 15
-0.603496 1.504733 0.495163 195 184 169 1 15
-0.592816 1.504442 0.491300 195 186 171 1 15
-1.256844 1.234420 0.510347 107 91 69 3 3
-1.265529 1.241033 0.509908 116 96 70 3 3
-0.794802 1.510838 0.403672 255 255 255 1 15
-0.779875 1.511460 0.403229 255 255 255 1 15
-0.805653 1.509530 0.410849 255 255 255 1 15
-1.089692 1.496516 0.438265 253 255 234 1 15
-1.264384 1.483396 0.415579 254 230 168 1 15
-1.239968 1.486721 0.409981 253 231 170 1 15
-1.114909 1.494284 0.485321 255 251 206 1 15
-0.952733 1.503588 0.418576 255 255 251 1 15
-0.980237 1.505467 0.380681 255 255 254 1 15
-0.949083 1.504422 0.390042 255 255 254 1 15
-1.299678 1.395221 0.471953 101 76 48 24 8
-1.323009 1.389955 0.469163 97 78 37 24 8
-1.336570 1.436196 0.517416 56 41 25 1 15
-1.338479 1.442624 0.509039 47 40 22 1 15
-1.351393 1.456583 0.495618 77 60 37 24 8
-1.336154 1.436265 0.489958 57 47 28 24 8
-1.328996 1.444285 0.491409 109 83 53 1 15
-1.343868 1.458260 0.491567 91 68 46 24 8
-1.332146 1.449374 0.503546 82 65 38 1 15
-1.346190 1.453221 0.504802 50 44 26 1 15
-1.344569 1.428515 0.511043 37 29 17 1 15
-1.335766 1.432538 0.511983 57 42 26 1 15
-1.346263 1.442651 0.514187 42 28 17 1 15
-1.351849 1.461433 0.511956 71 55 34 1 15
-0.963158 1.494219 0.510529 223 217 182 1 15
-0.948600 1.499240 0.499454 227 220 200 1 15
-0.949004 1.493407 0.508577 255 251 223 1 15
-0.970326 1.494004 0.503723 255 252 240 1 15
-0.960463 1.493568 0.520216 214 206 175 1 15
-1.018189 1.502094 0.390525 255 255 253 1 15
-1.044379 1.502365 0.356031 255 255 253 1 15
-1.010308 1.503242 0.368672 255 255 253 1 15
-1.281040 1.371810 0.461755 110 83 57 24 8
-1.282548 1.381689 0.476193 85 62 39 24 8
-1.287485 1.369095 0.487924 89 66 41 24 8
-0.762587 1.513287 0.381391 255 255 255 1 15
-0.748665 1.514785 0.359829 255 255 254 1 15
-0.774431 1.513654 0.361123 255 255 255 1 15
-0.919939 1.501309 0.490446 255 254 238 1 15
-0.936947 1.498466 0.504481 254 252 231 1 15
-0.904146 1.500179 0.507907 254 250 223 1 15
-0.928941 1.497687 0.514120 215 206 178 1 15
-0.922064 1.497603 0.503557 255 254 246 1 15
-0.804185 1.509286 0.462813 254 253 249 1 15
-0.831175 1.506441 0.475633 254 254 253 1 15
-0.637616 1.492940 0.492162 249 245 224 1 15
-0.648378 1.490831 0.493132 219 207 189 1 15
-1.122521 1.499268 0.399918 255 254 217 1 15
-1.276196 1.235104 0.396861 157 121 79 24 8
-1.279665 1.258506 0.410499 155 118 76 24 8
-0.617870 1.257235 0.490294 127 114 87 3 3
-0.621423 1.271594 0.490925 85 78 57 3 3
-0.609183 1.260457 0.494175 127 113 89 3 3
-0.684178 1.216293 0.460480 206 188 150 3 3
-0.678749 1.231225 0.469471 201 189 161 3 3
-0.659618 1.234227 0.466375 226 215 195 3 3
-1.151228 1.489678 0.530280 183 159 115 1 15
-1.157036 1.484609 0.527493 183 160 115 1 15
-0.797304 1.510167 0.377672 255 255 253 1 15
-0.799238 1.509706 0.365149 255 255 255 1 15
-0.814325 1.513239 0.349350 255 255 255 1 15
-0.718397 1.513908 0.424837 255 255 255 1 15
-0.736597 1.513494 0.437632 255 255 250 1 15
-0.714734 1.512264 0.442965 255 255 250 1 15
-0.737135 1.514406 0.444829 255 255 250 1 15
-0.725983 1.296985 0.491466 159 147 125 3 3
-0.708722 1.284129 0.490279 81 74 59 3 3
-0.722444 1.274031 0.497058 85 75 64 3 3
-0.979683 1.505044 0.413594 255 255 251 1 15
-0.968323 1.506168 0.401789 255 255 252 1 15
-1.256893 1.403285 0.518311 102 88 64 1 15
-1.330294 1.405626 0.405867 71 54 36 24 8
-1.333137 1.431505 0.406198 69 54 33 24 8
-1.330744 1.422139 0.402466 71 55 39 24 8
-1.329006 1.428293 0.418577 122 91 55 24 8
-1.338831 1.417804 0.415261 66 53 32 24 8
-0.830973 1.247979 0.491009 216 202 172 3 3
-0.837722 1.249280 0.497734 173 157 127 3 3
-0.661789 1.515468 0.384054 255 255 255 1 15
-0.674791 1.517437 0.365520 255 255 254 1 15
-1.278059 1.234409 0.386961 162 128 78 24 8
-1.280071 1.253185 0.387703 161 126 77 24 8
-1.279680 1.256570 0.378006 166 128 80 24 8
-1.214872 1.491461 0.374097 255 255 196 1 15
-1.229859 1.489999 0.395082 254 255 185 1 15
-1.230489 1.485900 0.436243 250 217 153 1 15
-1.250220 1.486212 0.434409 254 228 160 1 15
-1.124711 1.497013 0.418037 255 254 220 1 15
-1.107876 1.497744 0.424198 255 254 223 1 15
-1.293846 1.473670 0.411972 195 159 106 24 8
-1.303563 1.452197 0.389389 189 153 98 24 8
-1.164794 1.496878 0.364930 255 254 224 1 15
-1.160802 1.495187 0.384466 255 254 212 1 15
-1.144603 1.498541 0.370857 255 255 214 1 15
-0.845552 1.507556 0.425431 255 255 254 1 15
-0.852128 1.509274 0.413705 255 255 255 1 15
-0.842211 1.510858 0.387334 255 255 255 1 15
-1.077362 1.495100 0.526172 181 161 123 0 0
-1.207972 1.464079 0.527370 166 137 92 1 15
-1.218385 1.466632 0.519024 167 134 94 1 15
-0.913170 1.493104 0.513962 201 196 170 1 15
-0.898863 1.492217 0.512427 235 219 189 1 15
-0.885978 1.493976 0.508928 234 221 186 1 15
-0.910938 1.498807 0.501832 255 253 243 1 15
-0.885102 1.493639 0.500381 255 252 237 1 15
-0.875524 1.497198 0.508409 241 230 202 1 15
-1.291409 1.306248 0.511426 67 51 28 24 8
-1.290767 1.293798 0.502794 75 56 34 24 8
-1.292821 1.328558 0.495642 86 65 41 24 8
-1.297528 1.305257 0.506054 73 56 37 24 8
-1.290048 1.327259 0.505949 91 75 48 24 8
-1.294955 1.330463 0.511895 110 93 62 24 8
-1.291747 1.311594 0.499695 97 74 45 24 8
-1.278083 1.326707 0.510753 73 54 30 24 8
-1.271432 1.332921 0.513801 145 130 80 24 8
-0.820404 1.235308 0.483826 236 226 186 3 3
-0.834574 1.239943 0.486138 218 208 175 3 3
-0.845042 1.226963 0.483496 217 206 171 3 3
-1.236618 1.487724 0.369080 255 254 194 1 15
-1.251266 1.487684 0.397859 255 247 177 1 15
-1.248208 1.489586 0.352851 254 254 197 1 15
-1.221409 1.492321 0.355383 255 253 205 1 15
-1.174893 1.471852 0.527270 197 166 123 1 15
-1.184145 1.478109 0.520023 190 161 121 1 15
-1.194564 1.475102 0.522893 193 159 111 1 15
-1.195091 1.482208 0.528637 169 140 101 1 15
-1.293676 1.413020 0.520534 172 145 95 1 15
-1.087639 1.500309 0.353951 255 255 248 1 15
-1.083406 1.499266 0.394352 255 255 231 1 15
-1.090566 1.499764 0.385053 255 255 231 1 15
-1.083519 1.500122 0.372646 255 255 237 1 15
-1.327372 1.407201 0.428577 101 81 49 24 8
-1.328671 1.416916 0.453789 96 71 43 24 8
-1.331800 1.416646 0.432579 100 74 44 24 8
-0.661617 1.512460 0.470941 232 222 205 1 15
-0.671024 1.511787 0.475537 245 237 221 1 15
-0.663521 1.498346 0.489541 237 230 209 1 15
-1.342507 1.406733 0.424932 68 54 33 24 8
-1.334275 1.428006 0.433927 66 50 31 24 8
-0.768878 1.204449 0.467088 199 183 148 3 3
-1.321731 1.391223 0.426267 131 99 64 24 8
-1.274817 1.315653 0.435298 129 99 63 24 8
-1.277140 1.294988 0.444833 133 101 63 24 8
-1.185041 1.492309 0.414855 254 255 197 1 15
-1.295339 1.476752 0.359628 238 201 137 1 15
-1.102478 1.542755 0.524575 191 185 143 0 0
-1.033581 1.499816 0.392151 255 255 248 1 15
-1.015013 1.500822 0.404966 255 255 255 1 15
-0.980167 1.213834 0.488115 161 144 112 3 3
-0.647498 1.517637 0.399490 255 255 255 1 15
-0.638395 1.516068 0.413672 255 255 255 1 15
-0.625310 1.516969 0.395256 255 255 255 1 15
-1.158882 1.487810 0.514115 229 213 158 1 15
-1.157424 1.495700 0.490078 247 230 175 1 15
-1.131621 1.493564 0.489561 255 251 204 1 15
-1.139525 1.495541 0.494482 255 251 205 1 15
-1.139406 1.490473 0.500908 240 226 175 1 15
-0.618759 1.519959 0.348661 254 255 253 1 15
-0.590149 1.516290 0.355565 254 255 254 1 15
-0.691212 1.514879 0.402239 255 255 255 1 15
-0.691669 1.514719 0.424055 255 255 255 1 15
-0.970677 1.503331 0.430481 255 255 255 1 15
-0.948551 1.504002 0.413337 255 255 253 1 15
-0.934324 1.506524 0.421492 255 255 253 1 15
-0.941176 1.506295 0.462569 255 255 255 1 15
-0.965864 1.502450 0.454506 255 254 255 1 15
-0.947377 1.504168 0.443454 255 255 255 1 15
-0.828593 1.508698 0.460839 255 253 252 1 15
-0.845564 1.505214 0.457346 254 252 251 1 15
-1.278731 1.288032 0.417136 139 107 65 24 8
-1.276801 1.277314 0.445917 140 106 64 24 8
-1.278406 1.301001 0.454666 129 96 59 24 8
-1.293292 1.398337 0.491455 71 52 28 24 8
-1.272201 1.422758 0.519220 115 102 75 1 15
-0.825915 1.502105 0.493057 255 254 252 1 15
-0.834478 1.493229 0.503648 238 232 212 1 15
-0.832989 1.491444 0.499581 250 246 226 1 15
-0.846554 1.492473 0.500333 254 254 246 1 15
-1.279035 1.363561 0.473485 101 75 50 24 8
-1.279086 1.347036 0.469511 108 81 51 24 8
-1.281218 1.351489 0.458317 111 84 56 24 8
-0.866451 1.491112 0.502168 254 252 232 1 15
-0.855797 1.490737 0.505619 241 232 204 1 15
-0.844495 1.487581 0.508144 234 224 196 1 15
-0.846049 1.502231 0.487453 214 202 179 1 15
-0.856301 1.499533 0.494510 214 200 178 1 15
-1.036897 1.497155 0.473785 254 253 207 1 15
-1.047767 1.494663 0.467907 255 253 209 1 15
-1.056052 1.495850 0.479661 254 250 208 1 15
-0.723510 1.232109 0.474082 179 162 137 3 3
-0.721701 1.244052 0.484143 176 161 139 3 3
-0.700887 1.230657 0.470906 202 185 155 3 3
-0.709022 1.245968 0.487363 177 156 130 3 3
-0.707289 1.218595 0.463177 198 181 146 3 3
-1.217089 1.455867 0.528668 108 89 68 1 15
-1.203131 1.491457 0.482770 188 156 108 1 15
-1.220404 1.483766 0.470918 227 194 134 1 15
-1.209456 1.487250 0.467167 239 212 150 1 15
-1.215632 1.484464 0.486516 140 113 77 1 15
-1.019858 1.510424 0.529721 89 77 57 0 0
-1.137251 1.487742 0.507266 218 201 148 1 15
-1.136110 1.479715 0.515323 238 217 157 1 15
-1.168591 1.481302 0.519371 221 193 141 1 15
-1.324493 1.396940 0.419085 108 81 50 24 8
-1.330364 1.379145 0.421022 110 85 49 24 8
-0.716586 1.506189 0.500743 211 200 186 1 15
-0.635604 1.518706 0.361766 254 255 254 1 15
-0.642832 1.516783 0.374931 255 255 253 1 15
-0.606751 1.516282 0.385867 255 255 253 1 15
-1.292719 1.476324 0.434104 171 137 88 24 8
-1.296833 1.463606 0.453036 167 134 86 1 15
-1.301176 1.299312 0.509022 71 58 34 24 8
-1.359046 1.453432 0.510190 37 28 18 1 15
-1.356061 1.431645 0.509789 37 28 18 1 15
-1.365958 1.447539 0.496051 54 42 20 24 8
-1.277316 1.327044 0.467182 110 82 51 24 8
-1.281503 1.309683 0.488254 94 72 45 24 8
