ply
format ascii 1.0
element vertex 1086
property float x
property float y
property float z
property uchar red
property uchar green
property uchar blue
property uchar semantic_label
property uchar instance_label
end_header
0.411623 0.622471 -0.087862 250 247 247 0 0
0.429137 0.611971 -0.086653 253 251 252 0 0
0.422141 0.610990 -0.081487 252 251 251 0 0
0.422767 0.604360 -0.092933 254 253 253 0 0
0.412438 0.624406 -0.078012 253 252 250 0 0
0.530662 0.639012 -0.136012 253 253 254 1 9
0.551207 0.642002 -0.158482 245 245 246 1 9
0.539359 0.619498 -0.134929 231 225 229 1 9
0.404349 0.362332 -0.508437 93 90 110 34 7
0.383138 0.635169 -0.180755 255 255 255 0 0
0.410322 0.606392 -0.191120 255 255 255 0 0
0.418486 0.625958 -0.183961 255 255 255 0 0
0.414216 0.608013 -0.169309 255 255 255 0 0
0.423280 0.622555 -0.201176 255 255 255 0 0
0.510068 -0.205660 -0.377714 153 124 123 34 7
0.499468 -0.180498 -0.370720 162 143 146 34 7
0.479084 -0.211476 -0.387031 152 129 127 34 7
0.513194 -0.195480 -0.372275 149 123 120 34 7
0.544051 0.076082 -0.310388 218 215 222 12 12
0.546941 0.095032 -0.301446 176 173 176 12 12
0.541347 0.085691 -0.328084 151 151 181 12 12
0.426204 -0.184771 -0.412905 195 196 219 34 7
0.424945 -0.156187 -0.411633 215 214 246 34 7
0.431531 -0.155562 -0.399190 203 208 243 34 7
0.411761 -0.257472 -0.520507 242 241 251 34 7
0.415603 -0.256733 -0.498873 163 162 174 34 7
0.418330 -0.246870 -0.513748 255 255 255 34 7
0.565553 0.402563 -0.449858 53 51 68 0 0
0.591131 0.082875 -0.120839 255 255 255 9 1
0.586369 0.068184 -0.125386 246 246 247 9 1
0.598867 0.097465 -0.108776 255 255 255 9 1
0.483010 0.401702 0.021187 143 122 111 9 1
0.497422 0.414941 0.024048 147 127 118 9 1
0.478880 0.398098 0.042930 143 122 112 9 1
0.461097 0.652152 -0.357140 211 201 214 12 12
0.458254 0.642062 -0.353225 255 252 254 0 0
0.474947 0.632009 -0.349989 255 255 255 12 12
0.445511 0.648008 -0.355984 223 217 227 0 0
0.451585 0.632362 -0.342663 208 210 218 12 12
0.468482 0.628291 -0.351060 204 202 205 12 12
0.501153 0.367901 -0.347501 124 118 118 0 0
0.515838 0.370216 -0.344772 123 119 121 0 0
0.527025 0.366548 -0.349473 132 128 133 0 0
0.496041 0.369253 -0.336223 133 130 134 0 0
0.532917 -0.001832 -0.339441 163 163 164 12 12
0.524316 0.008258 -0.349126 175 176 199 12 12
0.517961 0.006945 -0.363548 179 175 194 12 12
0.515123 -0.014859 -0.363589 172 163 187 34 7
0.525360 -0.012088 -0.356137 160 158 167 12 12
0.381390 -0.269783 -0.539540 205 207 228 34 7
0.376441 -0.281051 -0.534446 227 229 243 34 7
0.544724 -0.271529 -0.167763 232 210 207 9 1
0.547278 -0.257506 -0.150207 255 255 255 9 1
0.562841 -0.281947 -0.139582 255 255 255 9 1
0.557042 -0.290876 -0.282896 213 193 190 12 12
0.543021 -0.285025 -0.303523 231 221 229 12 12
0.540275 -0.300355 -0.304249 225 217 224 12 12
0.559711 -0.281843 -0.284159 223 209 213 12 12
0.552118 -0.299478 -0.277771 208 188 182 0 0
0.528935 0.419363 -0.131836 200 193 209 9 1
0.528161 0.419230 -0.139824 198 193 208 1 9
0.587508 -0.171454 -0.037545 214 195 185 9 1
0.636535 -0.065854 -0.042052 223 222 224 9 1
0.633246 -0.088137 -0.037877 251 251 251 9 1
0.633369 -0.081093 -0.040649 247 246 247 9 1
0.647794 -0.073126 -0.037892 239 238 240 9 1
0.538390 0.416852 -0.005544 168 156 160 9 1
0.553787 0.425588 0.011655 165 159 162 9 1
0.554542 0.424983 -0.007013 178 179 190 9 1
0.540012 0.416969 0.008710 157 140 139 9 1
0.531150 0.359773 -0.136897 198 192 210 1 9
0.546498 0.358325 -0.122415 253 254 255 9 1
0.551280 0.357284 -0.118325 227 225 242 9 1
0.535151 0.352416 -0.131205 248 246 253 9 1
0.531516 0.110824 -0.357471 118 133 179 12 12
0.531978 0.126664 -0.364043 149 154 192 12 12
0.527093 0.125420 -0.348271 134 135 156 12 12
0.534080 0.132872 -0.336137 137 131 135 12 12
0.532639 0.111723 -0.331726 132 131 156 12 12
0.589213 0.196555 -0.403069 134 150 171 0 0
0.610586 0.196840 -0.408194 116 119 139 0 0
0.571353 -0.023630 -0.274104 191 182 181 1 9
0.331060 0.455574 -0.392746 152 163 216 34 7
0.338906 0.462460 -0.376270 175 182 217 12 12
0.341726 0.451810 -0.377355 165 172 217 12 12
0.319677 0.453224 -0.377889 156 164 217 12 12
0.304857 0.458339 -0.377459 164 172 221 12 12
0.356234 0.446324 -0.493776 89 95 130 34 7
0.322990 0.451401 -0.487537 88 97 132 34 7
0.336352 0.450931 -0.477491 90 96 133 34 7
0.341605 0.445656 -0.494463 89 93 131 34 7
0.514984 0.648658 -0.127986 246 246 247 1 9
0.527861 0.635365 -0.127767 235 236 237 1 9
0.423332 0.616726 -0.222336 254 255 255 0 0
0.414792 0.630557 -0.223839 255 255 255 0 0
0.427358 0.621144 -0.235083 254 254 255 0 0
0.565274 0.000101 -0.217236 193 187 202 1 9
0.569402 -0.009445 -0.237119 181 169 171 1 9
0.439354 -0.066555 -0.394740 145 143 171 34 7
0.450583 -0.051801 -0.387547 158 156 177 34 7
0.459663 -0.056580 -0.387154 129 127 141 34 7
0.459057 -0.071027 -0.390441 115 108 123 34 7
0.417638 0.323648 -0.469450 105 112 145 34 7
0.417633 0.306755 -0.456011 108 114 150 34 7
0.421493 0.316946 -0.431474 105 112 150 34 7
0.417844 0.333228 -0.449939 110 111 149 34 7
0.416760 0.318085 -0.448946 107 113 151 34 7
0.327685 0.626240 -0.359534 222 220 226 12 12
0.319261 0.621551 -0.361820 254 254 255 12 12
0.600688 0.202400 -0.331719 158 155 167 0 0
0.361365 0.546724 -0.366931 192 195 214 12 12
0.379463 0.540841 -0.365788 170 170 181 12 12
0.559758 0.593835 0.035757 128 115 100 1 9
0.567492 -0.285349 -0.250350 215 194 185 0 0
0.552972 -0.300996 -0.254566 213 187 180 0 0
0.612925 0.182043 -0.035650 247 246 247 9 1
0.623377 0.166448 -0.035932 254 252 255 9 1
0.640411 0.172048 -0.035559 253 251 253 9 1
0.348705 0.630733 -0.244820 251 251 251 0 0
0.343518 0.613585 -0.251118 254 255 255 0 0
0.346517 0.636397 -0.266545 247 247 249 0 0
0.565798 -0.108980 -0.221851 206 196 200 1 9
0.561563 -0.136868 -0.204443 209 198 203 1 9
0.561761 -0.135321 -0.232806 228 225 235 1 9
0.356235 0.514935 -0.372994 246 248 255 12 12
0.542276 0.242890 -0.291708 168 163 160 12 12
0.557486 0.271873 -0.279048 145 138 133 12 12
0.541413 0.095830 -0.316149 156 154 165 12 12
0.473622 0.384167 0.034166 141 122 106 9 1
0.420456 -0.225592 -0.475150 194 189 203 34 7
0.682993 0.223562 -0.234801 133 129 135 0 0
0.695249 0.234409 -0.266609 124 122 126 0 0
0.684259 0.220969 -0.257602 125 124 129 0 0
0.706398 0.236206 -0.256508 130 127 132 0 0
0.683537 0.231230 -0.263594 125 124 129 0 0
0.629189 0.205581 -0.327022 147 146 144 0 0
0.638148 0.223008 -0.321693 150 146 143 0 0
0.615278 0.210660 -0.328082 149 144 142 0 0
0.617466 0.200457 -0.321084 146 144 141 0 0
0.633595 0.210099 -0.326903 149 145 142 0 0
0.630280 0.211305 -0.319351 147 143 141 0 0
0.626829 0.220996 -0.307616 146 144 144 0 0
0.639162 0.214952 -0.311997 152 145 147 0 0
0.627279 0.214208 -0.303072 156 154 156 0 0
0.631220 0.204798 -0.302120 155 149 150 0 0
0.618188 0.206395 -0.312503 148 149 149 0 0
0.624970 0.210420 -0.312057 148 146 146 0 0
0.608405 0.221192 -0.320148 151 148 148 0 0
0.618823 0.215352 -0.315141 151 148 151 0 0
0.627579 0.200460 -0.311214 146 142 143 0 0
0.526236 0.427487 -0.290999 193 196 214 12 12
0.503408 0.426055 -0.284345 195 197 213 12 12
0.374026 0.560114 -0.362942 121 119 136 12 12
0.648210 0.222697 -0.267132 145 142 146 0 0
0.658290 0.206024 -0.240238 148 152 156 0 0
0.658909 0.202066 -0.246007 148 152 156 0 0
0.668711 0.200785 -0.238190 133 127 136 0 0
0.672001 0.197972 -0.245828 133 131 142 0 0
0.666911 0.219133 -0.259082 148 147 152 0 0
0.669727 0.200870 -0.250831 129 128 134 0 0
0.672729 0.213695 -0.259006 126 125 130 0 0
0.650315 0.189521 -0.242418 132 132 141 0 0
0.664212 0.222405 -0.234253 155 149 157 0 0
0.668064 0.208728 -0.235585 131 132 138 0 0
0.673157 0.221517 -0.238311 132 131 137 0 0
0.648581 0.202621 -0.258750 148 146 153 0 0
0.654666 0.223555 -0.245386 156 153 163 0 0
0.413076 0.043511 -0.431202 140 143 156 34 7
0.416068 0.022292 -0.419506 144 148 169 34 7
0.411797 0.021590 -0.407430 95 117 152 34 7
0.355596 0.042909 -0.528925 57 60 78 34 7
0.368408 0.046082 -0.521627 97 96 119 34 7
0.361338 0.034800 -0.531554 142 132 156 34 7
0.536746 0.438550 -0.051972 156 143 140 1 9
0.538572 0.447663 -0.061456 163 160 159 1 9
0.514548 0.257870 -0.427426 106 106 124 0 0
0.493722 0.261409 -0.425888 108 109 128 0 0
0.569021 0.148901 -0.265695 176 170 172 12 12
0.570231 0.130613 -0.257861 185 175 179 1 9
0.567344 0.151955 -0.237488 164 163 166 1 9
0.512726 0.444638 -0.369904 158 161 173 12 12
0.426495 0.668340 -0.354328 222 219 230 12 12
0.402947 0.671643 -0.353706 211 207 221 12 12
0.425630 0.709655 -0.358116 251 252 253 12 12
0.469064 0.167368 -0.377434 109 116 141 34 7
0.474140 0.154892 -0.371520 109 119 141 34 7
0.480263 0.140261 -0.373688 111 114 124 34 7
0.448917 0.154604 -0.382491 216 243 251 34 7
0.459086 0.150009 -0.373155 199 231 242 34 7
0.457005 0.159181 -0.375233 107 114 146 34 7
0.463547 0.163941 -0.372421 99 107 134 34 7
0.451073 0.158967 -0.369228 102 115 138 34 7
0.461240 0.169102 -0.367251 126 144 183 34 7
0.542015 0.611603 -0.125226 169 156 141 1 9
0.563612 0.601036 -0.139695 168 154 136 1 9
0.555294 0.601487 -0.118824 150 131 115 1 9
0.548361 0.609581 -0.115766 153 138 129 1 9
0.200032 0.596970 -0.376448 255 255 255 12 12
0.566657 0.382504 -0.255709 179 171 171 1 9
0.565662 0.372185 -0.264419 166 163 160 1 9
0.537846 0.164551 -0.333230 135 134 139 12 12
0.535144 0.149097 -0.356863 127 119 121 12 12
0.536375 0.162478 -0.356948 124 116 117 12 12
0.596400 0.280308 -0.030624 255 255 255 9 1
0.603864 0.268542 -0.033539 255 255 255 9 1
0.614517 0.259194 -0.024866 255 255 255 9 1
0.595996 0.281217 -0.012983 255 255 255 9 1
0.600865 0.269740 -0.010755 255 255 255 9 1
0.526699 0.337744 -0.354314 152 142 158 12 12
0.531388 0.354203 -0.344602 139 132 141 12 12
0.528094 0.339756 -0.338269 139 129 144 12 12
0.519995 0.343401 -0.364894 105 101 119 34 7
0.510116 0.334764 -0.364511 112 108 127 34 7
0.530538 0.358546 -0.354369 124 121 140 12 12
0.521072 0.362401 -0.361000 96 91 96 0 0
0.628248 0.182080 -0.391561 119 118 133 0 0
0.633851 0.183643 -0.377096 123 119 123 0 0
0.636270 0.161370 -0.397150 108 108 136 0 0
0.638005 0.184299 -0.365083 126 132 151 0 0
0.647467 0.177556 -0.384253 104 107 124 0 0
0.634454 0.171757 -0.391576 108 110 140 0 0
0.615635 0.172386 -0.393252 88 97 120 0 0
0.616492 0.165782 -0.397629 114 113 135 0 0
0.557157 0.609416 -0.009921 95 85 69 1 9
0.551688 0.609017 -0.032054 181 177 170 1 9
0.555423 0.588495 -0.039092 204 197 197 1 9
0.563122 0.591038 -0.018997 107 98 88 1 9
0.593975 0.299482 -0.033307 255 255 255 9 1
0.539412 -0.289831 -0.354852 222 198 200 12 12
0.527063 -0.307305 -0.350957 228 202 207 12 12
0.537618 -0.287867 -0.341773 234 221 230 12 12
0.559223 0.454564 -0.230819 247 250 254 1 9
0.539427 0.443363 -0.215828 233 231 248 1 9
0.551322 0.458736 -0.214824 223 223 242 1 9
0.533944 0.439052 -0.229064 233 236 251 1 9
0.545119 0.454562 -0.223863 238 241 252 1 9
0.536425 0.433979 -0.229192 226 228 243 1 9
0.548485 0.439084 -0.219424 214 211 231 1 9
0.556446 0.437916 -0.208262 211 208 220 1 9
0.547958 0.439567 -0.234928 227 231 246 1 9
0.549083 0.451448 -0.205212 223 222 238 1 9
0.546923 0.485238 -0.273872 199 196 204 12 12
0.492561 0.317064 -0.432831 122 130 158 0 0
0.493432 0.321577 -0.419225 102 110 133 0 0
0.351479 0.348685 -0.529056 78 76 88 34 7
0.369160 0.361275 -0.528458 77 72 82 34 7
0.339149 0.348085 -0.535235 90 91 117 34 7
0.369721 0.378012 -0.530357 80 73 84 34 7
0.352070 0.368614 -0.533744 82 72 83 34 7
0.552569 0.579754 -0.053322 208 203 206 1 9
0.553173 0.573137 -0.043112 208 203 206 1 9
0.554691 0.550765 -0.046086 203 201 205 1 9
0.549351 -0.083236 -0.307514 130 116 111 12 12
0.537411 0.043589 -0.154017 212 206 222 9 1
0.535149 0.022760 -0.147551 217 212 225 9 1
0.244958 0.597447 -0.373887 255 255 255 12 12
0.263828 0.595837 -0.373270 255 255 255 12 12
0.521074 -0.039622 -0.380092 144 136 136 34 7
0.503081 -0.039419 -0.379314 128 123 125 34 7
0.502992 -0.058802 -0.386842 129 119 120 34 7
0.509711 -0.020168 -0.367707 138 133 136 34 7
0.570323 -0.275837 -0.251792 213 190 183 9 1
0.566252 -0.277824 -0.268383 213 189 183 12 12
0.567884 -0.263631 -0.271427 222 198 194 12 12
0.570331 -0.258560 -0.252910 215 193 186 9 1
0.658122 0.153644 -0.396893 59 59 75 0 0
0.580479 0.154915 -0.123686 251 251 253 9 1
0.589287 0.157454 -0.114701 255 255 255 9 1
0.564218 0.097516 -0.286998 161 154 150 12 12
0.563078 0.077189 -0.288697 159 149 143 12 12
0.551320 0.082431 -0.299227 169 160 155 12 12
0.497608 0.374625 -0.082815 183 163 158 9 1
0.505739 0.386381 -0.087979 197 186 185 9 1
0.525866 0.379396 -0.095937 197 184 184 9 1
0.297327 0.587609 -0.371351 233 241 255 12 12
0.310943 0.546865 -0.372794 241 250 254 12 12
0.428263 -0.120211 -0.408447 216 220 247 34 7
0.434625 -0.114178 -0.400840 208 214 247 34 7
0.684357 0.224533 -0.215244 143 141 150 0 0
0.698240 0.221188 -0.226688 90 89 92 0 0
0.610746 0.243318 0.025993 255 255 255 9 1
0.612085 0.256797 0.046994 255 255 255 9 1
0.566697 0.022376 -0.222963 166 162 188 1 9
0.359755 0.481153 -0.376686 209 211 235 12 12
0.222850 0.437924 -0.385601 205 223 254 34 7
0.219817 0.449320 -0.396854 180 200 252 34 7
0.212423 0.446774 -0.379015 210 226 254 12 12
0.247589 0.442483 -0.384297 184 201 249 34 7
0.564797 0.610451 -0.196839 179 170 153 1 9
0.567409 0.606776 -0.182391 190 178 158 1 9
0.532760 0.182761 -0.357054 119 117 118 12 12
0.535806 0.178973 -0.344690 143 141 145 12 12
0.514840 0.205153 -0.363439 130 125 144 12 12
0.523339 0.196316 -0.352559 126 117 125 12 12
0.526652 0.643916 -0.344807 210 204 210 12 12
0.513343 0.654920 -0.332755 222 220 229 12 12
0.538347 0.687709 -0.019580 210 191 178 9 10
0.538612 -0.070603 -0.355968 175 172 169 12 12
0.538043 -0.072916 -0.345035 186 177 180 12 12
0.609345 -0.099045 -0.041828 251 251 251 9 1
0.463631 -0.180784 -0.386100 163 139 136 34 7
0.471290 -0.199883 -0.385979 141 112 109 34 7
0.348264 0.455347 -0.450260 90 101 139 34 7
0.367058 0.450264 -0.461328 85 89 117 34 7
0.344583 0.453794 -0.438730 97 105 144 34 7
0.360233 0.452194 -0.439421 93 100 134 34 7
0.369776 0.451045 -0.448057 80 91 120 34 7
0.555209 0.587646 -0.099998 195 186 187 1 9
0.551550 0.612630 -0.092209 186 177 176 1 9
0.555108 0.599714 -0.092205 181 172 165 1 9
0.554571 0.599670 -0.107072 161 149 142 1 9
0.602114 0.199448 -0.360266 153 155 170 0 0
0.599358 0.228626 -0.351749 154 151 162 0 0
0.601687 0.217361 -0.350514 150 148 155 0 0
0.598324 0.206530 -0.350371 145 141 147 0 0
0.610431 0.203555 -0.347973 143 141 147 0 0
0.604586 0.205656 -0.337585 156 152 165 0 0
0.604389 0.223175 -0.335482 154 154 158 0 0
0.615671 0.207828 -0.337610 160 157 168 0 0
0.602115 0.223646 -0.344510 152 151 159 0 0
0.605652 0.215608 -0.347196 159 157 167 0 0
0.534169 0.427195 -0.087699 165 145 141 1 9
0.421454 0.198521 -0.431457 112 118 153 34 7
0.332702 0.455070 -0.422902 88 92 128 34 7
0.317174 0.453815 -0.421479 98 110 152 34 7
0.304242 0.450072 -0.394656 94 104 144 34 7
0.334999 0.457456 -0.409324 91 96 136 34 7
0.575017 0.497453 -0.185951 176 158 148 1 9
0.450170 0.348998 -0.369215 85 82 89 34 7
0.437091 0.371788 -0.377092 97 91 105 34 7
0.555696 0.606127 0.023324 137 124 109 1 9
0.555207 0.613458 0.002712 139 126 111 1 9
0.605810 -0.078740 -0.095962 255 255 255 9 1
0.615606 -0.064901 -0.075556 255 255 255 9 1
0.606276 -0.056137 -0.089852 255 255 255 9 1
0.513609 0.540144 -0.363569 191 183 175 12 12
0.506589 -0.303356 0.036884 163 121 103 0 0
0.577983 0.335202 -0.067068 255 255 255 9 1
0.567067 0.334264 -0.091394 255 255 255 9 1
0.645346 0.184079 -0.200882 192 190 191 0 0
0.653066 0.173983 -0.195400 192 190 191 0 0
0.647795 0.170829 -0.196885 223 222 223 0 0
0.660495 0.186791 -0.197677 223 221 222 0 0
0.369415 0.043436 -0.393451 64 81 113 34 7
0.530887 0.365484 -0.095302 215 211 228 9 1
0.541348 0.384166 -0.106425 200 189 196 9 1
0.544900 0.361169 -0.102875 216 214 231 9 1
0.594557 0.202316 -0.371478 149 145 157 0 0
0.616416 0.205145 -0.399205 151 166 188 0 0
0.607645 0.203924 -0.394413 141 156 179 0 0
0.598655 0.226403 -0.381313 129 129 130 0 0
0.594090 0.203223 -0.386081 132 131 144 0 0
0.590787 0.210688 -0.379097 133 139 141 0 0
0.587442 0.209442 -0.362446 156 153 167 0 0
0.591677 0.223829 -0.394019 110 115 133 0 0
0.583436 0.203180 -0.392079 134 143 163 0 0
0.596700 0.226543 -0.389901 113 121 128 0 0
0.528282 0.589455 -0.288082 207 203 208 12 12
0.528669 0.564110 -0.290883 207 206 208 12 12
0.532474 0.556740 -0.281315 203 195 199 12 12
0.539963 0.570983 -0.273897 203 195 199 12 12
0.536203 0.591103 -0.276420 208 204 208 12 12
0.528404 0.547616 -0.287116 208 201 207 12 12
0.423497 0.188338 -0.470814 113 116 146 34 7
0.527195 -0.238814 -0.372253 137 122 116 34 7
0.523047 -0.216002 -0.369830 145 129 125 34 7
0.487914 -0.194350 -0.021420 255 255 255 9 1
0.494815 -0.199715 -0.022959 255 255 255 9 1
0.499068 -0.206842 -0.025224 255 255 255 9 1
0.510815 -0.197038 -0.046613 255 255 255 9 1
0.505596 -0.185480 -0.041382 255 255 255 9 1
0.529480 -0.184464 -0.047696 255 255 255 9 1
0.505278 -0.208297 -0.047702 255 255 255 9 1
0.499185 -0.193030 -0.036393 255 255 254 9 1
0.501401 -0.209999 -0.033709 255 255 255 9 1
0.470783 -0.050086 -0.382707 122 118 133 34 7
0.486262 -0.080654 -0.390320 108 97 105 34 7
0.482658 -0.059917 -0.386894 106 97 107 34 7
0.593143 0.162880 -0.095111 255 255 255 9 1
0.591669 0.147075 -0.113719 255 255 255 9 1
0.597555 0.155719 -0.083702 255 255 255 9 1
0.599374 0.139965 -0.086580 255 255 255 9 1
0.542958 0.187748 -0.296643 174 169 175 12 12
0.564320 0.586421 -0.248372 191 184 179 1 9
0.559652 0.612275 -0.254328 208 199 197 12 12
0.563396 0.600379 -0.253387 209 203 198 1 9
0.597752 0.000400 -0.115571 255 255 255 9 1
0.657656 0.257558 -0.390215 103 106 114 0 0
0.636834 0.039261 -0.036247 239 239 239 9 1
0.638433 0.055464 -0.038603 253 253 253 9 1
0.425357 -0.245897 -0.458117 136 131 146 34 7
0.420843 -0.242344 -0.442608 212 211 224 34 7
0.423703 -0.260575 -0.459827 173 172 187 34 7
0.421948 -0.267295 -0.434719 166 167 180 34 7
0.555846 0.417642 -0.175321 198 194 200 1 9
0.557902 0.409331 -0.189071 197 192 199 1 9
0.558676 0.400217 -0.182635 197 193 199 1 9
0.394790 0.267631 -0.519418 106 99 102 34 7
0.556943 -0.168830 -0.186508 220 208 209 9 1
0.561581 -0.103256 -0.138047 255 255 255 9 1
0.582283 -0.075426 -0.129701 255 255 255 9 1
0.542688 -0.251943 -0.076529 209 154 128 9 1
0.547919 -0.219164 -0.078835 254 250 246 9 1
0.526970 -0.232120 -0.062568 204 142 115 9 1
0.482153 0.363529 -0.032469 130 111 104 9 1
0.481265 0.348323 -0.037336 120 107 108 9 1
0.484402 0.339551 -0.012599 255 254 255 9 1
0.426446 0.353015 -0.384949 96 98 118 34 7
0.547347 0.643706 -0.094535 213 205 200 1 9
0.519732 0.642211 -0.117537 215 207 206 1 9
0.545008 0.655403 -0.080014 229 223 216 1 9
0.546679 0.626054 -0.106247 190 177 171 1 9
0.544894 0.645351 -0.100977 220 213 213 1 9
0.530577 0.633067 -0.119092 220 211 211 1 9
0.549099 0.629256 -0.095958 186 174 169 1 9
0.415129 0.016050 -0.382521 192 238 252 34 7
0.422245 0.005561 -0.394424 185 208 243 34 7
0.430110 -0.006636 -0.396648 191 202 227 34 7
0.440177 0.008086 -0.381029 127 151 211 34 7
0.359718 0.657209 -0.295787 254 254 254 0 0
0.370009 0.650154 -0.313200 254 255 255 0 0
0.385783 0.638301 -0.293193 254 255 255 0 0
0.384371 0.637882 -0.268670 254 255 255 0 0
0.374751 0.645435 -0.272415 254 254 254 0 0
0.397085 0.593301 -0.280084 250 249 255 0 0
0.379557 0.581799 -0.280622 251 252 255 0 0
0.565760 -0.228808 -0.217638 222 205 198 9 1
0.565106 -0.242816 -0.227156 223 204 198 9 1
0.561778 -0.247192 -0.202066 223 205 200 9 1
0.421679 -0.079952 -0.436543 166 164 183 34 7
0.420720 -0.066626 -0.460020 154 151 170 34 7
0.422045 -0.056408 -0.444536 131 130 147 34 7
0.401940 0.168559 -0.521120 255 255 255 34 7
0.398565 0.175631 -0.526916 179 177 187 34 7
0.406822 0.155438 -0.522599 255 255 255 34 7
0.417507 0.154203 -0.513474 255 255 255 34 7
0.396404 0.153552 -0.395250 103 106 135 34 7
0.394121 0.140701 -0.405850 96 101 134 34 7
0.409154 0.157631 -0.413588 105 108 137 34 7
0.394154 0.132553 -0.407471 94 104 136 34 7
0.400488 0.133518 -0.406284 92 101 133 34 7
0.404648 0.140247 -0.414307 93 99 129 34 7
0.401476 0.122869 -0.401739 70 96 138 34 7
0.412281 0.138978 -0.411994 90 104 139 34 7
0.564502 0.163216 -0.224447 188 185 197 1 9
0.565742 0.149889 -0.225392 184 174 182 1 9
0.542973 0.073368 -0.337891 180 177 197 12 12
0.541989 0.053056 -0.319705 184 172 189 12 12
0.544772 0.059070 -0.309075 179 173 178 12 12
0.546688 0.042292 -0.303823 179 172 175 12 12
0.468746 0.120271 -0.382860 233 254 255 34 7
0.466493 0.086563 -0.371630 120 124 148 34 7
0.460228 0.101655 -0.380402 206 238 250 34 7
0.360642 0.646394 -0.211142 254 255 255 0 0
0.375611 0.642381 -0.229396 254 255 255 0 0
0.360070 0.648139 -0.229051 253 254 255 0 0
0.368308 0.647765 -0.245769 254 255 255 0 0
0.375637 0.643579 -0.208285 254 255 255 0 0
0.568002 -0.110306 -0.245800 204 194 197 1 9
0.520048 0.204656 -0.379638 121 124 148 12 12
0.478223 0.222103 -0.373635 96 93 116 34 7
0.496544 0.215512 -0.372735 106 105 128 34 7
0.497815 0.209804 -0.375502 117 118 144 12 12
0.508895 0.230723 -0.374587 89 84 102 34 7
0.511416 0.210864 -0.391385 120 126 148 34 7
0.510670 0.215317 -0.366169 146 152 177 12 12
0.521424 0.230609 -0.367478 113 115 130 12 12
0.522147 0.201936 -0.372231 152 153 176 12 12
0.511557 0.217139 -0.390850 103 96 113 0 0
0.390934 -0.296690 -0.427350 176 181 207 34 7
0.414808 -0.281385 -0.410645 229 228 237 34 7
0.402825 -0.294803 -0.411848 233 233 240 34 7
0.408458 -0.282362 -0.422220 184 187 213 34 7
0.544290 -0.264363 -0.311935 212 200 194 12 12
0.540435 -0.272624 -0.322084 223 212 214 12 12
0.539877 -0.253420 -0.321021 211 191 188 12 12
0.567671 -0.098169 -0.278840 190 182 182 1 9
0.558507 -0.112906 -0.289339 193 184 193 12 12
0.564421 -0.095441 -0.288895 194 189 196 12 12
0.562121 -0.123532 -0.273017 221 216 234 1 9
0.408399 0.044533 -0.464469 116 113 123 34 7
0.415199 0.042175 -0.437737 111 108 119 34 7
0.417487 0.019321 -0.437264 160 157 172 34 7
0.626477 0.114360 -0.037985 251 251 251 9 1
0.638090 0.125355 -0.036468 253 253 253 9 1
0.644289 0.104985 -0.037054 251 251 251 9 1
0.608842 0.121915 -0.036223 251 251 251 9 1
0.618211 0.101104 -0.036104 254 254 255 9 1
0.617918 0.109891 -0.038354 254 254 254 9 1
0.415104 0.255635 -0.482838 112 118 151 34 7
0.416316 0.241442 -0.475912 115 124 159 34 7
0.415295 0.268856 -0.480630 111 115 151 34 7
0.492110 -0.268353 -0.387850 223 213 223 34 7
0.484139 -0.249947 -0.391376 230 199 211 34 7
0.398195 0.570062 -0.360679 152 150 161 12 12
0.403540 0.581248 -0.355436 162 158 167 12 12
0.383718 0.578311 -0.347701 185 184 193 0 0
0.395380 0.585373 -0.347023 186 185 193 0 0
0.412496 -0.066518 -0.511795 121 118 127 34 7
0.407023 -0.058426 -0.520976 102 102 110 34 7
0.414572 -0.053897 -0.502202 138 132 144 34 7
0.525600 0.218604 -0.386653 94 93 110 0 0
0.534262 0.209321 -0.399410 171 181 201 0 0
0.524393 0.213205 -0.392094 171 181 201 0 0
0.544615 0.233403 -0.392536 111 110 129 0 0
0.532596 0.206535 -0.393605 172 184 208 0 0
0.546169 0.221545 -0.386029 98 100 116 0 0
0.543538 0.212456 -0.387835 115 122 146 0 0
0.596596 -0.196174 -0.117978 255 255 255 9 1
0.587481 -0.210055 -0.126279 255 255 254 9 1
0.589372 -0.193608 -0.125981 255 255 255 9 1
0.499077 0.600238 -0.361805 195 192 183 12 12
0.462804 0.442180 -0.330447 189 189 208 12 12
0.459280 0.443130 -0.298704 193 192 211 12 12
0.450732 0.436375 -0.330893 187 187 205 0 0
0.460569 0.445853 -0.315441 195 193 212 0 0
0.469436 0.437406 -0.318323 191 191 209 12 12
0.563479 0.544503 -0.113880 187 175 158 1 9
0.571536 0.535116 -0.132828 191 175 158 1 9
0.513147 0.680616 0.332010 213 190 167 9 10
0.520336 0.668382 0.364532 229 208 188 9 10
0.594097 0.224791 0.666311 255 255 255 9 1
0.605694 0.199458 0.659252 239 239 239 9 1
0.510659 0.339241 0.665715 237 230 231 9 1
0.507864 0.341927 0.692533 237 231 228 9 1
0.506557 0.350567 0.671782 191 182 175 9 1
0.504041 0.381422 0.650370 183 172 167 9 1
0.746682 0.115192 0.311766 191 191 190 9 1
0.747631 0.126013 0.309775 247 247 246 9 1
0.737565 0.116535 0.307447 128 127 126 9 1
0.477922 -0.302007 0.306430 163 129 127 9 1
0.488874 -0.275153 0.295506 175 136 132 9 1
0.651381 0.034851 0.305616 127 127 127 9 1
0.474111 0.613302 0.999136 152 141 129 9 10
0.618322 0.230034 0.412300 255 255 255 9 1
0.628833 0.216075 0.423951 223 221 224 9 1
0.624175 0.229574 0.427510 255 255 255 9 1
0.621604 0.221719 0.428324 239 238 240 9 1
0.620311 0.223883 0.431225 247 245 248 9 1
0.627147 0.208496 0.429623 223 221 224 9 1
0.635990 0.227351 0.423047 223 221 224 9 1
0.755752 0.063824 0.629098 127 127 128 9 1
0.743001 0.059507 0.638512 127 128 128 9 1
0.739705 0.060085 0.650662 127 126 127 9 1
0.511658 0.687498 0.271254 142 121 107 9 10
0.552886 -0.090517 0.316210 255 255 255 9 1
0.539911 0.623674 0.145563 177 167 162 9 10
0.535147 0.641696 0.154393 191 179 175 9 10
0.537700 0.629856 0.168901 137 127 119 9 10
0.537678 0.622959 0.183937 174 165 157 9 10
0.532435 0.654331 0.138152 195 183 178 9 10
0.502534 -0.213679 0.116028 255 255 255 9 1
0.489231 -0.196011 0.084333 255 255 255 9 1
0.745161 0.120155 0.305805 191 191 191 9 1
0.741856 0.107609 0.303658 128 128 128 9 1
0.525878 0.503402 0.494767 134 121 106 1 9
0.521778 0.505533 0.528201 128 120 104 1 9
0.527954 0.520796 0.528158 134 117 104 1 9
0.595749 0.124972 0.398407 255 255 255 9 1
0.580045 0.106532 0.386273 255 255 255 9 1
0.577273 0.124701 0.384904 254 252 254 9 1
0.554520 0.304625 0.763894 255 253 248 9 1
0.539196 0.300980 0.790097 255 254 250 9 1
0.524847 0.310195 0.765462 255 255 255 9 1
0.537044 0.303102 0.767382 255 254 249 9 1
0.602444 0.303752 0.422548 255 255 255 9 1
0.602998 0.269788 0.409101 255 255 255 9 1
0.606544 0.268943 0.417264 255 255 255 9 1
0.561802 0.334502 0.132030 255 255 255 9 1
0.564230 0.334060 0.111965 255 255 255 9 1
0.556111 0.339430 0.112738 255 255 255 9 1
0.432916 0.359683 0.428965 106 91 88 9 1
0.597103 0.221293 0.656338 255 255 255 9 1
0.598962 0.217643 0.646994 251 251 251 9 1
0.607890 0.203005 0.648966 254 254 254 9 1
0.598455 0.218283 0.628235 255 255 255 9 1
0.602157 0.221010 0.617758 255 255 255 9 1
0.589840 0.223305 0.640506 255 255 255 9 1
0.599195 0.209318 0.641921 255 255 255 9 1
0.608835 0.215247 0.654821 251 251 251 9 1
0.482238 -0.037056 0.990826 177 167 163 1 9
0.512509 0.299267 0.870500 223 218 220 9 1
0.520574 0.292544 0.865746 253 250 248 9 1
0.515133 0.282548 0.874543 236 233 233 9 1
0.483275 0.683354 0.574078 255 255 255 9 10
0.490639 -0.276505 0.951270 192 181 180 9 1
0.488234 -0.284899 0.962548 208 205 202 9 1
0.486778 -0.299187 0.959604 222 214 215 9 1
0.483752 -0.301683 0.968751 221 212 212 9 1
0.412385 0.351135 0.508050 176 162 168 9 1
0.416550 0.370041 0.512322 169 161 157 9 1
0.423847 0.354731 0.516798 179 167 172 9 1
0.411165 0.367790 0.503540 147 134 133 9 1
0.508991 0.428226 0.602629 179 168 160 9 1
0.511635 0.438245 0.618190 150 138 133 9 1
0.595336 0.175834 0.719858 255 255 255 9 1
0.592511 0.173907 0.713312 255 255 255 9 1
0.597516 0.177527 0.707308 252 252 252 9 1
0.590756 0.175375 0.699611 252 252 252 9 1
0.595190 0.166700 0.698960 255 255 255 9 1
0.527881 0.494763 0.451594 129 117 101 1 9
0.535193 0.516080 0.450231 139 124 110 1 9
0.552327 0.532856 0.211289 132 122 114 9 10
0.554625 0.534322 0.173145 136 127 116 9 10
0.551990 0.520757 0.193972 139 126 116 9 10
0.552776 0.550858 0.189381 142 130 116 9 10
0.593632 0.159205 0.712634 255 255 255 9 1
0.593534 0.145462 0.715206 255 255 254 9 1
0.598530 0.150357 0.703906 255 255 255 9 1
0.578497 0.087803 0.346084 255 254 255 9 1
0.452572 -0.165913 0.510707 255 255 254 9 1
0.457719 -0.144990 0.516454 253 253 252 9 1
0.453674 -0.172283 0.502185 254 253 252 9 1
0.462721 -0.145246 0.508432 253 253 252 9 1
0.453762 -0.146114 0.500959 251 251 250 9 1
0.597816 0.024229 0.601491 255 255 255 9 1
0.604751 0.014535 0.616807 255 255 255 9 1
0.603141 0.036205 0.616857 255 255 255 9 1
0.490550 0.693890 0.321449 154 134 114 9 10
0.561705 -0.310205 0.858423 255 254 254 9 1
0.553940 -0.304982 0.861714 245 242 243 9 1
0.562386 -0.283317 0.854648 254 252 250 9 1
0.487337 0.624241 1.041589 110 96 74 1 9
0.483380 0.606383 1.027521 107 94 78 1 9
0.584061 0.298805 0.685911 254 248 244 9 1
0.578109 0.305882 0.677651 255 252 252 9 1
0.570189 0.309152 0.672065 255 253 253 9 1
0.559034 0.309302 0.652682 255 254 255 9 1
0.488810 0.124147 0.529382 255 255 255 9 1
0.651776 0.020884 0.545349 128 128 128 9 1
0.639553 0.020554 0.540045 192 192 192 9 1
0.638579 0.013868 0.546779 223 223 223 9 1
0.638981 0.008434 0.552933 223 223 222 9 1
0.661740 0.017924 0.565839 223 223 221 9 1
0.648301 0.016226 0.556379 223 223 221 9 1
0.630857 0.029815 0.545856 127 127 127 9 1
0.660048 -0.002062 0.561406 223 223 222 9 1
0.474276 -0.279254 0.549484 255 255 255 9 1
0.457252 -0.273644 0.536627 255 255 255 9 1
0.456874 -0.294851 0.535188 255 255 255 9 1
0.462250 -0.280196 0.543476 255 255 255 9 1
0.477045 -0.298808 0.546903 255 255 255 9 1
0.528933 0.510982 0.568440 129 115 104 9 10
0.527093 0.501745 0.583865 130 119 103 9 10
0.528149 0.489158 0.579189 132 121 106 9 10
0.529619 0.521239 0.572293 136 124 110 9 10
0.585984 -0.150756 0.822490 238 231 220 9 1
0.589944 -0.164930 0.805635 244 234 228 9 1
0.585290 -0.185224 0.797113 255 255 255 9 1
0.588930 -0.177631 0.794135 255 255 255 9 1
0.494988 -0.100655 1.026493 136 127 115 1 9
0.491461 -0.085199 1.015349 139 127 116 1 9
0.584669 -0.041969 0.811337 249 244 240 9 1
0.591057 -0.029414 0.783726 255 255 255 9 1
0.582692 -0.062362 0.804557 255 255 255 9 1
0.588066 -0.030290 0.802776 255 255 255 9 1
0.586072 -0.040397 0.791700 255 255 255 9 1
0.461211 -0.292750 0.456148 173 164 170 9 1
0.457640 -0.299803 0.469631 159 148 155 9 1
0.471344 -0.269162 0.448534 155 144 153 9 1
0.655007 -0.121243 1.065717 66 57 55 0 0
0.683270 -0.095094 1.042664 60 59 55 0 0
0.670811 -0.112681 1.072803 65 60 56 0 0
0.656271 -0.114866 1.045551 98 89 83 0 0
0.677345 -0.100690 1.041435 98 89 82 0 0
0.472900 -0.174768 0.549601 253 253 253 9 1
0.468708 -0.177377 0.535937 247 246 246 9 1
0.469033 -0.190027 0.544394 248 247 247 9 1
0.478338 -0.183136 0.551283 255 255 255 9 1
0.487321 -0.203070 0.549944 255 255 255 9 1
0.461579 -0.199465 0.537592 255 255 255 9 1
0.467955 -0.207124 0.528662 255 255 255 9 1
0.473244 -0.211935 0.538360 255 255 255 9 1
0.535245 0.029986 0.567817 247 247 248 9 1
0.553347 -0.114650 0.934952 201 197 198 0 0
0.439859 0.342832 0.435763 197 179 173 9 1
0.430880 0.348263 0.460503 234 215 208 9 1
0.509284 -0.290728 0.060327 180 128 106 9 1
0.510612 -0.282946 0.078126 174 126 109 9 1
0.521348 0.472376 0.664074 136 124 111 9 1
0.500251 0.073220 1.074359 136 122 112 1 9
0.499618 0.059158 1.056610 138 124 113 1 9
0.559192 -0.125460 0.310550 255 255 253 9 1
0.500161 -0.281784 0.163232 171 128 116 9 1
0.505435 -0.278473 0.134357 176 129 114 9 1
0.492842 -0.301728 0.155609 166 127 117 9 1
0.505263 -0.214373 0.036904 254 254 250 9 1
0.516455 -0.235773 0.056961 192 135 115 9 1
0.503468 -0.213175 0.065388 255 255 254 9 1
0.510661 -0.220871 0.049312 201 158 134 9 1
0.757993 0.046489 0.693632 128 127 126 9 1
0.747127 0.045630 0.700156 128 127 126 9 1
0.735963 0.054824 0.708264 127 127 126 9 1
0.733369 0.036990 0.712350 128 128 127 9 1
0.731636 0.045269 0.713465 128 127 126 9 1
0.540144 0.417875 0.281293 175 178 198 9 1
0.545312 0.421127 0.261518 173 176 197 9 1
0.573432 0.302445 0.289222 255 249 247 9 1
0.569082 0.311324 0.304570 249 239 233 9 1
0.572169 0.310613 0.272008 248 239 234 9 1
0.539908 0.049357 0.568686 251 251 251 9 1
0.545199 0.066608 0.564167 239 239 239 9 1
0.470369 0.428472 0.405299 109 95 88 9 1
0.471771 0.432182 0.430874 105 98 88 9 1
0.458417 0.416853 0.412335 106 96 86 9 1
0.526131 0.458288 0.251824 124 112 102 9 1
0.477939 -0.182365 0.237651 246 243 243 9 1
0.481510 -0.175249 0.214117 253 251 251 9 1
0.463294 -0.171337 0.236845 231 220 219 9 1
0.466459 -0.168483 0.228936 223 223 223 9 1
0.484473 -0.168553 0.219945 223 221 222 9 1
0.528506 0.454662 0.154604 126 110 103 1 9
0.526329 0.450774 0.164667 131 114 109 9 1
0.505951 0.434021 0.163325 127 108 102 9 1
0.532229 0.460535 0.176129 119 109 100 1 9
0.574010 -0.093114 0.907971 223 222 220 9 1
0.569635 -0.109613 0.908456 239 237 237 9 1
0.573270 -0.127121 0.909528 242 241 239 9 1
0.577583 -0.113968 0.908636 147 141 139 9 1
0.497551 0.641612 0.719162 170 157 145 9 10
0.498669 0.624911 0.700971 172 157 147 9 10
0.482344 -0.267630 0.362918 179 145 138 9 1
0.596016 -0.252945 0.408294 127 126 128 9 1
0.508793 -0.265327 0.538656 255 255 254 9 1
0.524708 -0.277233 0.540511 255 255 252 9 1
0.527331 -0.258990 0.540015 254 253 254 9 1
0.532949 -0.248679 0.537400 254 253 254 9 1
0.534817 -0.272908 0.544579 255 254 254 9 1
0.515335 -0.260848 0.087487 189 132 104 9 1
0.513966 -0.251914 0.105473 190 133 108 9 1
0.570139 0.075213 0.373545 241 236 238 9 1
0.494223 0.297123 0.894631 175 160 152 9 1
0.671080 0.119760 0.353583 191 191 190 9 1
0.673947 0.127113 0.345031 128 127 126 9 1
0.686742 0.119743 0.335738 191 191 190 9 1
0.680147 0.111649 0.346220 192 191 190 9 1
0.676391 0.116155 0.360168 223 221 221 9 1
0.674237 0.114781 0.337573 251 251 250 9 1
0.683624 0.110421 0.339293 191 191 190 9 1
0.676424 0.112463 0.354426 128 127 126 9 1
0.672074 0.112627 0.361805 191 190 189 9 1
0.514339 0.270610 0.878385 226 222 222 9 1
0.525896 0.243581 0.875159 246 244 245 9 1
0.551007 0.425430 0.164960 172 175 187 9 1
0.539242 0.417168 0.186846 175 176 194 9 1
0.586283 -0.109386 0.438189 239 239 239 9 1
0.597639 -0.090692 0.441070 255 255 255 9 1
0.592835 -0.107392 0.448274 239 239 239 9 1
0.587992 -0.121039 0.453557 191 191 192 9 1
0.589153 -0.052049 0.638751 255 255 255 9 1
0.504040 0.685506 0.406882 163 145 121 9 10
0.748221 0.045076 0.627687 128 128 128 9 1
0.759516 0.059607 0.628538 127 128 128 9 1
0.728921 0.046509 0.603109 192 191 191 9 1
0.738165 0.044809 0.615239 128 127 127 9 1
0.479638 -0.212285 0.491790 234 229 236 9 1
0.474664 -0.201342 0.492635 216 210 219 9 1
0.476081 -0.188086 0.477764 248 245 249 9 1
0.470045 -0.172473 0.477787 255 255 255 9 1
0.468418 -0.177810 0.488842 255 255 255 9 1
0.476827 0.625333 0.975550 166 151 141 9 10
0.478047 0.648604 0.980490 173 163 151 9 10
0.481217 0.650319 0.947664 150 144 127 9 10
0.479014 0.633310 0.952276 152 139 125 9 10
0.478822 0.621852 0.957976 150 140 124 9 10
0.492714 0.296842 1.047463 119 109 96 1 9
0.599657 0.174937 0.660147 253 253 253 9 1
0.608794 0.184371 0.658327 239 239 239 9 1
0.596100 0.172604 0.686987 255 255 255 9 1
0.599075 0.170307 0.673530 255 255 255 9 1
0.613793 0.186389 0.664424 239 239 239 9 1
0.679642 -0.053166 0.819982 209 196 185 9 1
0.682605 -0.041941 0.801373 239 239 236 9 1
0.686311 -0.053384 0.799339 239 238 235 9 1
0.655466 -0.055321 0.815927 216 203 194 9 1
0.661647 -0.062908 0.812278 213 201 189 9 1
0.675993 -0.056576 0.803818 224 213 202 9 1
0.667509 -0.067005 0.798974 251 251 250 9 1
0.691566 -0.057948 0.791471 247 247 246 9 1
0.658439 -0.027953 0.847477 220 220 220 9 1
0.543257 0.507767 0.334074 136 123 111 1 9
0.539860 0.506028 0.362324 133 122 108 1 9
0.509996 0.622083 0.539868 138 126 117 9 10
0.506614 0.619615 0.564110 166 149 145 9 10
0.491913 -0.282997 0.928509 190 185 176 9 1
0.562618 0.326031 0.246038 255 255 255 9 1
0.553268 -0.174430 0.953883 180 173 171 0 0
0.550157 -0.180275 0.958854 172 164 161 0 0
0.485788 -0.253023 0.972435 200 191 189 9 1
0.462930 0.395865 0.192789 109 93 86 9 1
0.468401 0.404699 0.208719 107 92 83 9 1
0.459298 0.377767 0.178750 113 96 89 9 1
0.481798 0.011456 0.559643 255 255 255 9 1
0.498910 0.041088 0.562598 255 255 255 9 1
0.487719 0.019360 0.535457 255 255 255 9 1
0.476132 0.012762 0.538283 255 255 255 9 1
0.473668 0.037925 0.561889 255 255 255 9 1
0.486717 0.028803 0.561737 255 255 255 9 1
0.576698 0.087898 0.794579 255 254 253 9 1
0.579126 0.079298 0.800698 255 254 252 9 1
0.581387 0.091616 0.806850 255 254 254 9 1
0.584903 0.104905 0.822960 255 252 251 9 1
0.581178 0.074410 0.820792 255 254 252 9 1
0.577098 0.061109 0.796373 255 254 253 9 1
0.521784 0.687694 0.202208 182 161 144 9 10
0.502778 0.421234 0.197571 120 103 96 9 1
0.485551 0.418398 0.176592 116 99 91 9 1
0.492899 0.425391 0.179550 127 111 105 9 1
0.501788 0.432486 0.184655 123 106 98 9 1
0.565937 -0.046166 0.861361 243 240 236 9 1
0.540123 0.582242 0.363074 122 112 95 9 10
0.542555 0.571097 0.358650 130 118 102 9 10
0.536055 0.591276 0.378236 117 105 92 9 10
0.541266 0.583389 0.336204 120 109 97 9 10
0.544778 0.570675 0.326097 133 119 104 9 10
0.474758 -0.053040 0.525880 255 255 255 9 1
0.493423 -0.075284 0.526373 255 254 254 9 1
0.476372 -0.069440 0.525200 255 255 255 9 1
0.468008 -0.083169 0.521399 255 255 255 9 1
0.481198 -0.082454 0.518020 255 255 255 9 1
0.502056 -0.074607 0.520711 254 253 254 9 1
0.553327 0.022680 0.867613 255 254 255 9 1
0.538691 0.043178 0.871763 255 255 255 9 1
0.548057 -0.284736 0.863004 254 254 255 9 1
0.559177 -0.266355 0.856538 255 254 254 9 1
0.558841 -0.248338 0.856666 255 254 253 9 1
0.715902 -0.034832 0.792044 238 239 238 9 1
0.701888 -0.050795 0.801469 239 239 239 9 1
0.695818 -0.035863 0.824783 216 206 196 9 1
0.698164 -0.059753 0.794502 239 240 239 9 1
0.706477 -0.048995 0.786856 239 239 238 9 1
0.696555 -0.037031 0.798157 247 247 245 9 1
0.626013 -0.161340 1.048544 123 111 101 0 0
0.479387 0.597455 1.012043 112 100 82 1 9
0.487995 0.578881 1.011775 111 96 80 1 9
0.491832 0.571332 0.988077 102 94 77 1 9
0.478180 0.595391 0.992254 114 103 85 1 9
0.512799 0.491933 0.805225 130 120 106 9 1
0.513014 0.470580 0.786135 134 121 105 1 9
0.520166 -0.176785 0.323591 254 255 255 9 1
0.521286 -0.164703 0.321592 255 255 255 9 1
0.548729 -0.149763 0.317526 254 253 253 9 1
0.542459 -0.158267 0.321102 254 253 253 9 1
0.536454 -0.177054 0.325581 255 255 255 9 1
0.541844 -0.184931 0.324996 255 255 255 9 1
0.531739 -0.156502 0.310152 243 241 241 9 1
0.596087 0.314002 0.427063 255 255 255 9 1
0.498762 -0.208625 0.186044 254 255 252 9 1
0.503076 -0.219785 0.213146 254 241 238 9 1
0.505562 -0.228787 0.210695 178 139 126 9 1
0.493161 -0.202803 0.200730 255 254 253 9 1
0.608347 0.269974 0.514791 255 255 255 9 1
0.604935 0.273437 0.523566 255 255 255 9 1
0.594312 -0.084108 0.908360 160 158 155 9 1
0.576505 -0.076661 0.907828 169 165 163 9 1
0.497507 -0.300540 1.024637 140 132 126 1 9
0.544950 0.336686 0.286050 255 255 255 9 1
0.528734 0.341275 0.278074 255 255 255 9 1
0.504363 -0.215699 0.087078 255 251 247 9 1
0.513584 -0.236455 0.097646 190 134 111 9 1
0.506999 -0.220859 0.117554 203 158 147 9 1
0.509391 -0.221930 0.088801 255 250 247 9 1
0.501630 0.312071 0.880265 231 228 228 9 1
0.499565 0.322601 0.866797 196 189 184 9 1
0.548131 0.425278 0.233670 171 176 191 9 1
0.547904 0.439247 0.226095 173 177 190 9 1
0.638365 0.229422 0.434599 223 221 224 9 1
0.619528 0.229165 0.444396 223 222 224 9 1
0.630022 0.222471 0.437586 239 237 240 9 1
0.593879 -0.048380 0.719586 255 255 255 9 1
0.595454 -0.041829 0.700912 255 255 255 9 1
0.611115 0.105994 0.540690 255 255 255 9 1
0.615584 0.116296 0.536837 255 255 255 9 1
0.445824 0.338786 0.532091 174 162 162 9 1
0.459690 0.328581 0.539823 209 201 202 9 1
0.503535 0.431395 0.706516 175 165 157 9 1
0.560625 0.546083 0.044220 147 138 125 9 10
0.559261 0.545879 0.066074 149 138 125 9 10
0.459324 0.337571 0.357936 255 253 251 9 1
0.581835 0.298142 0.713453 247 238 232 9 1
0.574941 0.304024 0.707435 234 221 217 9 1
0.564801 0.307494 0.704777 255 254 255 9 1
0.510667 -0.015889 0.879879 253 251 251 9 1
0.508416 0.004213 0.879373 253 251 251 9 1
0.590955 -0.079928 0.437433 255 255 255 9 1
0.550986 -0.068701 0.868148 252 252 252 9 1
0.563834 -0.076928 0.864618 254 254 254 9 1
0.517862 0.650217 0.372247 212 194 183 9 10
0.519545 0.641940 0.375587 208 191 181 9 10
0.521105 0.626889 0.393162 198 184 174 9 10
0.516060 0.648840 0.402963 217 197 182 9 10
0.473535 -0.247626 0.450168 157 148 154 9 1
0.539404 -0.180081 0.394409 255 255 255 9 1
0.536954 -0.171147 0.395076 255 255 255 9 1
0.519172 -0.168087 0.398406 255 255 255 9 1
0.575295 -0.231808 0.563068 255 254 255 9 1
0.570144 -0.245123 0.561313 253 253 253 9 1
0.551537 -0.144719 0.939119 190 185 184 0 0
0.547703 -0.135902 0.941103 184 179 177 0 0
0.504119 0.687322 0.472071 181 158 141 9 10
0.501361 0.691556 0.483623 189 171 149 9 10
0.500545 0.692053 0.514445 191 174 152 9 10
0.483419 -0.281477 0.324887 170 135 132 9 1
0.602447 0.053129 0.633000 255 255 255 9 1
0.588486 0.063715 0.641969 255 255 255 9 1
0.591586 0.050497 0.642068 255 255 255 9 1
0.587883 0.064648 0.648032 254 254 254 9 1
0.603386 0.045519 0.649485 253 253 253 9 1
0.590467 0.056723 0.656129 191 191 191 9 1
0.478512 -0.250300 0.394251 167 138 138 9 1
0.478201 -0.234800 0.417265 169 146 147 9 1
0.482295 -0.212977 0.415026 255 252 255 9 1
0.483631 0.119330 0.968234 198 190 189 9 1
0.483344 0.135440 0.945672 180 171 164 9 1
0.598414 -0.192172 1.048055 121 113 99 0 0
0.592881 -0.209177 1.065562 121 112 100 0 0
0.604969 -0.193940 1.065480 120 111 100 0 0
0.586951 -0.213840 1.041289 121 106 99 0 0
0.483277 0.202590 1.019653 125 113 100 1 9
0.490080 0.191488 1.032150 133 120 106 1 9
0.520166 0.320678 0.696321 254 254 254 9 1
0.579964 -0.222597 0.566425 255 253 255 9 1
0.538921 -0.200209 0.548138 253 253 253 9 1
0.556364 -0.195962 0.552972 251 251 251 9 1
0.568058 -0.182265 0.538998 224 222 223 9 1
0.553620 -0.179249 0.532710 239 237 238 9 1
0.568375 -0.186714 0.532197 247 245 247 9 1
0.568144 -0.206120 0.557673 254 253 254 9 1
0.576792 -0.193042 0.560728 247 247 247 9 1
0.582631 -0.192181 0.536316 254 252 254 9 1
0.579055 -0.203070 0.535187 239 237 239 9 1
0.540488 -0.193233 0.546724 247 247 247 9 1
0.589950 0.091455 0.645457 255 255 255 9 1
0.592780 0.082644 0.645799 255 255 255 9 1
0.590346 0.094254 0.655928 255 255 255 9 1
0.590345 0.068602 0.653490 223 223 223 9 1
0.593343 0.078599 0.638749 255 255 255 9 1
0.602022 0.067106 0.634706 255 255 255 9 1
0.646770 0.000346 0.560091 223 223 222 9 1
0.488292 0.417903 0.329237 115 96 96 9 1
0.494720 0.407896 0.318354 131 118 116 9 1
0.491093 0.430511 0.327669 115 97 92 9 1
0.489770 0.422255 0.306027 117 99 95 9 1
0.490878 0.413682 0.311609 130 114 113 9 1
0.565713 0.269009 0.831085 205 190 179 9 1
0.561174 0.268360 0.849064 193 179 167 9 1
0.575205 0.271837 0.828363 213 200 189 9 1
0.580097 0.286489 0.816426 198 185 173 9 1
0.579868 0.280472 0.826804 194 182 170 9 1
0.574461 0.286309 0.848599 191 181 168 9 1
0.615098 -0.052190 0.491626 255 255 255 9 1
0.621897 -0.034637 0.481026 255 255 255 9 1
0.606863 -0.059340 0.479503 255 255 255 9 1
0.620800 -0.040475 0.494469 255 255 255 9 1
0.620872 -0.032343 0.500916 255 255 255 9 1
0.437458 0.393445 0.416784 101 90 83 9 1
0.455314 0.391516 0.237800 111 93 87 9 1
0.450637 0.384382 0.269904 112 93 91 9 1
0.518723 0.221230 0.876723 221 220 224 9 1
0.543711 0.222338 0.875031 243 241 244 9 1
0.456963 0.397991 0.264074 109 91 87 9 1
0.616288 0.034654 0.547373 128 127 126 9 1
0.641120 0.061265 0.536907 223 223 222 9 1
0.631826 0.047325 0.535780 128 127 126 9 1
0.619459 0.045297 0.538492 191 191 190 9 1
0.629677 0.043782 0.548358 191 190 190 9 1
0.614968 0.060465 0.531226 223 223 223 9 1
0.610039 0.038204 0.536663 128 127 126 9 1
0.634994 0.038833 0.558536 128 127 126 9 1
0.600426 0.126942 0.632350 255 255 255 9 1
0.602998 0.134608 0.638110 255 255 255 9 1
0.599608 0.129526 0.653988 255 255 255 9 1
0.601654 0.118543 0.644546 255 255 255 9 1
0.600694 0.109210 0.637853 255 255 255 9 1
0.708843 -0.026686 0.806056 223 223 218 9 1
0.726953 -0.021542 0.790056 239 240 238 9 1
0.699593 -0.005775 0.802147 127 128 125 9 1
0.693092 -0.012417 0.802332 120 117 111 9 1
0.700754 -0.003230 0.810129 126 123 118 9 1
0.701318 -0.030147 0.807405 220 216 208 9 1
0.711472 -0.033028 0.799609 238 240 238 9 1
0.716557 -0.024917 0.801131 238 239 239 9 1
0.693770 -0.009040 0.807498 128 127 124 9 1
0.705882 -0.010121 0.813659 120 116 110 9 1
0.722805 -0.011335 0.804393 221 223 220 9 1
0.713099 -0.017217 0.807220 221 224 221 9 1
0.633461 0.258178 0.093319 255 255 255 9 1
0.643009 0.262103 0.099121 251 251 251 9 1
0.586367 0.276113 0.679634 255 255 255 9 1
0.588604 0.286554 0.684405 254 254 253 9 1
0.507019 0.649015 0.543827 198 193 187 9 10
0.508502 0.646871 0.527879 189 180 172 9 10
0.544929 -0.149240 1.000214 171 162 159 0 0
0.679106 -0.027701 0.841359 216 214 211 9 1
0.687208 -0.024152 0.837711 213 208 203 9 1
0.492258 -0.071732 0.935040 184 174 167 9 1
0.489836 -0.082300 0.945954 184 174 167 9 1
0.493138 -0.052827 0.916203 185 175 168 9 1
0.499652 0.482275 0.974058 122 110 95 1 9
0.499585 0.471078 0.965150 128 112 98 9 1
0.603563 0.016826 0.652244 255 255 255 9 1
0.598951 0.036505 0.643138 255 255 255 9 1
0.605140 0.038656 0.634211 255 255 255 9 1
0.606386 0.013298 0.636448 255 255 255 9 1
0.604878 0.026439 0.632577 255 255 255 9 1
0.601689 0.034373 0.651540 255 255 255 9 1
0.589632 0.059603 0.437075 223 223 223 9 1
0.575406 0.045318 0.433027 192 192 192 9 1
0.594920 0.055463 0.436306 239 238 239 9 1
0.603910 -0.233650 0.625040 255 255 255 9 1
0.609379 -0.224171 0.651335 253 253 253 9 1
0.599362 -0.215887 0.638676 255 255 255 9 1
0.600002 -0.237485 0.633634 255 255 255 9 1
0.600857 -0.234849 0.642101 255 255 255 9 1
0.597644 -0.249153 0.658243 247 247 247 9 1
0.607611 -0.233159 0.656483 239 239 239 9 1
0.606727 -0.242155 0.650503 251 251 251 9 1
0.490369 0.093460 0.904911 183 175 169 9 1
0.498226 0.103520 0.888976 194 186 185 9 1
0.485011 -0.284424 0.980727 177 168 163 1 9
0.484439 -0.256193 0.987875 168 155 148 1 9
0.490382 -0.294912 1.005623 144 133 122 1 9
0.515247 0.025105 0.556090 255 255 255 9 1
0.512036 0.008527 0.541017 255 255 255 9 1
0.528457 0.021275 0.551746 191 190 191 9 1
0.528059 0.025957 0.557656 223 223 222 9 1
0.532205 0.019056 0.557379 251 251 250 9 1
0.527857 0.012761 0.546635 238 238 239 9 1
0.498423 0.020030 0.533285 255 254 255 9 1
0.514601 0.023574 0.535337 255 254 255 9 1
0.520821 0.036953 0.535356 255 254 255 9 1
0.530561 0.023660 0.541359 247 246 247 9 1
0.504816 0.018064 0.559144 255 255 254 9 1
0.481535 0.013419 0.988693 183 174 169 1 9
0.484278 0.019190 1.005350 146 136 125 1 9
0.487916 0.013107 0.958128 209 202 207 9 1
0.480448 0.040533 0.982134 197 188 185 9 1
0.590539 0.068603 0.666520 127 127 127 9 1
0.583221 0.181017 0.786768 239 239 237 9 1
0.581569 0.168657 0.796402 255 255 255 9 1
0.585439 0.190335 0.802811 254 255 254 9 1
0.580656 0.169610 0.806345 255 255 255 9 1
0.587915 0.187000 0.797717 246 248 247 9 1
0.605042 0.019028 0.733706 255 255 255 9 1
0.602722 0.028922 0.727689 255 255 255 9 1
0.600275 0.022705 0.753292 255 255 255 9 1
0.607123 0.029146 0.739088 255 255 255 9 1
0.602665 0.011608 0.743801 255 255 255 9 1
0.599538 0.005043 0.739062 255 255 255 9 1
0.611599 0.038265 0.734707 252 252 252 9 1
0.513647 0.408051 0.317510 178 182 204 9 1
0.528318 0.412172 0.317517 177 181 203 9 1
0.493753 -0.116272 1.020630 137 131 115 1 9
0.569651 0.115807 0.360427 228 217 221 9 1
0.568153 0.113209 0.337189 254 255 255 9 1
0.571359 0.139421 0.350543 255 253 254 9 1
0.567819 0.127969 0.354078 254 255 255 9 1
0.571383 0.105161 0.346258 255 254 255 9 1
0.541521 0.462651 0.376559 176 182 198 9 1
0.503111 -0.042427 1.058216 139 131 117 1 9
0.500935 -0.015334 1.059433 139 130 115 1 9
0.582750 0.152221 0.336493 254 255 255 9 1
0.492078 0.433458 1.044677 119 107 88 1 9
0.481915 0.409127 1.018936 123 109 91 1 9
0.487914 0.424695 1.025497 123 110 94 1 9
0.485880 0.426470 1.013651 121 113 94 9 1
0.506907 0.689588 0.539415 211 197 185 9 10
0.613398 0.001394 0.437168 255 255 255 9 1
0.614038 -0.010638 0.434670 255 255 255 9 1
0.524079 0.683953 0.189689 174 154 132 9 10
0.585445 -0.006064 0.824763 250 245 239 9 1
0.581186 0.007481 0.841033 225 214 207 9 1
0.584250 -0.026127 0.839935 221 213 204 9 1
0.576639 -0.077937 0.383324 254 255 255 9 1
0.582495 -0.072547 0.396894 255 255 254 9 1
0.594254 -0.015100 0.744558 255 255 255 9 1
0.766686 0.070062 0.586600 128 127 126 9 1
0.493588 0.288632 1.058035 121 109 94 1 9
0.494280 0.299879 1.066727 122 106 94 1 9
0.473643 0.642160 1.016539 106 96 76 1 9
0.475159 0.627303 1.017862 109 94 77 1 9
0.543796 0.596539 0.240736 113 101 88 9 10
0.534368 0.623905 0.223075 115 103 94 9 10
0.547767 0.583092 0.233338 114 107 89 9 10
0.593595 0.015672 0.796995 255 255 255 9 1
0.591704 -0.011400 0.792621 255 255 255 9 1
