ply
format ascii 1.0
element vertex 1134
property float x
property float y
property float z
property uchar red
property uchar green
property uchar blue
property uchar semantic_label
property uchar instance_label
end_header
0.268076 0.355544 0.111292 222 189 154 7 3
0.294762 0.392057 0.113142 226 194 157 7 3
0.294301 0.392682 0.119549 219 192 152 7 3
0.273869 0.383661 0.109278 221 189 154 7 3
0.282461 0.360936 0.112693 221 189 153 7 3
0.294789 0.380228 0.113832 224 192 154 7 3
0.285841 0.405741 0.129484 221 192 151 7 3
0.279846 0.380062 0.131410 196 172 145 7 3
-0.194770 0.553429 0.117629 218 179 136 7 3
0.235836 0.514194 0.079927 120 105 87 7 3
0.247547 0.520931 0.087700 104 88 77 7 3
0.259823 0.523521 0.099676 167 126 93 7 3
0.234652 0.533903 0.078999 113 96 78 7 3
0.154668 0.557038 0.120990 198 138 85 7 3
0.026543 0.525679 0.119507 223 185 144 7 3
0.055408 0.747899 0.119103 191 136 79 7 3
0.027991 0.762499 0.119384 194 137 81 7 3
-0.198978 0.632427 0.054373 67 63 52 7 3
-0.215848 0.653215 0.067475 64 59 49 7 3
0.152831 0.621699 0.122370 196 135 86 7 3
0.011749 0.584320 0.119456 208 158 97 7 3
0.150377 0.701448 0.077406 175 120 70 7 3
0.171525 0.709700 0.099231 147 99 64 7 3
-0.195591 0.443913 0.117366 222 184 139 7 3
0.132236 0.552475 0.120740 210 160 107 7 3
-0.188674 0.696455 0.118520 194 138 85 7 3
-0.090667 0.790555 0.100308 93 91 84 7 3
0.207570 0.596927 0.075068 92 57 33 7 3
0.196482 0.576080 0.071412 83 49 36 7 3
0.210800 0.557923 0.074135 84 52 34 7 3
0.215908 0.581338 0.078311 82 50 42 7 3
0.193450 0.668988 0.123192 192 131 86 7 3
0.197748 0.689362 0.127323 196 139 82 7 3
0.060789 0.498109 0.118896 222 184 142 7 3
0.069415 0.512260 0.119741 220 181 137 7 3
-0.210760 0.622532 0.118066 204 164 122 7 3
-0.041270 0.444179 0.117335 223 187 147 7 3
-0.049720 0.462008 0.117487 223 188 151 7 3
-0.005931 0.449055 0.117758 228 190 151 7 3
-0.191250 0.760466 0.110390 109 78 67 7 3
-0.186319 0.764623 0.118998 174 128 106 7 3
-0.078645 0.722429 0.118611 186 127 77 7 3
-0.078403 0.741734 0.119078 196 135 80 7 3
0.164844 0.741096 0.119008 158 120 91 7 3
0.156745 0.736034 0.103080 205 152 105 7 3
0.154637 0.741141 0.126381 176 129 93 7 3
0.162231 0.738095 0.107094 198 142 94 7 3
0.136761 0.755889 0.126503 181 129 88 7 3
-0.071582 0.397117 0.117742 224 187 150 7 3
-0.022583 0.410179 0.117755 230 194 153 7 3
0.176514 0.368867 0.072118 63 55 51 7 3
0.164531 0.657039 0.064921 106 73 41 7 3
0.138257 0.687332 0.064481 117 95 73 7 3
0.156814 0.653823 0.062475 88 70 58 7 3
0.284976 0.458563 0.110311 219 182 138 7 3
0.299476 0.484842 0.110992 252 218 173 7 3
0.284587 0.433111 0.110874 231 197 147 7 3
0.270262 0.466840 0.105285 227 194 144 7 3
0.290895 0.448292 0.130839 214 181 143 7 3
-0.227722 0.651150 0.073978 103 86 63 7 3
-0.222773 0.680053 0.092350 141 115 89 7 3
0.229508 0.371319 0.096372 223 185 144 7 3
-0.028967 0.563424 0.119687 219 176 131 7 3
-0.095679 0.424841 0.116799 220 182 143 7 3
0.064872 0.773921 0.095581 147 120 91 7 3
0.040817 0.781374 0.093602 131 112 96 7 3
0.059574 0.786656 0.100649 153 130 112 7 3
0.039551 0.788621 0.098537 203 181 153 7 3
0.118858 0.408137 0.119269 228 196 151 7 3
0.128513 0.428034 0.119681 231 200 159 7 3
0.194741 0.607982 0.070663 130 89 62 7 3
0.181479 0.639210 0.068347 171 141 115 7 3
-0.049168 0.600592 0.119239 214 169 129 7 3
-0.081020 0.602679 0.119197 213 166 116 7 3
0.294878 0.417664 0.122391 225 195 155 7 3
0.297355 0.440107 0.122072 217 189 144 7 3
-0.126801 0.603804 0.117806 205 160 115 7 3
-0.035604 0.607215 0.118935 207 156 102 7 3
0.084107 0.400400 0.119277 233 200 161 7 3
0.084363 0.442145 0.118776 230 198 156 7 3
0.195098 0.431684 0.069917 46 36 28 7 3
0.188438 0.414347 0.068731 41 36 35 7 3
0.043855 0.605523 0.120311 199 143 97 7 3
0.050949 0.627120 0.120378 197 142 97 7 3
-0.028504 0.376145 0.118275 230 195 151 7 3
-0.001520 0.403679 0.117983 226 190 152 7 3
-0.188693 0.673584 0.118505 197 143 84 7 3
-0.132143 0.660651 0.118170 197 143 87 7 3
0.085452 0.696760 0.120319 201 149 100 7 3
0.112780 0.698468 0.120719 199 148 91 7 3
-0.053288 0.801591 0.108925 208 185 165 7 3
-0.031708 0.805244 0.114013 210 183 162 7 3
-0.050970 0.804615 0.118215 209 186 173 7 3
-0.031731 0.805050 0.120437 197 159 143 7 3
-0.032734 0.784975 0.117824 85 78 74 7 3
0.120355 0.680804 0.121117 223 174 124 7 3
-0.171486 0.654678 0.117880 204 151 101 7 3
0.214829 0.425521 0.074995 54 44 35 7 3
0.201144 0.423198 0.071532 44 39 35 7 3
0.227951 0.402877 0.085144 112 95 76 7 3
0.186508 0.560446 0.120717 197 141 83 7 3
0.081480 0.362679 0.118635 227 192 153 7 3
-0.043049 0.733550 0.118809 196 141 84 7 3
0.247610 0.580332 0.100746 199 143 95 7 3
0.242653 0.579010 0.123398 195 138 86 7 3
0.256314 0.584486 0.126150 192 134 92 7 3
0.260422 0.569883 0.105027 194 134 87 7 3
0.080386 0.750340 0.119775 202 146 89 7 3
0.045059 0.735347 0.119433 208 151 101 7 3
-0.146410 0.381963 0.117470 225 187 139 7 3
-0.142743 0.410203 0.117864 217 183 138 7 3
0.280405 0.505959 0.107820 206 155 108 7 3
0.258659 0.491443 0.099127 212 161 114 7 3
0.276133 0.483746 0.106620 211 161 110 7 3
0.285034 0.473211 0.128606 198 156 107 7 3
0.291892 0.478925 0.128340 197 156 107 7 3
0.291208 0.494561 0.129272 203 155 105 7 3
0.138624 0.731854 0.091695 177 152 125 7 3
0.158239 0.722463 0.098798 181 148 117 7 3
0.142276 0.734263 0.096727 181 161 132 7 3
-0.214639 0.474101 0.116914 220 182 135 7 3
-0.218020 0.495179 0.117838 221 184 143 7 3
-0.075015 0.490381 0.117805 220 186 145 7 3
-0.093520 0.545179 0.118256 222 181 147 7 3
-0.079770 0.561679 0.118377 216 179 131 7 3
0.207798 0.484336 0.067693 51 37 32 7 3
0.196329 0.489695 0.070545 58 37 32 7 3
0.209661 0.501217 0.069669 55 38 31 7 3
0.203956 0.467598 0.066022 106 83 61 7 3
0.225831 0.476966 0.073046 115 89 64 7 3
-0.084823 0.661164 0.117921 195 142 88 7 3
-0.228674 0.440518 0.117922 216 176 139 7 3
-0.219520 0.403679 0.117685 214 170 120 7 3
-0.212220 0.747433 0.110216 155 107 76 7 3
-0.176513 0.739046 0.112442 171 149 124 7 3
-0.221139 0.736877 0.112604 122 97 90 7 3
-0.212171 0.745886 0.115398 141 119 103 7 3
-0.203437 0.753471 0.115694 134 104 90 7 3
-0.119613 0.631645 0.119115 202 149 97 7 3
-0.100793 0.628176 0.119039 200 147 98 7 3
0.145405 0.674813 0.066307 101 75 65 7 3
0.035614 0.560119 0.120642 215 168 119 7 3
0.226283 0.587830 0.085161 175 151 122 7 3
-0.171914 0.675988 0.061935 58 46 46 7 3
-0.159485 0.674683 0.058561 57 48 46 7 3
-0.153392 0.687951 0.059364 49 47 41 7 3
-0.157215 0.693407 0.064510 48 44 38 7 3
-0.194620 0.664642 0.066248 65 49 41 7 3
-0.191448 0.676855 0.068956 59 46 45 7 3
0.301226 0.496219 0.116003 199 152 100 7 3
0.303247 0.469820 0.115228 218 171 126 7 3
0.207638 0.655138 0.124759 201 135 92 7 3
0.217645 0.649664 0.100031 195 142 97 7 3
-0.115145 0.713679 0.118624 192 133 79 7 3
-0.000734 0.777669 0.119399 189 132 81 7 3
0.034127 0.444693 0.117787 230 193 145 7 3
0.072850 0.462242 0.117846 228 199 158 7 3
0.046904 0.471883 0.117715 231 198 155 7 3
0.174874 0.617057 0.064495 141 104 77 7 3
0.143149 0.476267 0.120805 225 190 145 7 3
0.144438 0.442466 0.118520 240 209 162 7 3
0.208778 0.538234 0.071832 86 54 35 7 3
0.198947 0.536533 0.069335 67 45 28 7 3
-0.017270 0.719679 0.118929 192 136 77 7 3
0.167191 0.510343 0.121519 214 172 120 7 3
0.017279 0.426558 0.119191 229 189 148 7 3
-0.144520 0.459679 0.117400 221 187 144 7 3
-0.195770 0.356742 0.118573 211 163 118 7 3
0.153324 0.663851 0.121500 196 139 87 7 3
0.197968 0.711784 0.113733 197 140 90 7 3
0.213107 0.694333 0.109218 199 140 87 7 3
0.211150 0.698078 0.125055 165 117 86 7 3
-0.063895 0.625679 0.119214 199 147 103 7 3
-0.109159 0.488749 0.117817 221 183 147 7 3
0.191136 0.716781 0.124223 140 103 77 7 3
0.169956 0.730920 0.125315 169 125 88 7 3
0.170965 0.735039 0.123396 146 107 78 7 3
0.172567 0.733862 0.112070 195 139 91 7 3
-0.218634 0.625256 0.058673 76 70 62 7 3
-0.206648 0.616611 0.055863 69 59 46 7 3
-0.197453 0.654003 0.060129 62 50 34 7 3
0.241206 0.599698 0.100895 197 181 157 7 3
0.210078 0.619425 0.081958 194 181 153 7 3
0.229472 0.622578 0.099496 199 179 153 7 3
-0.006949 0.732721 0.119832 193 135 80 7 3
0.009921 0.748308 0.118785 193 136 82 7 3
0.261428 0.626459 0.112391 196 138 84 7 3
0.259290 0.603433 0.106321 195 138 84 7 3
0.258569 0.605846 0.129624 182 137 106 7 3
0.244906 0.606565 0.127422 195 132 84 7 3
0.224324 0.616356 0.123855 194 134 86 7 3
0.240254 0.637147 0.127655 197 137 89 7 3
0.263013 0.620520 0.125729 179 133 102 7 3
0.237369 0.630041 0.104120 200 148 104 7 3
0.251822 0.631697 0.106215 210 157 114 7 3
0.222313 0.439142 0.119725 225 190 150 7 3
0.217655 0.449736 0.120538 234 200 160 7 3
0.290985 0.544317 0.110138 200 141 98 7 3
0.285937 0.546585 0.127856 184 137 106 7 3
0.268335 0.557761 0.130163 189 136 104 7 3
0.279958 0.573771 0.126032 182 140 122 7 3
0.291549 0.524384 0.109168 199 142 100 7 3
0.291670 0.539717 0.119216 195 137 92 7 3
0.267890 0.538101 0.105501 194 141 89 7 3
-0.105715 0.769196 0.115699 198 156 110 7 3
-0.216991 0.693693 0.115538 165 127 98 7 3
-0.196316 0.715927 0.114333 160 129 98 7 3
-0.214786 0.711899 0.106668 166 138 102 7 3
-0.195499 0.729490 0.109453 164 135 104 7 3
-0.208322 0.689375 0.117716 186 137 98 7 3
0.128207 0.573820 0.121848 199 144 90 7 3
0.088730 0.590429 0.121376 200 147 96 7 3
0.267715 0.431248 0.106616 228 195 155 7 3
0.240083 0.449366 0.122214 239 208 161 7 3
0.270263 0.456770 0.125122 223 187 140 7 3
-0.210228 0.676546 0.077372 60 47 47 7 3
-0.199730 0.696046 0.086085 112 93 80 7 3
-0.180714 0.687888 0.071530 72 59 51 7 3
-0.240520 0.419679 0.117963 217 177 139 7 3
-0.038085 0.786401 0.093447 206 182 165 7 3
-0.054971 0.794533 0.098336 208 189 163 7 3
-0.183231 0.728646 0.084745 89 64 51 7 3
0.101115 0.552440 0.119580 210 156 104 7 3
0.047065 0.538204 0.120002 218 177 125 7 3
-0.010769 0.807468 0.118673 202 173 150 7 3
-0.029101 0.800345 0.105551 212 185 161 7 3
0.001751 0.803732 0.111103 212 187 163 7 3
-0.026286 0.799090 0.121010 161 157 154 7 3
0.010977 0.805003 0.120800 163 159 158 7 3
0.077208 0.769795 0.095055 175 138 93 7 3
0.096951 0.758161 0.093469 177 140 99 7 3
0.100980 0.496679 0.120273 217 177 137 7 3
0.069517 0.528178 0.120420 215 173 133 7 3
0.101956 0.516815 0.121184 219 173 133 7 3
-0.014314 0.795360 0.099008 212 190 170 7 3
-0.015053 0.786539 0.092767 215 192 172 7 3
0.004428 0.792509 0.097693 213 186 162 7 3
0.012738 0.491882 0.118239 225 189 149 7 3
0.139362 0.759610 0.123821 224 179 152 7 3
-0.022603 0.708203 0.118982 190 131 85 7 3
0.199592 0.641361 0.080410 155 116 84 7 3
0.182340 0.658269 0.074974 112 80 46 7 3
0.115508 0.449239 0.117985 229 199 157 7 3
0.122480 0.477679 0.119924 224 191 149 7 3
0.297255 0.499175 0.109389 206 153 98 7 3
0.272724 0.512557 0.126900 203 150 100 7 3
0.266494 0.506982 0.104128 202 147 93 7 3
0.282392 0.519508 0.108748 199 143 92 7 3
0.287574 0.520202 0.128674 191 142 89 7 3
0.272730 0.539322 0.128674 189 143 100 7 3
-0.164379 0.699963 0.119223 192 135 87 7 3
-0.161386 0.722401 0.118268 190 134 76 7 3
-0.184984 0.716796 0.117174 220 179 148 7 3
0.130261 0.519023 0.121251 212 161 109 7 3
0.172386 0.534449 0.122282 207 151 100 7 3
0.069938 0.768413 0.121406 193 136 81 7 3
0.051043 0.766247 0.119898 188 135 86 7 3
0.056654 0.792564 0.122880 112 96 75 7 3
0.192497 0.613790 0.121759 196 138 84 7 3
0.213974 0.597641 0.122979 188 128 81 7 3
-0.136940 0.589962 0.118539 213 167 131 7 3
-0.215520 0.662179 0.118079 200 146 100 7 3
-0.196614 0.635612 0.117847 214 168 130 7 3
-0.113076 0.756502 0.091886 117 117 112 7 3
-0.109469 0.771509 0.091278 126 117 106 7 3
-0.127338 0.781093 0.100565 97 85 76 7 3
-0.097246 0.773640 0.089871 122 111 102 7 3
0.047480 0.355679 0.119552 229 196 152 7 3
0.003105 0.373804 0.118635 228 195 151 7 3
0.026557 0.382346 0.118985 225 190 150 7 3
0.037105 0.393679 0.118778 226 191 154 7 3
-0.158520 0.487679 0.117563 218 185 135 7 3
0.242821 0.552278 0.124658 197 139 98 7 3
0.257526 0.535147 0.124801 195 138 99 7 3
0.253155 0.557118 0.100384 196 137 88 7 3
-0.047254 0.692658 0.118595 197 151 94 7 3
-0.042110 0.668371 0.119400 216 164 115 7 3
-0.040429 0.400137 0.117990 228 193 154 7 3
0.184811 0.694483 0.099091 200 142 94 7 3
0.205000 0.693074 0.103502 200 144 94 7 3
0.169630 0.704898 0.123810 197 137 86 7 3
0.177066 0.687463 0.124158 198 138 89 7 3
0.193201 0.713093 0.107805 196 136 86 7 3
0.182603 0.715167 0.102980 195 136 87 7 3
0.185902 0.711269 0.127116 185 131 96 7 3
-0.157436 0.685808 0.118508 197 138 79 7 3
0.117874 0.611313 0.121444 196 140 97 7 3
0.125480 0.615679 0.121800 198 144 91 7 3
0.131230 0.629429 0.121641 202 143 95 7 3
0.160333 0.396074 0.119154 223 192 153 7 3
0.194932 0.378667 0.119824 225 191 157 7 3
-0.063520 0.422679 0.117428 220 185 147 7 3
-0.120020 0.560179 0.117593 221 178 140 7 3
-0.084180 0.572681 0.119360 217 173 125 7 3
-0.118894 0.792513 0.115282 188 155 134 7 3
0.200392 0.377570 0.076106 48 42 35 7 3
0.300565 0.405946 0.115187 226 193 158 7 3
-0.194763 0.748595 0.098789 150 95 64 7 3
-0.199794 0.748833 0.116077 140 126 106 7 3
0.027608 0.801534 0.113608 192 159 136 7 3
0.039930 0.801183 0.119786 130 106 94 7 3
0.017874 0.798020 0.122402 147 131 121 7 3
0.025987 0.788185 0.095655 198 178 153 7 3
-0.086774 0.800319 0.113962 141 131 122 7 3
-0.067555 0.804231 0.119039 220 192 180 7 3
-0.078588 0.792880 0.119902 89 87 82 7 3
-0.063812 0.796520 0.121142 248 235 232 7 3
-0.183520 0.459679 0.117637 223 186 146 7 3
0.035213 0.669836 0.119808 210 158 107 7 3
-0.183037 0.740686 0.090495 159 109 84 7 3
-0.166318 0.753171 0.092534 146 98 69 7 3
0.242964 0.654516 0.125374 181 123 84 7 3
0.241261 0.658546 0.108666 194 135 80 7 3
-0.109513 0.524610 0.117457 218 184 143 7 3
0.203180 0.402658 0.119520 225 190 158 7 3
0.223101 0.398005 0.120858 226 197 155 7 3
0.227177 0.376166 0.121239 223 188 152 7 3
0.070105 0.556554 0.120130 204 153 104 7 3
0.092738 0.538977 0.120168 214 163 126 7 3
0.051980 0.487679 0.118739 226 192 149 7 3
0.228907 0.509429 0.123162 226 175 116 7 3
0.193204 0.534647 0.122880 211 155 101 7 3
0.193787 0.503574 0.121587 212 162 113 7 3
-0.135520 0.622679 0.118284 203 150 97 7 3
0.078114 0.657580 0.120883 198 137 96 7 3
0.111480 0.649679 0.121278 194 133 85 7 3
0.097790 0.625928 0.120274 196 137 91 7 3
0.101480 0.638429 0.120662 197 137 88 7 3
0.206880 0.392516 0.075553 41 37 33 7 3
0.214776 0.384286 0.080410 44 39 36 7 3
0.215445 0.413499 0.075683 89 75 66 7 3
-0.013376 0.681585 0.118427 190 137 87 7 3
-0.149395 0.438054 0.117448 219 184 143 7 3
-0.132770 0.475054 0.117837 222 188 143 7 3
0.252537 0.524591 0.124828 197 141 91 7 3
0.216226 0.561854 0.122622 197 143 93 7 3
-0.092097 0.678417 0.118720 207 149 98 7 3
-0.050145 0.707554 0.118558 191 135 91 7 3
-0.102241 0.658799 0.117784 201 145 95 7 3
-0.061257 0.656146 0.118805 194 143 96 7 3
-0.020020 0.473679 0.118141 224 189 145 7 3
0.246005 0.426909 0.094548 227 193 152 7 3
0.248729 0.412718 0.122821 247 216 172 7 3
0.254285 0.423438 0.125434 227 196 159 7 3
0.004338 0.634101 0.118574 201 142 93 7 3
0.023701 0.624750 0.118756 196 141 81 7 3
0.158305 0.578691 0.121471 196 140 89 7 3
0.195230 0.573179 0.121945 193 138 85 7 3
0.274723 0.596262 0.122521 197 139 95 7 3
0.276862 0.593539 0.110978 191 131 82 7 3
0.067993 0.682571 0.119328 197 145 95 7 3
0.055480 0.706804 0.119296 202 147 98 7 3
0.240250 0.407495 0.094149 169 133 101 7 3
-0.075179 0.772389 0.092433 29 27 27 7 3
-0.066491 0.783535 0.094103 125 109 99 7 3
-0.085371 0.780886 0.092720 132 120 106 7 3
0.001495 0.567445 0.120124 218 172 125 7 3
0.154835 0.633820 0.121682 225 168 119 7 3
0.174230 0.652679 0.121935 196 138 84 7 3
0.192980 0.649871 0.122734 198 136 85 7 3
-0.161373 0.773755 0.107948 85 75 70 7 3
-0.167907 0.765681 0.118071 96 86 77 7 3
-0.167417 0.773886 0.117791 115 97 84 7 3
0.011480 0.541679 0.119196 225 181 133 7 3
-0.022530 0.548000 0.119160 215 170 131 7 3
0.185463 0.427346 0.118507 227 193 159 7 3
0.240174 0.487314 0.081539 129 114 91 7 3
0.259091 0.472127 0.098912 199 150 94 7 3
-0.163173 0.559712 0.117491 219 182 140 7 3
-0.171798 0.541101 0.117353 225 183 142 7 3
-0.158712 0.757691 0.094296 113 93 80 7 3
-0.188270 0.414179 0.117866 213 176 136 7 3
-0.184272 0.385719 0.117927 214 171 126 7 3
0.144110 0.490435 0.120883 225 188 145 7 3
0.129105 0.376929 0.119097 223 190 153 7 3
0.240432 0.557124 0.089811 86 55 45 7 3
0.250941 0.540586 0.094190 191 140 89 7 3
0.225347 0.550194 0.079716 181 164 140 7 3
-0.140304 0.728898 0.118564 190 134 75 7 3
-0.120665 0.746491 0.118465 183 129 74 7 3
-0.136029 0.753662 0.115844 216 171 135 7 3
-0.158357 0.750428 0.113027 180 147 121 7 3
0.004980 0.690679 0.118605 200 153 100 7 3
0.005261 0.705535 0.118465 204 150 103 7 3
0.017167 0.733574 0.119522 201 144 93 7 3
0.232959 0.670732 0.122408 190 133 80 7 3
0.231210 0.655802 0.128883 178 122 85 7 3
0.220865 0.675226 0.127749 168 118 81 7 3
0.220863 0.682573 0.108507 193 134 83 7 3
0.228411 0.663874 0.103505 193 135 84 7 3
0.223065 0.682107 0.119787 173 120 80 7 3
0.215009 0.687596 0.125330 167 116 80 7 3
0.210993 0.667799 0.102376 192 136 92 7 3
0.165620 0.639422 0.063950 157 122 87 7 3
0.138008 0.717088 0.121370 196 141 91 7 3
0.133367 0.752879 0.102927 199 142 99 7 3
0.153040 0.726121 0.123623 209 152 104 7 3
0.102230 0.728929 0.120746 215 161 108 7 3
0.130907 0.745528 0.124963 187 139 87 7 3
0.100425 0.749013 0.122039 205 152 107 7 3
-0.054145 0.511429 0.118079 218 182 139 7 3
-0.050520 0.535679 0.118097 218 179 137 7 3
-0.009041 0.524713 0.118564 223 183 138 7 3
-0.163534 0.504030 0.116894 222 185 146 7 3
-0.143614 0.520672 0.117793 221 183 145 7 3
-0.191225 0.529195 0.117668 223 181 144 7 3
0.185379 0.366214 0.071998 58 48 45 7 3
0.184192 0.389579 0.073748 66 52 46 7 3
0.196289 0.398585 0.073579 46 41 38 7 3
0.071946 0.388038 0.119308 224 189 157 7 3
0.049694 0.413877 0.119797 224 190 154 7 3
0.202797 0.451410 0.069374 80 63 48 7 3
0.226411 0.448876 0.076743 121 87 59 7 3
0.209848 0.439682 0.071278 57 48 39 7 3
-0.123950 0.687125 0.118912 190 130 79 7 3
-0.224400 0.726099 0.098914 53 49 43 7 3
-0.201008 0.723005 0.086826 73 62 55 7 3
-0.212997 0.716835 0.090110 52 48 41 7 3
-0.188591 0.710401 0.091601 58 47 38 7 3
-0.218660 0.696516 0.094826 148 126 99 7 3
-0.201361 0.708402 0.095024 134 116 96 7 3
-0.211906 0.706962 0.092734 69 55 39 7 3
-0.104188 0.793249 0.106993 137 127 113 7 3
-0.096184 0.795029 0.119675 244 229 226 7 3
-0.123682 0.787087 0.120232 194 158 143 7 3
0.089105 0.475679 0.119074 228 191 144 7 3
0.085481 0.788177 0.119228 154 121 97 7 3
-0.164901 0.601635 0.117948 214 171 133 7 3
-0.059445 0.762932 0.119137 195 135 81 7 3
-0.031767 0.767356 0.118585 193 135 80 7 3
-0.053246 0.777744 0.117039 181 135 101 7 3
-0.073587 0.781180 0.116571 116 88 73 7 3
0.166675 0.602617 0.122245 192 135 80 7 3
0.205242 0.524528 0.071659 74 47 31 7 3
0.225205 0.514309 0.075275 65 53 39 7 3
0.206603 0.508825 0.071834 66 43 35 7 3
0.243251 0.376616 0.123173 223 190 152 7 3
0.228324 0.410244 0.120396 227 199 157 7 3
0.240647 0.384848 0.100193 224 191 151 7 3
0.246641 0.392405 0.124357 224 193 153 7 3
0.258797 0.385948 0.106500 232 202 156 7 3
0.124017 0.392162 0.119850 227 194 150 7 3
0.056980 0.640429 0.120059 204 149 102 7 3
0.297721 0.445562 0.111572 220 189 137 7 3
0.291465 0.461299 0.128968 214 173 130 7 3
0.302395 0.455751 0.115563 209 165 119 7 3
0.302971 0.439155 0.115360 216 182 138 7 3
-0.105645 0.389554 0.117773 223 189 142 7 3
-0.163592 0.710504 0.071950 47 44 40 7 3
-0.177545 0.704595 0.080777 92 76 62 7 3
-0.179611 0.714447 0.084360 64 55 51 7 3
-0.166550 0.696184 0.070821 44 41 30 7 3
-0.220520 0.608429 0.117954 210 172 124 7 3
0.117060 0.761391 0.127710 232 192 172 7 3
0.111642 0.775177 0.123742 189 148 128 7 3
0.113559 0.774829 0.116545 136 110 97 7 3
0.136340 0.759461 0.114051 174 131 98 7 3
0.263452 0.494485 0.123970 211 161 115 7 3
0.236480 0.465679 0.122035 234 197 152 7 3
0.228980 0.490679 0.122408 220 182 135 7 3
0.259480 0.475679 0.123290 227 186 138 7 3
-0.085145 0.462929 0.117522 222 185 143 7 3
0.052067 0.213113 0.124166 0 255 0 60 4
0.148499 0.161946 0.129136 0 255 0 60 4
0.126638 0.236884 0.127136 0 255 0 60 4
0.085751 0.159957 0.125136 0 255 0 60 4
0.024183 0.158889 0.127136 0 255 0 60 4
0.115377 0.193522 0.131782 0 255 0 60 4
0.085692 0.236636 0.124144 0 255 0 60 4
0.149168 0.204742 0.123136 0 255 0 60 4
0.054779 0.177777 0.131523 0 255 0 60 4
0.027473 0.236743 0.125136 0 255 0 60 4
0.081704 0.198635 0.131795 0 255 0 60 4
0.024542 0.192383 0.129136 0 255 0 60 4
0.116549 0.160558 0.131519 0 255 0 60 4
0.106257 0.217952 0.124173 0 255 0 60 4
0.059185 0.236984 0.127136 0 255 0 60 4
0.138021 0.184620 0.131693 0 255 0 60 4
0.148386 0.227399 0.131136 0 255 0 60 4
0.096400 0.181198 0.124188 0 255 0 60 4
0.127776 0.213378 0.131867 0 255 0 60 4
0.027759 0.214191 0.124156 0 255 0 60 4
0.071752 0.219152 0.131925 0 255 0 60 4
0.046529 0.158200 0.127136 0 255 0 60 4
0.075590 0.179488 0.124179 0 255 0 60 4
0.035925 0.175651 0.124177 0 255 0 60 4
0.044920 0.194186 0.125136 0 255 0 60 4
0.065562 0.161172 0.131414 0 255 0 60 4
0.130568 0.168794 0.121136 0 255 0 60 4
0.062850 0.196508 0.131731 0 255 0 60 4
0.104130 0.236806 0.127987 0 255 0 60 4
0.042824 0.227346 0.131692 0 255 0 60 4
0.098602 0.201177 0.124154 0 255 0 60 4
0.089775 0.217366 0.131489 0 255 0 60 4
0.114007 0.177456 0.124184 0 255 0 60 4
0.102649 0.162498 0.121136 0 255 0 60 4
0.130734 0.198437 0.124161 0 255 0 60 4
0.145031 0.174951 0.121136 0 255 0 60 4
0.140971 0.217736 0.121136 0 255 0 60 4
0.038250 0.205827 0.131774 0 255 0 60 4
0.118118 0.225655 0.131643 0 255 0 60 4
0.086496 0.173080 0.131779 0 255 0 60 4
0.114375 0.208048 0.131637 0 255 0 60 4
0.071214 0.206999 0.124176 0 255 0 60 4
0.072291 0.231306 0.124176 0 255 0 60 4
0.056805 0.168071 0.121136 0 255 0 60 4
0.125867 0.185158 0.124173 0 255 0 60 4
0.144461 0.191429 0.121136 0 255 0 60 4
0.134600 0.226241 0.131243 0 255 0 60 4
0.058474 0.224019 0.131741 0 255 0 60 4
0.134987 0.160728 0.131516 0 255 0 60 4
0.102562 0.171710 0.131561 0 255 0 60 4
0.072898 0.166823 0.121136 0 255 0 60 4
0.024187 0.178146 0.129842 0 255 0 60 4
0.095767 0.226316 0.124179 0 255 0 60 4
0.102392 0.190148 0.131452 0 255 0 60 4
0.035386 0.163497 0.131770 0 255 0 60 4
0.140591 0.235190 0.124209 0 255 0 60 4
0.087450 0.187190 0.131815 0 255 0 60 4
0.140932 0.198314 0.131809 0 255 0 60 4
0.072216 0.192473 0.124178 0 255 0 60 4
0.046859 0.236712 0.124144 0 255 0 60 4
0.030254 0.225928 0.131892 0 255 0 60 4
0.122957 0.171464 0.131576 0 255 0 60 4
0.051944 0.202916 0.131773 0 255 0 60 4
0.036048 0.185848 0.131641 0 255 0 60 4
0.081657 0.227270 0.131577 0 255 0 60 4
0.058815 0.187143 0.124187 0 255 0 60 4
0.083783 0.208416 0.124214 0 255 0 60 4
0.061848 0.211034 0.131578 0 255 0 60 4
0.146214 0.213548 0.131608 0 255 0 60 4
0.066101 0.173326 0.131270 0 255 0 60 4
0.040745 0.217564 0.124154 0 255 0 60 4
0.096154 0.160804 0.131189 0 255 0 60 4
0.149253 0.180187 0.131136 0 255 0 60 4
0.139438 0.172050 0.131353 0 255 0 60 4
0.118955 0.166181 0.121136 0 255 0 60 4
0.046831 0.169243 0.131766 0 255 0 60 4
0.100681 0.210959 0.131505 0 255 0 60 4
0.032674 0.198833 0.124168 0 255 0 60 4
0.091740 0.168895 0.121136 0 255 0 60 4
0.115868 0.234311 0.124156 0 255 0 60 4
0.140322 0.161639 0.121136 0 255 0 60 4
0.031713 0.165454 0.121136 0 255 0 60 4
0.045414 0.181812 0.124155 0 255 0 60 4
0.120367 0.216998 0.124177 0 255 0 60 4
0.077007 0.166918 0.131617 0 255 0 60 4
0.118997 0.200931 0.124168 0 255 0 60 4
0.043505 0.167905 0.121136 0 255 0 60 4
0.068596 0.185064 0.131747 0 255 0 60 4
0.105964 0.226193 0.131721 0 255 0 60 4
0.091193 0.204797 0.131672 0 255 0 60 4
0.089114 0.195015 0.124181 0 255 0 60 4
0.079993 0.219445 0.124180 0 255 0 60 4
0.126359 0.225948 0.124167 0 255 0 60 4
0.136726 0.207386 0.124159 0 255 0 60 4
0.025083 0.204536 0.129136 0 255 0 60 4
0.050989 0.188806 0.131858 0 255 0 60 4
0.110217 0.188485 0.124187 0 255 0 60 4
0.063511 0.218859 0.124164 0 255 0 60 4
0.119167 0.182493 0.131757 0 255 0 60 4
0.060185 0.203209 0.124192 0 255 0 60 4
0.050860 0.226675 0.125136 0 255 0 60 4
0.147907 0.190697 0.131136 0 255 0 60 4
0.148521 0.229416 0.121136 0 255 0 60 4
0.055365 0.161295 0.131572 0 255 0 60 4
0.106427 0.199514 0.131403 0 255 0 60 4
0.106352 0.160681 0.131635 0 255 0 60 4
0.125574 0.193399 0.131813 0 255 0 60 4
0.036793 0.232717 0.125136 0 255 0 60 4
0.112343 0.169631 0.131841 0 255 0 60 4
0.090729 0.231476 0.131332 0 255 0 60 4
0.125697 0.203597 0.131726 0 255 0 60 4
0.130489 0.178042 0.131509 0 255 0 60 4
0.106597 0.181076 0.131513 0 255 0 60 4
0.077669 0.189269 0.131866 0 255 0 60 4
0.045782 0.212404 0.131820 0 255 0 60 4
0.078330 0.211620 0.131853 0 255 0 60 4
0.085787 0.179365 0.124183 0 255 0 60 4
0.034460 0.216856 0.131686 0 255 0 60 4
0.108090 0.207339 0.124167 0 255 0 60 4
0.029763 0.185139 0.124219 0 255 0 60 4
0.066006 0.230597 0.131596 0 255 0 60 4
0.044534 0.206536 0.124170 0 255 0 60 4
0.094396 0.210250 0.124188 0 255 0 60 4
0.071923 0.200714 0.131473 0 255 0 60 4
0.136773 0.178751 0.124191 0 255 0 60 4
0.126746 0.160435 0.126621 0 255 0 60 4
0.038127 0.195629 0.131611 0 255 0 60 4
0.065392 0.179611 0.124219 0 255 0 60 4
0.134940 0.189364 0.124197 0 255 0 60 4
0.081751 0.169999 0.124170 0 255 0 60 4
0.110178 0.169063 0.121136 0 255 0 60 4
0.074251 0.159326 0.127136 0 255 0 60 4
0.028117 0.169132 0.131136 0 255 0 60 4
0.063606 0.161588 0.122428 0 255 0 60 4
0.094875 0.236729 0.125136 0 255 0 60 4
0.132520 0.216459 0.124189 0 255 0 60 4
0.024596 0.228164 0.125136 0 255 0 60 4
0.040253 0.176775 0.131975 0 255 0 60 4
0.112126 0.216705 0.131298 0 255 0 60 4
0.098432 0.219615 0.131850 0 255 0 60 4
0.095398 0.195724 0.131666 0 255 0 60 4
0.111833 0.224946 0.124157 0 255 0 60 4
0.054609 0.196215 0.124169 0 255 0 60 4
0.033751 0.223140 0.124167 0 255 0 60 4
0.078207 0.201423 0.124172 0 255 0 60 4
0.118874 0.190734 0.124169 0 255 0 60 4
0.034753 0.208615 0.124192 0 255 0 60 4
0.124572 0.207925 0.124152 0 255 0 60 4
0.061262 0.227516 0.124198 0 255 0 60 4
0.136849 0.217584 0.131726 0 255 0 60 4
0.141147 0.199327 0.123136 0 255 0 60 4
0.081581 0.188438 0.124180 0 255 0 60 4
0.079918 0.180612 0.131585 0 255 0 60 4
0.112221 0.159433 0.124155 0 255 0 60 4
0.094231 0.169391 0.131136 0 255 0 60 4
0.147888 0.170254 0.131136 0 255 0 60 4
0.051897 0.231552 0.132056 0 255 0 60 4
0.148346 0.213959 0.123136 0 255 0 60 4
0.051358 0.219398 0.131174 0 255 0 60 4
0.087110 0.224067 0.124171 0 255 0 60 4
0.092072 0.180074 0.131739 0 255 0 60 4
0.148048 0.202935 0.131683 0 255 0 60 4
0.050035 0.174696 0.124235 0 255 0 60 4
0.144688 0.183203 0.123136 0 255 0 60 4
0.036879 0.189760 0.124182 0 255 0 60 4
0.125744 0.174961 0.124182 0 255 0 60 4
0.098649 0.172542 0.124186 0 255 0 60 4
0.133475 0.230569 0.124175 0 255 0 60 4
0.098479 0.190980 0.124185 0 255 0 60 4
0.110340 0.198682 0.124169 0 255 0 60 4
0.127190 0.229860 0.131815 0 255 0 60 4
0.130366 0.167845 0.131257 0 255 0 60 4
0.058985 0.168704 0.131865 0 255 0 60 4
0.133815 0.193692 0.131555 0 255 0 60 4
0.032012 0.176482 0.132173 0 255 0 60 4
0.086789 0.164839 0.131948 0 255 0 60 4
0.127483 0.221619 0.131727 0 255 0 60 4
0.070921 0.215240 0.124167 0 255 0 60 4
0.105766 0.177163 0.124196 0 255 0 60 4
0.133938 0.203890 0.131714 0 255 0 60 4
0.067594 0.199589 0.124196 0 255 0 60 4
0.140884 0.226949 0.124158 0 255 0 60 4
0.050352 0.162361 0.121136 0 255 0 60 4
0.024896 0.171861 0.124141 0 255 0 60 4
0.077451 0.236343 0.127994 0 255 0 60 4
0.065269 0.169413 0.124210 0 255 0 60 4
0.098804 0.230987 0.131136 0 255 0 60 4
0.104423 0.228565 0.124154 0 255 0 60 4
0.149211 0.196554 0.125136 0 255 0 60 4
0.073416 0.226977 0.131536 0 255 0 60 4
0.130196 0.186283 0.131490 0 255 0 60 4
0.069673 0.209371 0.131691 0 255 0 60 4
0.096060 0.218075 0.124149 0 255 0 60 4
0.061187 0.188683 0.131678 0 255 0 60 4
0.072584 0.223065 0.124201 0 255 0 60 4
0.116747 0.209588 0.124175 0 255 0 60 4
0.024679 0.218935 0.129773 0 255 0 60 4
0.080116 0.229643 0.124176 0 255 0 60 4
0.089407 0.186774 0.124168 0 255 0 60 4
0.030840 0.209446 0.131403 0 255 0 60 4
0.146432 0.166474 0.122359 0 255 0 60 4
0.146632 0.221638 0.125136 0 255 0 60 4
0.030302 0.197293 0.131522 0 255 0 60 4
0.055686 0.220523 0.124171 0 255 0 60 4
0.052360 0.204872 0.124158 0 255 0 60 4
0.057151 0.179318 0.124180 0 255 0 60 4
0.053607 0.210741 0.131492 0 255 0 60 4
0.087403 0.215826 0.124167 0 255 0 60 4
0.119951 0.215041 0.131760 0 255 0 60 4
0.043873 0.184185 0.131465 0 255 0 60 4
0.024433 0.198540 0.124152 0 255 0 60 4
0.099018 0.203133 0.131712 0 255 0 60 4
0.039109 0.161771 0.123136 0 255 0 60 4
0.090777 0.202840 0.124161 0 255 0 60 4
0.070259 0.192889 0.131654 0 255 0 60 4
0.079219 0.162359 0.121136 0 255 0 60 4
0.148574 0.234269 0.127136 0 255 0 60 4
0.113496 0.232771 0.131327 0 255 0 60 4
0.050989 0.188806 0.124162 0 255 0 60 4
0.059892 0.211450 0.124156 0 255 0 60 4
0.081950 0.219029 0.131583 0 255 0 60 4
0.138813 0.169108 0.121136 0 255 0 60 4
0.141743 0.230990 0.131136 0 255 0 60 4
0.042824 0.227346 0.124159 0 255 0 60 4
0.094408 0.162206 0.123136 0 255 0 60 4
0.027807 0.185555 0.131414 0 255 0 60 4
0.066306 0.236667 0.125136 0 255 0 60 4
0.090729 0.231476 0.122141 0 255 0 60 4
0.046784 0.197879 0.131164 0 255 0 60 4
0.142009 0.222621 0.131246 0 255 0 60 4
0.043117 0.219105 0.131352 0 255 0 60 4
0.142104 0.165350 0.131783 0 255 0 60 4
0.061480 0.180442 0.131871 0 255 0 60 4
0.072802 0.175991 0.131616 0 255 0 60 4
0.086155 0.209957 0.131443 0 255 0 60 4
0.098772 0.182739 0.131496 0 255 0 60 4
0.110217 0.188485 0.131583 0 255 0 60 4
0.060185 0.203209 0.131588 0 255 0 60 4
0.118997 0.200931 0.131835 0 255 0 60 4
0.140639 0.206555 0.131669 0 255 0 60 4
0.114007 0.177456 0.131851 0 255 0 60 4
0.054609 0.196215 0.131740 0 255 0 60 4
0.103101 0.183864 0.124190 0 255 0 60 4
0.093394 0.224776 0.131443 0 255 0 60 4
0.070552 0.184648 0.124165 0 255 0 60 4
0.063511 0.218859 0.131703 0 255 0 60 4
0.063975 0.192180 0.124149 0 255 0 60 4
0.070430 0.174451 0.124174 0 255 0 60 4
0.047445 0.220230 0.124142 0 255 0 60 4
0.103639 0.196017 0.124177 0 255 0 60 4
0.101097 0.212915 0.124195 0 255 0 60 4
0.124034 0.195771 0.124157 0 255 0 60 4
0.039374 0.201498 0.124141 0 255 0 60 4
0.120707 0.180121 0.124176 0 255 0 60 4
0.118533 0.227611 0.124168 0 255 0 60 4
0.042531 0.235587 0.129743 0 255 0 60 4
0.133447 0.163100 0.124387 0 255 0 60 4
0.134722 0.236438 0.127958 0 255 0 60 4
0.119492 0.159932 0.125136 0 255 0 60 4
0.053263 0.233306 0.125136 0 255 0 60 4
0.032598 0.160000 0.126319 0 255 0 60 4
0.119044 0.172296 0.124181 0 255 0 60 4
0.031918 0.233753 0.129733 0 255 0 60 4
-0.013915 0.297093 0.165136 255 0 255 44 5
-0.057526 0.140015 0.207136 255 0 255 44 5
-0.009578 0.192443 0.117136 255 0 255 44 5
-0.007870 0.219719 0.218669 255 0 255 44 5
-0.068439 0.271442 0.216033 255 0 255 44 5
-0.061379 0.141127 0.132161 255 0 255 44 5
-0.001973 0.148947 0.169136 255 0 255 44 5
-0.014495 0.255887 0.116151 255 0 255 44 5
-0.063643 0.200904 0.215136 255 0 255 44 5
-0.009921 0.277406 0.218963 255 0 255 44 5
-0.003336 0.226934 0.163136 255 0 255 44 5
-0.011272 0.165236 0.218744 255 0 255 44 5
-0.013889 0.143301 0.122160 255 0 255 44 5
-0.011151 0.189746 0.183136 255 0 255 44 5
-0.022037 0.297361 0.123136 255 0 255 44 5
-0.044916 0.237817 0.212138 255 0 255 44 5
-0.043863 0.146578 0.169136 255 0 255 44 5
-0.041392 0.302498 0.212143 255 0 255 44 5
-0.014594 0.259997 0.183136 255 0 255 44 5
-0.022442 0.138985 0.197136 255 0 255 44 5
-0.005204 0.266180 0.149136 255 0 255 44 5
-0.009668 0.177163 0.149136 255 0 255 44 5
-0.029757 0.193701 0.212179 255 0 255 44 5
-0.006374 0.225535 0.129136 255 0 255 44 5
-0.053186 0.170055 0.219153 255 0 255 44 5
-0.038679 0.267161 0.222528 255 0 255 44 5
-0.016158 0.248062 0.212187 255 0 255 44 5
-0.016535 0.297214 0.195136 255 0 255 44 5
-0.012272 0.227866 0.191136 255 0 255 44 5
-0.033267 0.138714 0.143136 255 0 255 44 5
-0.001348 0.204020 0.147136 255 0 255 44 5
-0.002313 0.191957 0.215136 255 0 255 44 5
-0.001482 0.163155 0.193136 255 0 255 44 5
-0.035484 0.149935 0.217136 255 0 255 44 5
-0.001988 0.153039 0.143136 255 0 255 44 5
-0.005998 0.168204 0.123136 255 0 255 44 5
-0.006024 0.278623 0.121136 255 0 255 44 5
-0.013966 0.243506 0.145136 255 0 255 44 5
-0.033008 0.216884 0.219068 255 0 255 44 5
-0.007140 0.290488 0.143136 255 0 255 44 5
-0.062344 0.141332 0.183136 255 0 255 44 5
-0.002271 0.207581 0.197136 255 0 255 44 5
-0.037365 0.148291 0.122321 255 0 255 44 5
-0.004897 0.249757 0.165136 255 0 255 44 5
-0.022080 0.138908 0.165136 255 0 255 44 5
-0.011403 0.169353 0.173136 255 0 255 44 5
-0.006273 0.280720 0.179136 255 0 255 44 5
-0.019872 0.297923 0.217605 255 0 255 44 5
-0.011742 0.206229 0.167136 255 0 255 44 5
-0.061482 0.145238 0.155136 255 0 255 44 5
-0.007013 0.143884 0.213136 255 0 255 44 5
-0.061665 0.293695 0.215136 255 0 255 44 5
-0.062595 0.223173 0.215136 255 0 255 44 5
-0.063430 0.249931 0.215136 255 0 255 44 5
-0.032375 0.171766 0.212166 255 0 255 44 5
-0.041920 0.146101 0.191136 255 0 255 44 5
-0.017575 0.274944 0.199136 255 0 255 44 5
-0.011144 0.179521 0.201136 255 0 255 44 5
-0.002490 0.187309 0.165136 255 0 255 44 5
-0.004851 0.143424 0.189136 255 0 255 44 5
-0.013446 0.212725 0.116173 255 0 255 44 5
-0.013074 0.137516 0.147136 255 0 255 44 5
-0.006462 0.246001 0.195136 255 0 255 44 5
-0.015615 0.274527 0.163136 255 0 255 44 5
-0.049443 0.187662 0.212187 255 0 255 44 5
-0.032980 0.284352 0.214235 255 0 255 44 5
-0.015329 0.266288 0.133136 255 0 255 44 5
-0.010794 0.220341 0.147136 255 0 255 44 5
-0.003439 0.188107 0.135136 255 0 255 44 5
-0.015281 0.237652 0.175136 255 0 255 44 5
-0.002091 0.216446 0.179136 255 0 255 44 5
-0.014325 0.237448 0.116134 255 0 255 44 5
-0.023813 0.231287 0.212155 255 0 255 44 5
-0.064140 0.156996 0.205136 255 0 255 44 5
-0.049878 0.281810 0.222510 255 0 255 44 5
-0.023218 0.296590 0.149136 255 0 255 44 5
-0.025421 0.146766 0.181136 255 0 255 44 5
-0.015099 0.156851 0.203136 255 0 255 44 5
-0.022830 0.264770 0.213136 255 0 255 44 5
-0.045701 0.205269 0.212150 255 0 255 44 5
-0.011501 0.159150 0.157136 255 0 255 44 5
-0.011196 0.204069 0.132106 255 0 255 44 5
-0.034101 0.250222 0.219136 255 0 255 44 5
-0.014042 0.204673 0.211136 255 0 255 44 5
-0.006864 0.262444 0.205136 255 0 255 44 5
-0.006434 0.245995 0.129136 255 0 255 44 5
-0.017727 0.182965 0.218710 255 0 255 44 5
-0.006142 0.233665 0.207136 255 0 255 44 5
-0.006703 0.286946 0.205136 255 0 255 44 5
-0.003753 0.265872 0.171136 255 0 255 44 5
-0.024201 0.296799 0.178121 255 0 255 44 5
-0.053015 0.151617 0.218057 255 0 255 44 5
-0.048210 0.145366 0.145136 255 0 255 44 5
-0.052080 0.261831 0.214153 255 0 255 44 5
-0.037329 0.138840 0.205136 255 0 255 44 5
-0.064185 0.182617 0.215136 255 0 255 44 5
-0.013829 0.196450 0.197136 255 0 255 44 5
-0.033665 0.146460 0.157136 255 0 255 44 5
-0.007380 0.293223 0.127136 255 0 255 44 5
-0.046287 0.221751 0.212147 255 0 255 44 5
-0.002022 0.177582 0.187136 255 0 255 44 5
-0.011182 0.156040 0.181136 255 0 255 44 5
-0.011877 0.196035 0.155136 255 0 255 44 5
-0.015867 0.158034 0.117136 255 0 255 44 5
-0.015151 0.180373 0.125136 255 0 255 44 5
-0.015104 0.219212 0.205136 255 0 255 44 5
-0.021518 0.145888 0.135136 255 0 255 44 5
-0.014522 0.236521 0.159136 255 0 255 44 5
-0.002157 0.171477 0.161136 255 0 255 44 5
-0.020051 0.152789 0.218267 255 0 255 44 5
-0.002199 0.169441 0.138469 255 0 255 44 5
-0.057495 0.138257 0.169136 255 0 255 44 5
-0.013054 0.137611 0.177136 255 0 255 44 5
-0.010985 0.205061 0.183136 255 0 255 44 5
-0.015218 0.276487 0.145136 255 0 255 44 5
-0.006748 0.284910 0.157136 255 0 255 44 5
-0.002566 0.167713 0.207136 255 0 255 44 5
-0.010304 0.154807 0.131136 255 0 255 44 5
-0.014628 0.260004 0.161136 255 0 255 44 5
-0.046926 0.141789 0.131136 255 0 255 44 5
-0.005699 0.141560 0.135136 255 0 255 44 5
-0.003908 0.145269 0.155136 255 0 255 44 5
-0.042695 0.161692 0.212211 255 0 255 44 5
-0.006475 0.270540 0.191136 255 0 255 44 5
-0.010381 0.294478 0.181136 255 0 255 44 5
-0.009750 0.258968 0.218860 255 0 255 44 5
-0.058154 0.236541 0.217136 255 0 255 44 5
-0.006277 0.256070 0.139136 255 0 255 44 5
-0.002471 0.214482 0.137136 255 0 255 44 5
-0.006430 0.248039 0.179136 255 0 255 44 5
-0.004448 0.178098 0.218028 255 0 255 44 5
-0.037284 0.139050 0.179136 255 0 255 44 5
-0.005113 0.232689 0.143136 255 0 255 44 5
-0.024503 0.141467 0.210882 255 0 255 44 5
-0.047369 0.149322 0.205136 255 0 255 44 5
-0.045496 0.138895 0.157136 255 0 255 44 5
-0.002182 0.212376 0.159136 255 0 255 44 5
-0.038121 0.183211 0.218897 255 0 255 44 5
-0.001806 0.189805 0.195136 255 0 255 44 5
-0.025350 0.205032 0.219136 255 0 255 44 5
-0.002137 0.198054 0.175136 255 0 255 44 5
-0.012599 0.235947 0.219136 255 0 255 44 5
-0.006075 0.264321 0.123136 255 0 255 44 5
-0.003667 0.229872 0.177136 255 0 255 44 5
-0.015504 0.284727 0.189136 255 0 255 44 5
-0.014747 0.283558 0.133136 255 0 255 44 5
-0.048706 0.248846 0.218994 255 0 255 44 5
-0.053776 0.138421 0.193136 255 0 255 44 5
-0.003345 0.221769 0.199136 255 0 255 44 5
-0.054235 0.213217 0.218831 255 0 255 44 5
-0.008980 0.138168 0.201136 255 0 255 44 5
-0.013710 0.288435 0.116163 255 0 255 44 5
-0.036382 0.229869 0.218858 255 0 255 44 5
-0.015447 0.256089 0.197136 255 0 255 44 5
-0.001642 0.187725 0.149136 255 0 255 44 5
-0.003837 0.249532 0.151136 255 0 255 44 5
-0.014530 0.236482 0.133136 255 0 255 44 5
-0.017180 0.147061 0.155136 255 0 255 44 5
-0.019856 0.283607 0.213136 255 0 255 44 5
-0.018149 0.296414 0.137136 255 0 255 44 5
-0.013878 0.191452 0.209136 255 0 255 44 5
-0.050164 0.145792 0.181136 255 0 255 44 5
-0.054745 0.268532 0.224894 255 0 255 44 5
-0.024588 0.150686 0.123136 255 0 255 44 5
-0.008145 0.291341 0.217136 255 0 255 44 5
-0.015498 0.284726 0.171136 255 0 255 44 5
-0.047799 0.291591 0.214227 255 0 255 44 5
-0.003125 0.151236 0.199136 255 0 255 44 5
-0.010793 0.225203 0.117136 255 0 255 44 5
-0.015280 0.237652 0.199136 255 0 255 44 5
-0.059716 0.148952 0.122205 255 0 255 44 5
-0.032442 0.296506 0.218947 255 0 255 44 5
-0.001831 0.200033 0.162079 255 0 255 44 5
-0.020439 0.218301 0.218569 255 0 255 44 5
-0.012041 0.214472 0.193136 255 0 255 44 5
-0.006081 0.274545 0.135136 255 0 255 44 5
-0.012601 0.168603 0.195136 255 0 255 44 5
-0.010678 0.163065 0.145136 255 0 255 44 5
-0.008623 0.139218 0.165136 255 0 255 44 5
-0.010786 0.220339 0.171136 255 0 255 44 5
-0.002121 0.177604 0.173136 255 0 255 44 5
-0.014285 0.256874 0.149136 255 0 255 44 5
-0.021885 0.163402 0.212152 255 0 255 44 5
-0.026818 0.274864 0.219237 255 0 255 44 5
-0.002168 0.161256 0.169136 255 0 255 44 5
-0.032830 0.150389 0.205136 255 0 255 44 5
-0.063768 0.164126 0.215136 255 0 255 44 5
-0.014488 0.270198 0.175136 255 0 255 44 5
-0.008043 0.274962 0.207136 255 0 255 44 5
-0.002191 0.165350 0.181136 255 0 255 44 5
-0.009859 0.195606 0.143136 255 0 255 44 5
-0.011270 0.179548 0.161136 255 0 255 44 5
-0.014808 0.239596 0.187136 255 0 255 44 5
-0.031714 0.146019 0.169136 255 0 255 44 5
-0.032952 0.141218 0.131136 255 0 255 44 5
-0.005991 0.155935 0.213136 255 0 255 44 5
-0.013927 0.297034 0.207136 255 0 255 44 5
-0.041495 0.196196 0.218897 255 0 255 44 5
-0.014699 0.254928 0.129136 255 0 255 44 5
-0.032498 0.161569 0.218560 255 0 255 44 5
-0.044113 0.174261 0.212157 255 0 255 44 5
-0.039927 0.261293 0.212151 255 0 255 44 5
-0.003757 0.198398 0.205136 255 0 255 44 5
-0.041854 0.276015 0.215136 255 0 255 44 5
-0.023690 0.241484 0.218734 255 0 255 44 5
-0.015288 0.271395 0.119136 255 0 255 44 5
-0.060075 0.281933 0.216218 255 0 255 44 5
-0.012135 0.295849 0.153136 255 0 255 44 5
-0.061379 0.141127 0.144102 255 0 255 44 5
-0.006036 0.237966 0.167136 255 0 255 44 5
-0.012710 0.192122 0.129136 255 0 255 44 5
-0.006942 0.203164 0.121136 255 0 255 44 5
-0.014495 0.255887 0.172154 255 0 255 44 5
-0.011327 0.208186 0.153136 255 0 255 44 5
-0.031279 0.138445 0.189136 255 0 255 44 5
-0.004461 0.272156 0.159136 255 0 255 44 5
-0.053757 0.302042 0.213136 255 0 255 44 5
-0.022979 0.254448 0.219136 255 0 255 44 5
-0.006376 0.245983 0.218130 255 0 255 44 5
-0.025065 0.138823 0.153136 255 0 255 44 5
-0.002243 0.198093 0.187136 255 0 255 44 5
-0.013991 0.248636 0.157136 255 0 255 44 5
-0.017183 0.147045 0.189136 255 0 255 44 5
-0.013588 0.216845 0.127136 255 0 255 44 5
-0.053649 0.196735 0.218860 255 0 255 44 5
-0.006986 0.291215 0.193136 255 0 255 44 5
-0.014883 0.172137 0.117136 255 0 255 44 5
-0.012449 0.173665 0.211136 255 0 255 44 5
-0.002138 0.224635 0.187136 255 0 255 44 5
-0.033358 0.239450 0.213136 255 0 255 44 5
-0.019144 0.195535 0.218902 255 0 255 44 5
-0.006343 0.213260 0.209136 255 0 255 44 5
-0.002572 0.183833 0.207136 255 0 255 44 5
-0.009710 0.177172 0.135136 255 0 255 44 5
-0.014586 0.231370 0.149136 255 0 255 44 5
-0.062693 0.259998 0.210192 255 0 255 44 5
-0.006195 0.258212 0.191136 255 0 255 44 5
-0.006355 0.250067 0.207136 255 0 255 44 5
-0.010703 0.191696 0.171136 255 0 255 44 5
-0.017178 0.147067 0.173136 255 0 255 44 5
-0.010979 0.156995 0.192152 255 0 255 44 5
-0.001732 0.222504 0.153136 255 0 255 44 5
-0.002074 0.163281 0.153136 255 0 255 44 5
-0.057969 0.147550 0.199136 255 0 255 44 5
-0.035088 0.207102 0.214298 255 0 255 44 5
-0.015629 0.274530 0.185136 255 0 255 44 5
-0.011283 0.179551 0.179136 255 0 255 44 5
-0.006207 0.235723 0.125136 255 0 255 44 5
-0.054057 0.146714 0.163136 255 0 255 44 5
-0.015575 0.245893 0.123136 255 0 255 44 5
-0.006238 0.280713 0.167136 255 0 255 44 5
-0.001468 0.152929 0.185136 255 0 255 44 5
-0.011218 0.218386 0.159136 255 0 255 44 5
-0.007131 0.152088 0.121136 255 0 255 44 5
-0.002010 0.208811 0.171136 255 0 255 44 5
-0.002198 0.173530 0.197136 255 0 255 44 5
-0.047685 0.138216 0.202173 255 0 255 44 5
-0.010365 0.207981 0.142123 255 0 255 44 5
-0.025424 0.146754 0.145136 255 0 255 44 5
-0.026383 0.180716 0.212145 255 0 255 44 5
-0.006829 0.291062 0.171136 255 0 255 44 5
-0.022178 0.171643 0.219004 255 0 255 44 5
-0.050908 0.228867 0.218945 255 0 255 44 5
-0.044671 0.258212 0.222250 255 0 255 44 5
-0.014693 0.206857 0.200161 255 0 255 44 5
-0.011643 0.148957 0.145136 255 0 255 44 5
-0.014618 0.245690 0.168152 255 0 255 44 5
-0.048607 0.148635 0.123136 255 0 255 44 5
-0.006509 0.280770 0.195136 255 0 255 44 5
-0.007100 0.248181 0.117136 255 0 255 44 5
-0.021109 0.147814 0.203136 255 0 255 44 5
-0.011272 0.165236 0.132116 255 0 255 44 5
-0.025156 0.297002 0.201136 255 0 255 44 5
-0.005734 0.184506 0.123136 255 0 255 44 5
-0.004204 0.261878 0.161136 255 0 255 44 5
-0.005508 0.235575 0.195136 255 0 255 44 5
-0.010374 0.154821 0.167136 255 0 255 44 5
-0.002082 0.187819 0.177136 255 0 255 44 5
-0.015064 0.286678 0.149136 255 0 255 44 5
-0.042498 0.143379 0.213136 255 0 255 44 5
-0.014726 0.249802 0.185136 255 0 255 44 5
-0.059335 0.259284 0.221136 255 0 255 44 5
-0.006351 0.266424 0.181136 255 0 255 44 5
-0.002848 0.200250 0.137136 255 0 255 44 5
-0.016529 0.265555 0.203136 255 0 255 44 5
-0.007699 0.201281 0.218439 255 0 255 44 5
-0.006008 0.276574 0.149606 255 0 255 44 5
-0.013823 0.230188 0.167136 255 0 255 44 5
-0.011984 0.185834 0.193136 255 0 255 44 5
-0.006612 0.268524 0.215136 255 0 255 44 5
-0.021058 0.138434 0.185136 255 0 255 44 5
-0.001867 0.214354 0.189136 255 0 255 44 5
-0.006324 0.239837 0.153136 255 0 255 44 5
-0.039960 0.145701 0.139136 255 0 255 44 5
-0.001741 0.155031 0.159136 255 0 255 44 5
-0.053063 0.180253 0.218789 255 0 255 44 5
-0.001815 0.179583 0.141136 255 0 255 44 5
-0.010964 0.171304 0.185136 255 0 255 44 5
-0.011394 0.169351 0.157136 255 0 255 44 5
-0.044037 0.213094 0.218854 255 0 255 44 5
-0.052893 0.161814 0.212157 255 0 255 44 5
-0.015076 0.286681 0.199136 255 0 255 44 5
-0.010356 0.222292 0.181136 255 0 255 44 5
-0.009990 0.185410 0.143136 255 0 255 44 5
-0.053707 0.138743 0.151136 255 0 255 44 5
-0.006011 0.223413 0.209136 255 0 255 44 5
-0.014806 0.137361 0.157136 255 0 255 44 5
-0.039278 0.138474 0.165136 255 0 255 44 5
-0.032394 0.267870 0.214223 255 0 255 44 5
-0.004793 0.143412 0.177136 255 0 255 44 5
-0.017255 0.266697 0.193136 255 0 255 44 5
-0.060595 0.173675 0.212157 255 0 255 44 5
-0.013264 0.265848 0.143136 255 0 255 44 5
-0.022988 0.138972 0.175136 255 0 255 44 5
-0.001643 0.214306 0.147136 255 0 255 44 5
-0.061628 0.149359 0.211136 255 0 255 44 5
-0.004174 0.255738 0.173136 255 0 255 44 5
-0.014974 0.229408 0.205136 255 0 255 44 5
-0.014409 0.246671 0.135136 255 0 255 44 5
-0.054062 0.146694 0.137136 255 0 255 44 5
-0.010776 0.220337 0.137136 255 0 255 44 5
-0.053498 0.274401 0.216213 255 0 255 44 5
-0.063250 0.211044 0.215136 255 0 255 44 5
-0.005903 0.241792 0.139136 255 0 255 44 5
-0.014985 0.229410 0.125136 255 0 255 44 5
-0.017453 0.270828 0.218925 255 0 255 44 5
-0.027848 0.221921 0.212208 255 0 255 44 5
-0.014922 0.138442 0.137136 255 0 255 44 5
-0.012935 0.267823 0.155136 255 0 255 44 5
-0.030349 0.258253 0.213136 255 0 255 44 5
-0.029768 0.145552 0.197136 255 0 255 44 5
-0.058809 0.191698 0.212180 255 0 255 44 5
-0.001927 0.181652 0.157136 255 0 255 44 5
-0.053866 0.243809 0.212163 255 0 255 44 5
-0.039076 0.169101 0.218790 255 0 255 44 5
-0.011905 0.210353 0.218806 255 0 255 44 5
-0.026355 0.248184 0.212136 255 0 255 44 5
-0.015001 0.258039 0.209136 255 0 255 44 5
-0.006152 0.235711 0.185136 255 0 255 44 5
-0.012889 0.138386 0.191136 255 0 255 44 5
-0.047605 0.138593 0.173136 255 0 255 44 5
-0.010813 0.186632 0.153136 255 0 255 44 5
-0.040806 0.286016 0.219650 255 0 255 44 5
-0.001612 0.218389 0.167136 255 0 255 44 5
-0.001783 0.171398 0.147847 255 0 255 44 5
-0.005907 0.211123 0.127136 255 0 255 44 5
-0.041400 0.138925 0.148155 255 0 255 44 5
-0.025864 0.288974 0.218553 255 0 255 44 5
-0.011858 0.181718 0.116327 255 0 255 44 5
-0.014665 0.274325 0.128120 255 0 255 44 5
-0.028394 0.156607 0.211136 255 0 255 44 5
-0.058401 0.145519 0.175136 255 0 255 44 5
-0.015348 0.198817 0.121136 255 0 255 44 5
-0.002172 0.224642 0.139136 255 0 255 44 5
-0.005971 0.229539 0.217136 255 0 255 44 5
-0.022102 0.210476 0.212157 255 0 255 44 5
-0.015089 0.286683 0.161136 255 0 255 44 5
-0.045554 0.138624 0.185136 255 0 255 44 5
-0.016015 0.139663 0.207136 255 0 255 44 5
-0.021236 0.296169 0.187136 255 0 255 44 5
-0.003288 0.159449 0.135136 255 0 255 44 5
-0.039756 0.242854 0.218969 255 0 255 44 5
-0.012189 0.165431 0.205136 255 0 255 44 5
-0.011280 0.213296 0.177136 255 0 255 44 5
-0.013616 0.231164 0.182108 255 0 255 44 5
-0.038830 0.189496 0.212156 255 0 255 44 5
-0.054884 0.205176 0.213136 255 0 255 44 5
-0.040049 0.251095 0.212142 255 0 255 44 5
-0.006539 0.264419 0.135136 255 0 255 44 5
-0.015471 0.256094 0.139136 255 0 255 44 5
-0.005106 0.159836 0.203136 255 0 255 44 5
-0.002043 0.195989 0.153136 255 0 255 44 5
-0.010212 0.165010 0.165136 255 0 255 44 5
-0.035620 0.146879 0.147136 255 0 255 44 5
-0.002575 0.167674 0.217136 255 0 255 44 5
-0.033670 0.146433 0.185136 255 0 255 44 5
-0.015589 0.245896 0.203136 255 0 255 44 5
-0.025423 0.146757 0.161136 255 0 255 44 5
-0.006506 0.283851 0.129136 255 0 255 44 5
-0.015238 0.237643 0.209136 255 0 255 44 5
-0.029048 0.187416 0.218803 255 0 255 44 5
-0.013292 0.146112 0.131136 255 0 255 44 5
-0.013825 0.297514 0.119136 255 0 255 44 5
-0.023126 0.138324 0.141136 255 0 255 44 5
-0.006519 0.254192 0.125136 255 0 255 44 5
-0.018360 0.228083 0.218727 255 0 255 44 5
-0.016997 0.292214 0.129136 255 0 255 44 5
-0.002199 0.206246 0.181136 255 0 255 44 5
-0.013573 0.149368 0.197136 255 0 255 44 5
-0.011196 0.204069 0.192158 255 0 255 44 5
-0.011016 0.199941 0.175136 255 0 255 44 5
-0.061739 0.274108 0.221527 255 0 255 44 5
-0.014958 0.282566 0.124139 255 0 255 44 5
-0.005913 0.219303 0.122585 255 0 255 44 5
-0.012281 0.227824 0.157136 255 0 255 44 5
-0.006066 0.241827 0.203136 255 0 255 44 5
-0.001806 0.157090 0.177136 255 0 255 44 5
-0.005918 0.258153 0.153136 255 0 255 44 5
-0.011979 0.146984 0.181136 255 0 255 44 5
-0.006632 0.254216 0.199136 255 0 255 44 5
-0.031128 0.177635 0.219223 255 0 255 44 5
-0.059074 0.267407 0.216202 255 0 255 44 5
-0.044359 0.153866 0.218205 255 0 255 44 5
-0.054064 0.146684 0.189136 255 0 255 44 5
-0.037630 0.224000 0.212164 255 0 255 44 5
-0.014757 0.278434 0.155136 255 0 255 44 5
-0.012151 0.189959 0.218904 255 0 255 44 5
-0.039441 0.138523 0.195136 255 0 255 44 5
-0.053949 0.253039 0.213136 255 0 255 44 5
