ply
format ascii 1.0
element vertex 1079
property float x
property float y
property float z
property uchar red
property uchar green
property uchar blue
property uchar semantic_label
property uchar instance_label
end_header
-0.807386 0.285674 -0.065913 255 252 255 0 0
-0.779364 0.289713 -0.064070 255 253 254 0 0
-0.791747 0.285270 -0.071231 255 253 254 0 0
0.044078 0.457913 -0.050291 254 254 251 7 2
-0.071967 0.515937 0.430140 250 232 199 1 3
-0.072046 0.516543 0.417281 252 234 195 1 3
-0.072306 0.506172 0.402624 255 237 205 1 3
-0.088718 0.516829 0.423405 255 239 197 1 3
-0.057958 0.514332 0.408972 252 233 201 1 3
-0.058563 0.502836 0.398252 255 237 197 1 3
-0.089136 0.506915 0.402866 255 239 196 1 3
-0.006732 0.423957 -0.052622 219 203 192 7 2
-0.046465 0.418300 -0.052991 227 205 191 7 2
-0.030039 0.448415 -0.050508 255 249 242 7 2
-0.095374 0.406203 -0.054157 204 183 182 7 2
-0.093957 0.373519 -0.056674 185 167 172 7 2
-0.390795 0.520013 0.011878 254 251 233 1 3
-0.409059 0.519187 0.036378 255 251 231 1 3
-0.377877 0.519324 0.031377 255 252 228 1 3
-0.394598 0.519891 0.029859 254 252 229 1 3
-0.721131 0.359776 -0.038182 128 126 128 0 0
-0.724124 0.345353 -0.024638 255 253 255 0 0
-0.725187 0.353268 -0.033560 255 254 255 0 0
-0.584804 0.321133 -0.058253 254 251 251 7 2
-0.588352 0.314550 -0.056679 255 252 253 7 2
-0.592680 0.347706 -0.064996 251 245 242 0 0
-0.593034 0.309421 -0.061176 255 252 253 7 2
0.036353 0.513480 0.085191 250 221 182 1 3
0.002360 0.511476 0.130639 249 221 192 1 3
-0.222094 0.510419 0.489771 223 218 184 1 3
-0.243257 0.504889 0.489887 239 231 211 1 3
-0.528803 0.520031 0.002378 255 253 240 1 3
-0.239262 0.515436 0.405665 255 249 218 1 3
-0.268279 0.513396 0.404961 255 249 221 1 3
-0.276274 0.512370 0.417014 255 248 222 1 3
-0.258157 0.516287 0.433980 255 249 218 1 3
-0.258118 0.515062 0.418712 255 250 219 1 3
-0.461125 0.514065 0.162377 255 254 235 1 3
-0.437040 0.513954 0.172377 254 252 234 1 3
-0.319760 0.516006 -0.046520 247 231 203 7 2
-0.332527 0.505907 -0.050278 253 242 231 7 2
-0.336078 0.520568 -0.037793 253 236 207 1 3
-0.316737 0.519516 -0.041125 251 231 197 1 3
-0.024508 0.514940 0.053760 251 227 187 1 3
-0.041408 0.515484 0.055878 251 225 200 1 3
-0.001789 0.514360 0.083878 250 230 183 1 3
-0.348736 0.512084 0.186877 254 252 227 1 3
-0.231494 0.483857 -0.050072 255 253 253 7 2
-0.793080 0.523637 -0.094952 254 254 255 1 3
-0.787217 0.526205 -0.101748 231 214 197 1 3
-0.787639 0.520227 -0.112321 222 208 196 1 3
-0.764709 0.524090 -0.109609 245 236 215 1 3
-0.250278 0.510819 0.371539 255 249 216 1 3
-0.256956 0.509432 0.353878 255 249 220 1 3
-0.768634 0.517798 0.063878 255 255 255 1 3
-0.741992 0.517037 0.060307 255 255 255 1 3
-0.752849 0.518083 0.063157 255 255 255 1 3
-0.737539 0.518622 0.091045 255 255 255 1 3
-0.616553 0.515010 0.185785 255 253 243 1 3
-0.671547 0.301633 -0.064663 255 253 254 0 0
-0.690583 0.302251 -0.057742 255 254 255 0 0
-0.359686 0.518208 0.039503 254 251 229 1 3
-0.170449 0.378024 -0.056183 202 182 176 7 2
0.061115 0.506285 0.229877 251 226 191 1 3
0.083831 0.505023 0.231048 252 224 190 1 3
0.058502 0.507229 0.219627 249 224 185 1 3
-0.694975 0.509352 0.336362 254 253 255 1 3
-0.685954 0.507117 0.362411 254 253 252 1 3
-0.571725 0.504991 0.359879 254 254 246 1 3
-0.605806 0.504468 0.372967 254 254 248 1 3
-0.534575 0.519936 0.026878 255 253 239 1 3
-0.506555 0.520308 0.028636 255 253 238 1 3
-0.574930 0.354550 -0.065241 234 215 202 7 2
-0.577651 0.371683 -0.067508 238 210 196 7 2
-0.565360 0.366649 -0.058342 238 215 204 7 2
-0.554670 0.361347 -0.053701 247 227 218 7 2
-0.778701 0.490714 -0.119317 255 254 254 1 3
-0.770971 0.471813 -0.121830 255 254 255 1 3
-0.776516 0.464662 -0.118930 255 255 254 1 3
-0.046060 0.511910 0.155877 254 231 198 1 3
-0.036454 0.511401 0.170627 253 232 189 1 3
-0.236802 0.302622 -0.060479 171 157 150 7 2
-0.331284 0.508865 0.450868 255 252 228 1 3
-0.325567 0.510145 0.431332 254 253 223 1 3
-0.349373 0.507859 0.429914 254 253 220 1 3
-0.343888 0.509756 0.440018 255 252 230 1 3
-0.328854 0.511423 0.463739 255 252 226 1 3
-0.537487 0.501000 0.443699 253 255 247 1 3
-0.553986 0.502086 0.442400 253 254 248 1 3
-0.545919 0.502280 0.457962 252 253 246 1 3
-0.567655 0.501628 0.455886 253 254 249 1 3
-0.698839 0.525420 -0.103689 254 253 236 1 3
-0.123257 0.516553 0.410483 255 240 209 1 3
-0.136387 0.515511 0.405815 255 241 204 1 3
-0.112189 0.505785 0.390089 255 241 206 1 3
-0.141452 0.518520 0.424316 254 243 203 1 3
-0.119325 0.519167 0.420145 254 240 208 1 3
-0.147567 0.516678 0.409476 254 242 209 1 3
-0.691780 0.347055 -0.021304 255 253 255 0 0
-0.696943 0.356329 -0.031992 253 251 253 0 0
0.050353 0.513012 0.101378 250 221 186 1 3
-0.462482 0.503038 0.405588 255 254 242 1 3
-0.431632 0.505523 0.381346 255 251 237 1 3
-0.479076 0.504093 0.384079 255 252 238 1 3
-0.438172 0.505277 0.372849 255 252 237 1 3
-0.480664 0.504645 0.369186 255 253 238 1 3
-0.436405 0.509469 0.267001 255 253 231 1 3
-0.422782 0.508551 0.282878 255 252 229 1 3
-0.017664 0.505372 0.277156 255 234 191 1 3
-0.047314 0.507104 0.282878 255 234 192 1 3
-0.021700 0.507576 0.260607 253 233 189 1 3
-0.027292 0.505549 0.293877 252 233 191 1 3
0.023325 0.357601 -0.056888 172 155 146 7 2
-0.006297 0.350421 -0.057666 169 149 136 7 2
-0.621200 0.286536 -0.086879 255 253 254 7 2
-0.632690 0.305498 -0.065139 255 253 254 0 0
0.009559 0.517822 -0.040992 250 228 188 1 3
0.028129 0.518269 -0.039934 251 222 180 1 3
-0.274651 0.510373 0.191877 254 248 216 1 3
-0.079516 0.514523 0.071878 250 227 200 1 3
-0.146248 0.314735 -0.060230 166 143 134 7 2
-0.741316 0.517989 0.243472 255 255 255 1 3
-0.390648 0.376928 -0.055434 255 253 255 7 2
-0.371151 0.392904 -0.054662 254 250 250 7 2
0.013066 0.500237 0.381597 253 229 203 1 3
0.035280 0.500517 0.377768 253 230 207 1 3
0.022198 0.495691 0.394400 251 232 197 1 3
-0.239323 0.513868 0.075878 255 243 218 1 3
-0.267550 0.513655 0.104878 255 243 215 1 3
-0.273320 0.515674 0.076955 254 243 215 1 3
-0.053782 0.282582 -0.061149 185 181 184 7 2
-0.649708 0.519442 -0.107094 251 230 204 1 3
-0.625614 0.519256 -0.097028 251 232 207 1 3
-0.616211 0.519850 -0.088542 253 242 213 1 3
-0.603979 0.515776 -0.079590 252 241 225 1 3
-0.190895 0.316006 -0.060310 173 154 156 7 2
-0.138141 0.510487 0.308987 255 240 208 1 3
-0.699042 0.242774 -0.273306 124 109 81 7 5
-0.700638 0.252779 -0.292362 141 115 106 7 5
-0.704968 0.266470 -0.290086 129 113 89 7 5
-0.380200 0.350873 -0.056599 255 250 251 7 2
-0.064090 0.507023 0.276206 255 235 203 1 3
-0.084424 0.506366 0.299127 254 235 200 1 3
-0.036191 0.501203 0.389902 253 235 191 1 3
-0.046483 0.502948 0.381000 255 236 204 1 3
-0.728719 0.475343 -0.116974 255 252 255 1 3
-0.749115 0.460022 -0.118997 255 254 254 1 3
-0.738669 0.452656 -0.118012 254 254 254 1 3
-0.766057 0.502685 -0.117157 255 254 255 1 3
-0.741988 0.478227 -0.117923 254 254 254 1 3
0.005682 0.517091 -0.015622 253 231 198 1 3
-0.049739 0.516994 -0.046348 232 205 169 1 3
0.004185 0.516146 -0.046291 239 213 177 1 3
0.000552 0.510701 -0.049647 227 199 178 7 2
-0.389845 0.506187 0.351377 255 253 233 1 3
-0.378489 0.506032 0.328963 255 252 228 1 3
-0.233133 0.512378 0.116877 255 245 205 1 3
-0.246775 0.512439 0.129346 252 246 196 1 3
-0.221001 0.511796 0.143625 255 244 211 1 3
-0.289006 0.508233 0.329877 255 248 229 1 3
-0.280668 0.508111 0.350302 255 249 222 1 3
-0.302957 0.507030 0.342878 255 250 222 1 3
-0.002191 0.515470 0.032378 253 229 193 1 3
-0.572808 0.509752 0.304983 255 253 244 1 3
-0.174324 0.512503 0.145878 254 239 206 1 3
-0.158903 0.511674 0.154127 255 238 207 1 3
0.103258 0.496811 0.405253 251 230 191 1 3
0.067729 0.493429 0.410949 251 229 185 1 3
0.087479 0.495700 0.409608 252 228 182 1 3
0.080097 0.508728 0.416633 249 228 189 1 3
0.097021 0.500067 0.417981 219 200 164 1 3
0.114107 0.500751 0.417889 237 214 169 1 3
-0.802884 0.490414 -0.073665 255 252 254 1 3
-0.806577 0.484860 -0.080388 255 253 254 1 3
-0.817939 0.476976 -0.080432 255 252 254 1 3
-0.791780 0.495000 -0.076664 255 253 254 1 3
-0.798980 0.511072 -0.059533 254 250 253 1 3
-0.806405 0.496836 -0.068238 255 252 255 1 3
-0.794834 0.516205 -0.055694 255 252 254 1 3
0.105777 0.505923 0.224285 250 220 190 1 3
0.011819 0.467793 -0.049981 254 254 240 7 2
-0.582309 0.514418 0.191821 255 253 244 1 3
-0.454694 0.510457 0.255975 255 253 235 1 3
-0.473515 0.509918 0.262621 255 253 234 1 3
-0.206668 0.511142 0.374833 255 248 212 1 3
-0.244662 0.509657 0.334503 255 249 209 1 3
-0.210822 0.510572 0.322378 255 249 209 1 3
-0.447564 0.504723 0.431871 255 252 239 1 3
-0.772746 0.518658 0.027878 255 255 255 1 3
-0.847678 0.273260 -0.078887 255 252 254 0 0
0.031358 0.511973 0.124878 246 224 173 1 3
0.019220 0.512655 0.116877 249 222 192 1 3
0.012283 0.511689 0.147878 250 223 193 1 3
0.036903 0.511527 0.137762 248 222 190 1 3
-0.531865 0.504978 -0.047924 254 252 252 7 2
-0.504689 0.495750 -0.048515 254 254 254 7 2
0.074710 0.507022 -0.050936 231 214 188 7 2
0.031173 0.499754 -0.051244 254 252 244 7 2
-0.645135 0.283378 -0.091320 255 253 254 0 0
-0.627714 0.280861 -0.094949 255 253 254 0 0
-0.497304 0.507339 0.329316 255 252 238 1 3
-0.567851 0.503386 0.377177 254 254 246 1 3
-0.552595 0.504335 0.374876 254 253 247 1 3
-0.541782 0.501624 0.394353 253 254 248 1 3
-0.504111 0.496897 0.494063 222 223 216 1 3
-0.396369 0.509777 0.259853 254 252 228 1 3
-0.372778 0.509073 0.264790 252 253 231 1 3
-0.199767 0.512937 0.163753 253 244 203 1 3
-0.225558 0.512048 0.158877 254 243 204 1 3
-0.648605 0.519033 0.030128 254 253 249 1 3
-0.637245 0.519629 0.021510 254 253 247 1 3
-0.661664 0.519608 0.020378 254 253 250 1 3
-0.209443 0.512993 0.138503 255 244 210 1 3
-0.360889 0.507163 0.300848 254 251 225 1 3
-0.335011 0.507067 0.307752 255 251 225 1 3
-0.159046 0.510402 0.272740 255 241 208 1 3
-0.172274 0.509737 0.254003 255 242 213 1 3
-0.309973 0.510384 0.485821 255 251 225 1 3
-0.314244 0.512069 0.471393 255 252 226 1 3
-0.309171 0.511887 0.462646 255 250 221 1 3
-0.287670 0.512368 0.470900 253 249 223 1 3
-0.295038 0.511964 0.485911 240 236 211 1 3
-0.298102 0.505913 0.489694 239 235 210 1 3
-0.311916 0.505948 0.490432 224 220 198 1 3
-0.027915 0.516261 0.013628 252 232 193 1 3
-0.042783 0.516191 0.002953 254 233 189 1 3
-0.736671 0.519830 0.205878 255 255 255 1 3
-0.037756 0.327035 -0.059060 150 137 144 7 2
-0.464108 0.506684 0.345234 255 253 236 1 3
-0.442935 0.507032 0.346482 255 253 237 1 3
-0.687658 0.515104 0.225128 255 252 250 1 3
-0.610555 0.257884 -0.108876 254 253 253 0 0
-0.601369 0.262579 -0.103284 255 251 252 0 0
-0.589973 0.262071 -0.082968 252 251 252 7 2
-0.415673 0.511201 0.214455 254 253 236 1 3
0.023670 0.403255 -0.053901 205 185 168 7 2
0.003181 0.403931 -0.053735 208 186 172 7 2
-0.482829 0.515583 -0.045788 255 251 243 7 2
-0.500839 0.520945 -0.036343 250 237 206 1 3
0.112638 0.360581 -0.056977 157 138 131 7 2
-0.368835 0.506245 0.356287 255 253 229 1 3
-0.350121 0.506353 0.380913 255 251 225 1 3
-0.221838 0.517316 -0.014622 255 246 211 1 3
-0.297327 0.519917 -0.039349 247 222 190 1 3
-0.298576 0.517260 -0.046308 248 223 191 7 2
-0.311006 0.512441 -0.048374 252 237 209 7 2
-0.495960 0.510385 0.257972 255 253 237 1 3
-0.507227 0.510669 0.254995 255 254 236 1 3
-0.765233 0.295945 -0.054299 255 253 254 0 0
-0.789202 0.299345 -0.040731 255 253 254 0 0
-0.797464 0.294360 -0.051850 255 253 254 0 0
-0.063913 0.444771 -0.050731 255 254 250 7 2
-0.092014 0.451666 -0.050629 254 254 255 7 2
-0.428806 0.426699 -0.051965 255 255 255 7 2
-0.422349 0.378227 -0.054906 255 254 253 7 2
-0.018220 0.390532 -0.054563 199 179 167 7 2
-0.312281 0.519205 -0.021622 255 250 223 1 3
-0.295971 0.518811 -0.006622 255 249 215 1 3
0.102663 0.499544 0.389171 251 226 187 1 3
-0.546541 0.341655 -0.053256 252 237 235 7 2
-0.145960 0.510742 0.206441 255 241 202 1 3
-0.356312 0.346146 -0.057067 248 230 229 7 2
-0.515095 0.500826 0.480908 253 255 245 1 3
-0.527059 0.498686 0.475842 253 254 244 1 3
-0.512223 0.499945 0.464267 253 254 244 1 3
-0.047097 0.514605 0.078628 253 229 195 1 3
-0.725367 0.525295 -0.112197 249 235 220 1 3
-0.690689 0.524649 -0.114190 250 236 229 1 3
0.025409 0.515956 0.000127 252 229 191 1 3
-0.610263 0.513119 0.215503 255 253 243 1 3
-0.632504 0.513853 0.216128 255 253 245 1 3
-0.617700 0.512214 0.249233 255 253 244 1 3
-0.158760 0.515587 -0.046898 239 212 188 7 2
-0.429367 0.283605 -0.060010 255 251 252 7 2
-0.725706 0.520969 -0.082035 254 253 254 1 3
-0.766575 0.519025 -0.081572 254 246 241 1 3
-0.744969 0.526219 -0.099328 255 252 239 1 3
-0.766474 0.523689 -0.091293 254 253 253 1 3
-0.734837 0.525226 -0.108644 254 247 234 1 3
-0.036725 0.509198 0.242378 251 233 186 1 3
-0.037553 0.509896 0.216253 254 231 195 1 3
-0.459371 0.330591 -0.057474 255 253 254 7 2
-0.480478 0.293262 -0.058937 255 252 255 7 2
-0.317221 0.512249 0.478963 251 248 222 1 3
-0.330751 0.509541 0.476045 255 253 227 1 3
-0.323397 0.506715 0.488981 223 221 199 1 3
-0.629446 0.518511 0.037316 254 253 248 1 3
-0.633922 0.518052 0.071878 254 253 248 1 3
-0.073469 0.509167 -0.050327 237 220 193 7 2
-0.065630 0.496457 -0.050958 253 245 236 7 2
-0.552924 0.503019 0.428769 254 254 243 1 3
-0.511019 0.502296 0.414579 255 254 242 1 3
-0.519300 0.503246 0.399677 254 254 246 1 3
-0.524589 0.504006 0.429448 254 254 244 1 3
-0.196640 0.517778 -0.015747 255 244 207 1 3
-0.182741 0.515961 -0.046969 236 209 179 7 2
-0.232796 0.506648 -0.049881 235 214 180 7 2
-0.199348 0.517791 -0.041103 246 220 188 1 3
-0.788102 0.488704 -0.118828 255 253 254 1 3
-0.752673 0.507642 -0.115891 255 253 253 1 3
-0.788192 0.506515 -0.117242 255 252 249 1 3
-0.337472 0.328384 -0.058548 230 206 189 7 2
-0.737787 0.519801 -0.114055 251 245 236 1 3
-0.764280 0.517461 -0.114224 254 254 253 1 3
-0.572779 0.518733 0.042597 255 253 239 1 3
-0.586117 0.517634 0.071378 254 252 244 1 3
-0.574561 0.482106 -0.060670 252 244 228 7 2
-0.586341 0.497555 -0.066400 253 247 227 7 2
-0.578519 0.480342 -0.066112 251 242 226 7 2
-0.461719 0.519159 0.039503 254 252 238 1 3
-0.067001 0.509737 0.249549 254 235 191 1 3
-0.051863 0.508860 0.248237 255 235 196 1 3
-0.216916 0.515930 0.022628 254 245 209 1 3
-0.194761 0.517397 0.007293 254 243 205 1 3
-0.408745 0.505468 0.376445 255 252 231 1 3
-0.370012 0.505761 0.379092 254 252 230 1 3
-0.387688 0.506628 0.369969 255 252 232 1 3
-0.343526 0.518968 0.008253 253 252 227 1 3
-0.229666 0.509374 0.311967 253 247 217 1 3
-0.704847 0.260373 -0.222478 139 102 101 7 5
-0.702146 0.252404 -0.244099 122 98 76 7 5
-0.699570 0.238577 -0.240622 123 95 98 7 5
-0.700604 0.243279 -0.215404 112 92 75 7 5
-0.162374 0.515997 0.042253 254 237 211 1 3
0.012931 0.509077 0.225201 251 228 193 1 3
-0.711124 0.517599 0.141206 255 254 255 1 3
-0.721024 0.518379 0.107119 255 255 255 1 3
0.093007 0.508991 0.178128 248 218 184 1 3
0.115669 0.508091 0.184551 245 221 170 1 3
0.092756 0.506596 0.212378 249 221 195 1 3
0.075517 0.507976 0.195878 247 219 190 1 3
0.114198 0.505997 0.202146 247 221 179 1 3
-0.027818 0.505773 0.328878 255 232 196 1 3
-0.018250 0.511507 0.169502 251 229 193 1 3
0.004992 0.511184 0.173756 252 230 182 1 3
0.029694 0.439308 -0.051587 254 247 240 7 2
-0.664437 0.319149 -0.017931 255 253 255 0 0
-0.679052 0.337965 -0.018213 255 254 252 0 0
-0.658153 0.333656 -0.016672 255 253 254 0 0
-0.073402 0.475698 -0.049872 251 254 255 7 2
-0.304400 0.507561 0.318685 255 250 222 1 3
0.043529 0.506193 0.249878 253 229 188 1 3
-0.052926 0.510937 0.431660 222 207 168 1 3
-0.155606 0.511394 0.183378 255 239 206 1 3
-0.188548 0.511504 0.181002 255 241 207 1 3
-0.706321 0.518072 0.053378 255 255 255 1 3
-0.694982 0.518410 0.067566 255 255 255 1 3
-0.125893 0.515696 0.022878 252 235 196 1 3
-0.130821 0.514755 0.054878 253 236 205 1 3
-0.072181 0.511698 0.173877 254 231 199 1 3
-0.090692 0.512035 0.161940 254 233 192 1 3
-0.042591 0.512396 0.140628 252 231 200 1 3
-0.483424 0.516392 0.111753 255 253 235 1 3
0.083610 0.502728 0.317378 252 223 199 1 3
0.099667 0.503551 0.314017 248 222 179 1 3
0.096632 0.500773 0.332914 249 224 179 1 3
-0.394055 0.508608 0.283213 255 253 228 1 3
0.039838 0.495494 0.410683 246 225 196 1 3
0.023275 0.494186 0.410650 250 233 194 1 3
0.027973 0.492538 0.405653 251 231 199 1 3
-0.683647 0.517599 0.087128 254 252 249 1 3
-0.706363 0.518473 0.097628 255 255 255 1 3
-0.668458 0.356972 -0.047412 254 254 254 0 0
-0.661140 0.353817 -0.055001 255 255 255 0 0
-0.661005 0.350745 -0.068967 255 254 255 0 0
0.008102 0.513203 0.093877 248 224 186 1 3
-0.712170 0.519015 -0.003872 255 254 254 1 3
-0.703281 0.266999 -0.309103 150 118 95 7 5
-0.703468 0.263610 -0.319357 126 111 100 7 5
-0.704243 0.266791 -0.340754 142 118 99 7 5
-0.700524 0.252317 -0.315567 144 117 106 7 5
-0.700624 0.250180 -0.329325 154 113 98 7 5
-0.814451 0.463354 -0.083624 251 250 251 1 3
-0.805843 0.465171 -0.091407 253 253 253 1 3
-0.793835 0.458376 -0.111199 254 254 254 1 3
-0.802034 0.452382 -0.093340 252 251 251 1 3
-0.673383 0.508268 0.342312 254 254 253 1 3
-0.644246 0.507403 0.337903 254 254 252 1 3
-0.640181 0.506372 0.358521 254 254 252 1 3
-0.658243 0.507869 0.351449 254 254 254 1 3
-0.770227 0.519731 0.138436 255 255 255 1 3
-0.230149 0.369804 -0.056791 203 191 177 7 2
-0.597147 0.512566 0.236878 255 253 244 1 3
-0.182280 0.511657 0.370878 255 245 214 1 3
-0.221849 0.510250 0.357877 255 247 212 1 3
0.074819 0.501607 0.336691 252 227 184 1 3
0.088670 0.501001 0.367166 250 224 190 1 3
0.088505 0.500517 0.353222 251 227 180 1 3
0.043077 0.513229 0.418473 126 116 84 1 3
-0.443832 0.503896 0.415679 255 251 238 1 3
-0.428208 0.506086 0.404752 255 253 230 1 3
-0.416612 0.505513 0.413609 255 252 234 1 3
-0.284927 0.514751 0.450718 255 248 217 1 3
-0.297393 0.512308 0.433958 254 252 222 1 3
-0.279883 0.512975 0.435398 255 249 220 1 3
-0.309291 0.512191 0.449694 254 250 225 1 3
-0.293492 0.515204 0.441730 255 250 221 1 3
-0.312226 0.512752 0.441643 254 250 221 1 3
-0.371905 0.514470 0.133843 255 252 224 1 3
-0.328233 0.514327 0.120127 255 251 224 1 3
-0.346887 0.514825 0.124128 255 251 223 1 3
-0.717623 0.518225 0.161018 255 255 255 1 3
-0.654914 0.295282 -0.077217 255 253 254 0 0
-0.244137 0.511839 0.151878 254 244 219 1 3
-0.663488 0.512212 0.300317 255 251 249 1 3
-0.186772 0.508987 0.291348 252 245 209 1 3
-0.746557 0.518220 0.031377 255 255 255 1 3
-0.727051 0.518154 0.052957 255 255 255 1 3
0.105201 0.512559 0.070378 247 215 189 1 3
-0.499608 0.502876 0.390252 255 254 244 1 3
-0.601783 0.346250 -0.070461 254 252 254 0 0
-0.581308 0.342873 -0.069680 227 212 214 7 2
-0.599043 0.350694 -0.056225 254 252 254 0 0
-0.594703 0.353639 -0.075713 233 227 225 7 2
-0.495301 0.417122 -0.052067 255 254 255 7 2
-0.605770 0.500892 0.472301 253 254 250 1 3
-0.613569 0.500637 0.467669 253 254 250 1 3
-0.716690 0.517138 0.082675 255 255 255 1 3
-0.126001 0.456152 -0.050377 255 255 253 7 2
-0.122117 0.415232 -0.053764 255 255 255 7 2
-0.345887 0.512410 0.169976 255 252 230 1 3
-0.370349 0.513231 0.165128 254 251 228 1 3
-0.394485 0.290679 -0.059969 253 241 242 7 2
-0.305896 0.507075 0.377892 255 252 225 1 3
-0.335153 0.505860 0.380717 255 253 228 1 3
-0.307332 0.506788 0.358922 255 249 231 1 3
-0.335689 0.507708 0.389680 254 252 227 1 3
-0.481017 0.479142 -0.049129 255 254 255 7 2
-0.408958 0.520615 0.016878 255 253 239 1 3
-0.439751 0.519629 0.035253 255 253 237 1 3
-0.701004 0.518905 0.032378 255 255 255 1 3
-0.721908 0.517929 0.026296 255 254 255 1 3
-0.513875 0.520611 -0.035724 255 255 234 1 3
-0.514613 0.518755 -0.042459 250 236 210 7 2
-0.507188 0.512169 -0.046650 247 231 204 7 2
0.000046 0.497761 0.393579 252 234 197 1 3
-0.011720 0.501797 0.383186 253 236 195 1 3
-0.017987 0.498138 0.394861 253 234 199 1 3
-0.168711 0.498646 -0.051079 228 204 180 7 2
-0.100914 0.493817 -0.050519 255 244 230 7 2
-0.000919 0.509777 0.188887 253 229 188 1 3
-0.182488 0.509428 -0.049953 234 209 178 7 2
-0.605049 0.501652 0.482105 253 253 249 1 3
-0.570007 0.499962 0.465505 253 254 249 1 3
-0.588456 0.499427 0.464283 253 254 249 1 3
-0.579056 0.499084 0.481358 253 254 249 1 3
-0.587194 0.500190 0.469774 253 254 248 1 3
-0.602110 0.498801 0.491431 250 250 246 1 3
-0.578142 0.496906 0.493242 252 252 247 1 3
-0.588043 0.497123 0.487169 246 246 243 1 3
-0.228798 0.517165 0.473471 254 250 214 1 3
-0.226165 0.517321 0.456845 254 247 218 1 3
-0.235010 0.519809 0.445541 254 250 217 1 3
-0.515335 0.501149 0.451524 253 254 244 1 3
-0.531253 0.500069 0.462967 253 254 247 1 3
-0.512510 0.503595 0.429314 254 254 242 1 3
-0.765249 0.519081 0.158378 255 255 255 1 3
-0.624855 0.516283 -0.068735 254 253 231 1 3
-0.637365 0.519897 -0.085178 253 251 228 1 3
-0.614853 0.520536 -0.055355 255 252 232 1 3
-0.608483 0.511113 -0.072061 254 248 225 1 3
-0.606468 0.510609 -0.065448 255 251 234 1 3
-0.132274 0.513026 0.121628 253 234 197 1 3
-0.108855 0.512936 0.114338 251 234 198 1 3
-0.287939 0.504206 -0.050609 255 252 248 7 2
-0.261953 0.505628 -0.050515 254 253 252 7 2
0.000936 0.498565 -0.050719 254 254 245 7 2
-0.014544 0.476615 -0.050263 255 254 249 7 2
0.095216 0.516675 -0.027122 249 223 180 1 3
0.101416 0.516741 -0.040899 245 224 191 1 3
0.070475 0.516543 -0.025770 251 224 194 1 3
0.090585 0.516192 -0.045067 225 198 167 1 3
-0.780842 0.274818 -0.085384 255 252 254 0 0
-0.765782 0.264156 -0.095813 255 252 255 0 0
-0.789372 0.263104 -0.096228 255 251 255 0 0
-0.176794 0.516863 0.027878 255 242 205 1 3
-0.153673 0.516922 0.013378 253 237 210 1 3
-0.599710 0.355143 -0.023392 255 252 251 0 0
-0.613307 0.355896 -0.022339 255 253 255 0 0
-0.594958 0.351784 -0.034005 255 252 250 0 0
-0.598953 0.355851 -0.041209 255 253 255 0 0
-0.589419 0.332792 -0.051127 255 252 251 0 0
-0.616113 0.351467 -0.018398 255 252 253 0 0
-0.551303 0.508172 0.322425 254 253 245 1 3
-0.525937 0.508276 0.307132 255 252 241 1 3
-0.566637 0.494553 0.492625 238 239 233 1 3
-0.553555 0.483744 0.497913 238 239 233 1 3
-0.536040 0.485949 0.497862 222 223 217 1 3
-0.712362 0.452688 -0.119633 254 254 254 1 3
-0.621052 0.521710 -0.049899 255 253 235 1 3
-0.634380 0.521217 -0.032059 255 253 241 1 3
-0.706721 0.300604 -0.056841 255 253 255 0 0
0.086289 0.514702 0.016128 248 223 171 1 3
-0.323619 0.509929 0.406080 254 252 223 1 3
-0.309323 0.510626 0.420248 255 251 224 1 3
0.084886 0.502898 0.295316 252 226 187 1 3
0.054569 0.503388 0.315143 251 227 191 1 3
-0.590656 0.506905 0.320673 255 253 247 1 3
-0.596744 0.510206 0.303885 255 252 241 1 3
-0.564287 0.508026 0.314766 255 253 242 1 3
-0.625730 0.503828 0.451203 253 253 254 1 3
-0.637935 0.505023 0.440790 254 253 254 1 3
-0.646049 0.504333 0.431206 254 253 255 1 3
-0.262209 0.511578 0.142878 255 246 224 1 3
-0.301484 0.512146 0.165878 254 248 218 1 3
-0.045625 0.507772 0.261878 255 232 199 1 3
-0.185214 0.517181 0.457721 251 247 207 1 3
-0.212034 0.517356 0.461282 252 247 218 1 3
-0.206903 0.518978 0.445829 254 250 207 1 3
-0.203953 0.516782 0.437842 253 246 215 1 3
-0.219228 0.514903 0.438150 254 246 218 1 3
-0.635546 0.516761 0.106128 254 253 248 1 3
-0.611754 0.517602 0.070441 253 252 247 1 3
-0.631720 0.348465 -0.017984 255 253 255 0 0
-0.541582 0.429888 -0.050685 255 253 251 7 2
-0.718367 0.311669 -0.021547 255 253 254 0 0
-0.706220 0.307705 -0.039132 255 252 254 0 0
-0.724806 0.318479 -0.020558 255 253 254 0 0
-0.650899 0.514887 0.194283 255 252 245 1 3
-0.584318 0.516354 0.089158 254 252 247 1 3
-0.099571 0.513999 0.099878 251 232 184 1 3
-0.103206 0.513901 0.081253 252 232 203 1 3
-0.694666 0.251702 -0.109293 255 253 254 0 0
-0.544764 0.280399 -0.058775 251 241 236 7 2
-0.527462 0.274719 -0.060194 254 252 248 7 2
-0.545577 0.261166 -0.064481 254 254 255 7 2
-0.570032 0.505784 0.335790 255 255 246 1 3
-0.419478 0.504810 0.389258 255 253 231 1 3
-0.447684 0.504609 0.392176 255 253 231 1 3
-0.168969 0.515682 0.418653 253 242 213 1 3
-0.161707 0.516748 0.434569 254 244 207 1 3
-0.168263 0.515815 0.408607 254 244 214 1 3
-0.687170 0.270887 -0.097430 254 252 253 0 0
-0.688101 0.281780 -0.088147 255 252 254 0 0
-0.516655 0.509689 0.286878 255 252 240 1 3
-0.535148 0.453413 -0.050128 255 253 252 7 2
-0.533390 0.513683 -0.046149 255 251 249 7 2
-0.546464 0.497795 -0.048970 255 254 249 7 2
-0.544857 0.358879 -0.053080 254 247 250 7 2
-0.555728 0.408261 -0.052792 249 232 232 7 2
-0.545796 0.404009 -0.049922 249 234 229 7 2
-0.677799 0.515668 0.159628 254 253 249 1 3
-0.692750 0.516429 0.144378 255 252 250 1 3
-0.063943 0.506252 0.339002 254 238 194 1 3
-0.063943 0.505890 0.359177 254 237 190 1 3
-0.138139 0.507921 0.354498 255 241 203 1 3
-0.549814 0.305214 -0.054818 243 228 226 7 2
-0.569973 0.298270 -0.061942 255 249 252 7 2
-0.554870 0.294166 -0.057220 239 220 222 7 2
0.052947 0.515614 -0.009872 251 221 197 1 3
0.056676 0.517010 -0.039822 239 217 172 1 3
0.063548 0.515331 -0.046626 217 188 146 1 3
-0.663271 0.517460 0.077878 254 253 249 1 3
-0.028253 0.504590 0.356616 254 233 201 1 3
-0.102572 0.512950 0.139941 252 232 202 1 3
-0.205675 0.339368 -0.058580 181 162 166 7 2
-0.537057 0.514852 0.165878 255 254 239 1 3
-0.536421 0.515142 0.136845 255 253 240 1 3
-0.524463 0.514361 0.173877 255 255 238 1 3
-0.176675 0.510949 0.211877 255 241 206 1 3
-0.208284 0.510337 0.343127 255 246 217 1 3
-0.195175 0.509978 0.316378 253 245 219 1 3
-0.211328 0.509496 0.285562 254 246 210 1 3
0.003511 0.514425 0.061002 252 229 181 1 3
-0.119287 0.518476 0.436252 253 240 195 1 3
-0.130177 0.516097 0.437580 253 240 195 1 3
-0.153983 0.519417 0.430909 252 241 211 1 3
-0.140915 0.513793 0.438328 239 225 204 1 3
-0.156940 0.507458 0.440426 246 236 201 1 3
0.082594 0.509360 0.164598 247 219 181 1 3
0.056173 0.514087 0.040877 249 218 180 1 3
-0.342118 0.507991 0.413460 255 252 225 1 3
-0.361179 0.507431 0.403535 255 252 227 1 3
-0.454460 0.511676 0.219378 255 254 234 1 3
-0.512008 0.511505 0.233065 255 253 242 1 3
-0.309199 0.514147 0.113627 254 248 222 1 3
-0.466674 0.504642 0.425011 255 251 239 1 3
-0.574406 0.512553 -0.051472 255 250 225 7 2
-0.583860 0.501673 -0.060543 255 250 223 7 2
-0.594070 0.508604 -0.073590 252 243 228 1 3
-0.453944 0.273876 -0.061410 255 253 252 7 2
-0.746175 0.247770 -0.107877 254 251 255 0 0
-0.766672 0.242367 -0.110574 255 251 255 0 0
-0.416317 0.499011 0.491143 253 252 232 1 3
-0.425682 0.503414 0.480821 253 252 232 1 3
-0.422319 0.505673 0.466868 255 253 236 1 3
-0.405322 0.502955 0.471972 255 252 238 1 3
-0.410037 0.503057 0.478989 255 251 233 1 3
-0.439915 0.501997 0.490157 245 247 228 1 3
-0.440355 0.521905 -0.034326 254 250 229 1 3
-0.797512 0.513574 -0.089194 254 254 254 1 3
-0.033854 0.506414 0.311378 251 230 199 1 3
-0.002417 0.505745 0.277315 255 234 194 1 3
-0.010049 0.506389 0.294940 253 231 194 1 3
-0.136867 0.510741 0.252028 254 238 206 1 3
-0.144375 0.510971 0.231627 254 237 204 1 3
0.118059 0.499833 -0.051625 220 199 180 7 2
-0.334048 0.508669 0.257190 255 250 226 1 3
-0.361328 0.510105 0.227066 254 250 225 1 3
-0.325758 0.509065 0.236384 254 251 227 1 3
-0.525221 0.516828 0.089784 255 253 239 1 3
-0.506603 0.516294 0.102877 255 253 238 1 3
0.033868 0.503636 0.303128 250 229 187 1 3
-0.596885 0.517807 -0.053445 254 252 231 7 2
-0.597719 0.521368 -0.039121 255 253 239 1 3
-0.581688 0.521092 -0.034274 255 254 238 1 3
-0.778753 0.510519 -0.081827 255 253 254 1 3
-0.247689 0.515955 0.023878 255 244 212 1 3
-0.242495 0.517810 0.002264 255 245 213 1 3
-0.639779 0.518682 -0.070894 254 254 233 1 3
-0.665664 0.520296 -0.053086 254 254 245 1 3
0.067463 0.370923 -0.055838 169 140 153 7 2
0.043759 0.338978 -0.058159 165 143 139 7 2
-0.659060 0.517158 0.112128 254 253 248 1 3
-0.321477 0.290956 -0.060731 205 194 172 7 2
-0.545490 0.512033 0.223377 255 252 244 1 3
-0.550955 0.510839 0.253003 255 254 241 1 3
-0.582078 0.512695 0.218377 255 253 243 1 3
-0.580779 0.491648 0.497549 238 238 233 1 3
-0.272509 0.518232 0.468024 255 249 222 1 3
-0.245762 0.516304 0.456995 255 249 217 1 3
-0.257202 0.518683 0.442268 255 250 216 1 3
-0.404982 0.512986 0.174253 254 253 232 1 3
-0.393402 0.513724 0.157912 255 253 227 1 3
-0.464716 0.507607 0.325816 255 253 236 1 3
-0.222203 0.444255 -0.051519 255 251 252 7 2
-0.210546 0.426627 -0.052613 253 249 246 7 2
-0.650169 0.517828 -0.112951 249 224 196 1 3
-0.672110 0.518158 -0.124842 248 218 200 1 3
-0.644686 0.509509 -0.125796 235 210 193 1 3
-0.634663 0.513878 -0.110813 249 224 190 1 3
-0.197308 0.513531 0.110628 253 239 205 1 3
-0.660271 0.513588 -0.129502 198 171 159 1 3
-0.146466 0.356805 -0.057813 176 158 158 7 2
-0.160934 0.350914 -0.057947 182 160 164 7 2
-0.801198 0.276043 -0.081917 255 252 255 0 0
-0.838220 0.267129 -0.087537 255 252 254 0 0
-0.020349 0.508949 0.227252 255 231 204 1 3
0.000509 0.508906 0.211877 251 232 170 1 3
-0.331211 0.506131 0.334867 255 249 227 1 3
-0.190016 0.498017 -0.050662 254 253 253 7 2
-0.424401 0.510159 0.260563 255 253 231 1 3
-0.427028 0.510771 0.239377 253 253 231 1 3
-0.126432 0.512249 0.159503 253 234 212 1 3
-0.120598 0.513151 0.139877 252 237 199 1 3
-0.143903 0.512633 0.166461 252 235 204 1 3
-0.258629 0.509759 0.384588 255 248 220 1 3
-0.254944 0.510768 0.392860 255 248 226 1 3
-0.613684 0.519230 0.025191 254 253 243 1 3
-0.705161 0.320868 -0.018369 253 254 255 0 0
-0.673363 0.325544 -0.016747 255 252 255 0 0
-0.277003 0.508831 0.237378 254 249 224 1 3
-0.306218 0.509805 0.219441 255 247 218 1 3
-0.548194 0.514196 0.178503 255 254 240 1 3
-0.559026 0.513403 0.202878 255 253 243 1 3
-0.680604 0.519738 -0.007122 254 253 250 1 3
-0.630191 0.520122 -0.001247 255 253 241 1 3
-0.483241 0.503644 0.403491 255 253 243 1 3
-0.482244 0.504485 0.421118 255 252 240 1 3
-0.491193 0.506639 0.429227 255 253 241 1 3
-0.205281 0.515245 0.037878 255 241 208 1 3
-0.360947 0.508679 0.253128 255 251 229 1 3
-0.105324 0.516117 0.019628 252 234 200 1 3
-0.353511 0.413742 -0.054060 255 253 253 7 2
-0.054527 0.500900 0.390602 255 235 205 1 3
-0.074973 0.504611 0.388008 255 239 201 1 3
-0.245555 0.441015 -0.052069 255 253 255 7 2
-0.275214 0.434410 -0.052548 255 253 255 7 2
-0.269373 0.464937 -0.050837 255 255 254 7 2
-0.088320 0.516968 -0.021122 254 239 196 1 3
-0.094155 0.518405 -0.040857 244 222 194 1 3
-0.101411 0.515990 -0.046323 232 202 171 1 3
-0.097647 0.507673 -0.050391 229 203 168 7 2
-0.421368 0.519104 0.043378 254 251 231 1 3
-0.376530 0.518224 0.062878 255 252 226 1 3
-0.399394 0.517515 0.073816 255 252 229 1 3
-0.827483 0.282560 -0.068239 255 253 253 0 0
-0.017869 0.458792 -0.050487 254 255 254 7 2
-0.375974 0.507892 0.278082 254 252 228 1 3
-0.364322 0.508532 0.284625 254 251 225 1 3
-0.781389 0.518795 0.121698 255 255 255 1 3
-0.774381 0.278497 -0.080808 255 253 255 0 0
-0.319812 0.514324 0.129878 254 248 219 1 3
-0.292153 0.512976 0.132878 255 246 220 1 3
-0.045539 0.369436 -0.056466 176 161 152 7 2
-0.022367 0.346467 -0.058209 160 135 139 7 2
-0.104140 0.509547 0.402349 254 239 203 1 3
-0.090784 0.504010 0.386256 255 240 201 1 3
-0.096709 0.506687 0.359475 255 240 199 1 3
-0.124724 0.514142 0.090878 254 238 201 1 3
-0.682316 0.519288 0.036378 254 252 251 1 3
-0.692420 0.519751 0.013878 255 254 255 1 3
-0.640937 0.268965 -0.103314 255 253 254 0 0
-0.665110 0.267345 -0.101401 255 253 254 0 0
-0.662467 0.256464 -0.108265 255 253 254 0 0
-0.038103 0.468687 -0.049589 255 254 251 7 2
-0.244568 0.516346 0.470036 252 246 218 1 3
-0.253475 0.515936 0.483533 251 243 215 1 3
-0.222270 0.513608 0.486362 239 234 197 1 3
-0.282691 0.511528 0.167940 255 248 218 1 3
-0.549727 0.498923 0.481616 253 254 248 1 3
-0.561807 0.500845 0.470438 253 254 247 1 3
-0.546052 0.500764 0.466038 253 255 246 1 3
-0.539217 0.500288 0.482527 250 251 245 1 3
-0.546672 0.492186 0.493214 250 251 245 1 3
-0.520202 0.501431 0.470072 253 254 247 1 3
-0.079220 0.516492 -0.008372 253 236 200 1 3
-0.111641 0.517619 -0.013997 253 236 199 1 3
-0.117256 0.321112 -0.059908 159 151 127 7 2
0.061363 0.513495 0.083378 247 220 174 1 3
0.078190 0.514439 0.062017 247 219 190 1 3
0.088453 0.514052 0.043878 249 219 172 1 3
-0.089343 0.511777 0.443089 246 231 197 1 3
-0.119930 0.511658 0.442263 250 234 205 1 3
0.075938 0.470984 -0.049753 254 246 242 7 2
0.106827 0.456795 -0.049966 254 254 242 7 2
-0.381073 0.506318 0.399059 255 252 229 1 3
-0.062805 0.372272 -0.056358 175 151 149 7 2
-0.068746 0.336039 -0.058939 172 143 146 7 2
-0.323267 0.403847 -0.054686 245 228 228 7 2
-0.293990 0.349961 -0.057929 234 216 217 7 2
-0.756557 0.517702 0.086878 254 253 254 1 3
-0.781513 0.518362 0.080658 255 255 255 1 3
0.087007 0.511337 0.129459 246 221 174 1 3
0.075309 0.510030 0.145596 247 221 174 1 3
0.059184 0.510309 0.145878 250 222 182 1 3
-0.639941 0.326828 -0.015549 255 253 254 0 0
-0.624653 0.329158 -0.014605 255 253 254 0 0
-0.621424 0.321671 -0.017325 255 253 254 0 0
-0.786411 0.310153 -0.018229 255 253 254 0 0
-0.833999 0.308550 -0.022724 255 253 254 0 0
-0.823024 0.303239 -0.022376 255 253 254 0 0
-0.827041 0.300029 -0.025771 255 253 254 0 0
-0.814216 0.317819 -0.021074 255 253 254 0 0
-0.390116 0.427364 -0.052224 255 254 253 7 2
-0.116582 0.507363 0.359411 255 239 211 1 3
-0.125589 0.507211 0.332739 255 242 199 1 3
-0.718027 0.281020 -0.085070 255 253 254 0 0
-0.728058 0.269411 -0.094427 254 253 254 0 0
-0.543998 0.520589 -0.011622 255 253 239 1 3
-0.744533 0.519125 0.154906 255 255 255 1 3
-0.380404 0.512032 0.202628 255 253 233 1 3
-0.432412 0.512729 0.196198 255 253 233 1 3
-0.092489 0.513582 0.069878 251 233 195 1 3
-0.116216 0.514511 0.063377 251 236 193 1 3
-0.100713 0.515299 0.049878 251 233 198 1 3
-0.193691 0.519039 0.478361 238 230 202 1 3
-0.202614 0.517632 0.468099 246 242 196 1 3
-0.192772 0.518759 0.468596 250 246 211 1 3
-0.205939 0.513994 0.488358 239 232 202 1 3
-0.330981 0.519710 -0.015872 255 251 225 1 3
-0.320748 0.518447 0.001752 255 252 223 1 3
-0.049901 0.514341 0.424562 222 206 172 1 3
-0.028765 0.513644 0.413031 247 228 196 1 3
-0.051072 0.514469 0.415609 252 233 198 1 3
-0.060573 0.502234 0.402588 254 236 192 1 3
-0.034604 0.502188 0.404660 253 236 192 1 3
-0.042492 0.512005 0.410107 254 236 196 1 3
-0.022562 0.513976 0.424873 189 178 141 1 3
-0.039557 0.511175 0.430722 222 208 160 1 3
-0.314415 0.493846 0.493667 224 221 199 1 3
-0.348937 0.493444 0.493827 223 221 200 1 3
-0.804662 0.251818 -0.103173 255 251 255 0 0
-0.824679 0.248765 -0.102605 255 253 254 0 0
-0.515370 0.375484 -0.054473 255 254 255 7 2
-0.720759 0.259459 -0.102643 255 253 254 0 0
-0.714828 0.239261 -0.113750 255 252 255 0 0
-0.068523 0.515169 0.057878 252 228 206 1 3
-0.076707 0.516497 0.009378 253 232 196 1 3
-0.051029 0.515310 0.037742 253 232 191 1 3
-0.078227 0.514810 0.041191 252 231 196 1 3
-0.016813 0.511738 0.138753 252 228 182 1 3
-0.010576 0.513928 0.102128 250 228 189 1 3
-0.616726 0.507785 0.320364 255 254 243 1 3
-0.387214 0.505674 0.408583 255 253 231 1 3
-0.373126 0.506381 0.415908 255 252 230 1 3
-0.399424 0.506631 0.425004 255 252 232 1 3
-0.399065 0.505972 0.392889 255 253 230 1 3
-0.399693 0.507845 0.436525 255 252 235 1 3
-0.375580 0.505968 0.429106 255 253 231 1 3
-0.098802 0.518537 0.432258 253 238 194 1 3
-0.101330 0.517423 0.418261 254 241 199 1 3
-0.090443 0.516701 0.410473 254 239 204 1 3
-0.122268 0.508875 0.402137 255 240 212 1 3
0.079052 0.339768 -0.058156 153 140 125 7 2
-0.370822 0.511746 0.188877 254 254 227 1 3
-0.387879 0.449214 -0.051359 255 254 255 7 2
-0.343732 0.517197 0.051708 255 251 223 1 3
-0.318190 0.518025 0.037878 254 250 225 1 3
-0.338865 0.516995 0.066301 255 250 221 1 3
-0.732623 0.519586 0.190878 255 255 255 1 3
-0.466965 0.512862 0.197878 255 253 236 1 3
-0.472529 0.513183 0.170377 255 254 236 1 3
0.010963 0.502726 0.349586 254 231 201 1 3
-0.009087 0.503750 0.345883 253 233 194 1 3
-0.020938 0.502495 0.371878 253 234 198 1 3
-0.385565 0.520806 -0.040808 254 246 215 1 3
-0.389369 0.498116 -0.049948 255 254 252 7 2
-0.629226 0.505810 0.348752 254 254 250 1 3
-0.608689 0.505366 0.357471 254 254 246 1 3
-0.172013 0.514423 0.067878 253 238 198 1 3
-0.156070 0.514630 0.064249 252 237 194 1 3
-0.167168 0.513771 0.103628 254 238 202 1 3
-0.601726 0.520255 -0.010434 255 253 239 1 3
0.030155 0.509993 0.158089 249 225 180 1 3
-0.675914 0.507101 0.379129 254 253 255 1 3
-0.676637 0.506895 0.388718 254 253 255 1 3
-0.150049 0.390062 -0.055408 226 204 200 7 2
-0.138178 0.407022 -0.054060 229 209 207 7 2
-0.672716 0.506570 0.408903 254 253 255 1 3
-0.188643 0.515702 0.048690 254 240 201 1 3
-0.202284 0.515438 0.058878 255 242 211 1 3
-0.755398 0.306368 -0.026680 255 253 254 0 0
-0.812961 0.296388 -0.042476 255 253 254 0 0
-0.793023 0.303225 -0.021053 255 253 254 0 0
-0.792464 0.324098 -0.020829 255 253 255 0 0
-0.064145 0.458993 -0.049856 253 255 254 7 2
-0.692531 0.522126 -0.085057 253 254 248 1 3
-0.658641 0.519125 -0.076323 254 253 240 1 3
-0.677543 0.521402 -0.074057 254 253 252 1 3
-0.684288 0.519534 -0.064985 254 252 253 1 3
-0.531065 0.511288 0.242503 255 252 239 1 3
-0.509825 0.512863 0.198441 255 253 237 1 3
-0.554037 0.447471 -0.053081 250 237 229 7 2
-0.607909 0.494612 0.497339 238 238 240 1 3
-0.694948 0.510078 0.315356 255 251 249 1 3
-0.661465 0.358673 -0.029729 255 254 254 0 0
-0.667045 0.350708 -0.021093 255 253 254 0 0
-0.676859 0.362697 -0.033055 254 252 255 0 0
-0.406598 0.474616 -0.050017 255 254 253 7 2
-0.842747 0.248275 -0.102183 255 251 255 0 0
-0.861278 0.259674 -0.091769 255 252 255 0 0
-0.339570 0.506545 0.355327 255 251 225 1 3
-0.349539 0.506515 0.329906 255 251 225 1 3
-0.648579 0.505223 0.400100 254 254 251 1 3
-0.645679 0.504564 0.422315 254 253 255 1 3
-0.732002 0.290068 -0.072504 255 253 254 0 0
-0.740119 0.296513 -0.060629 255 253 254 0 0
-0.707574 0.290426 -0.074664 255 253 254 0 0
-0.796494 0.491881 -0.115541 254 254 254 1 3
-0.690422 0.520024 -0.125880 248 234 227 1 3
-0.684722 0.517666 -0.138343 241 211 194 1 3
-0.671648 0.513821 -0.135220 235 213 203 1 3
-0.693863 0.493013 -0.130392 207 190 172 1 3
0.059977 0.504090 0.291425 250 222 189 1 3
0.121805 0.503552 0.288769 249 224 184 1 3
0.099660 0.503094 0.277878 251 224 187 1 3
-0.610111 0.515254 0.151566 254 252 245 1 3
-0.633020 0.516041 0.136284 254 253 247 1 3
-0.452870 0.517479 0.091128 254 252 235 1 3
-0.372592 0.282415 -0.060806 230 207 208 7 2
-0.105920 0.510824 0.226878 254 236 199 1 3
-0.087596 0.509819 0.220556 252 236 202 1 3
-0.111240 0.511092 0.209128 252 237 199 1 3
0.081416 0.516428 -0.010247 249 225 183 1 3
0.057622 0.515605 0.017878 248 223 189 1 3
-0.855049 0.281465 -0.063890 255 253 254 0 0
-0.723893 0.515154 0.247954 255 250 250 1 3
-0.723096 0.514624 0.264878 255 252 252 1 3
-0.013175 0.512955 0.423141 190 174 147 1 3
0.000382 0.513840 0.414242 236 218 183 1 3
-0.005399 0.508866 0.426762 127 117 97 1 3
-0.119197 0.517609 -0.041767 249 232 203 1 3
-0.132347 0.517312 -0.018622 253 237 208 1 3
-0.144589 0.518165 -0.040805 255 240 197 1 3
-0.126950 0.515638 -0.047216 238 213 177 1 3
-0.443010 0.519335 0.057441 254 252 236 1 3
-0.500503 0.509079 0.290878 255 253 240 1 3
-0.292960 0.510990 0.401996 255 251 218 1 3
-0.475518 0.504926 0.461071 254 254 243 1 3
-0.494251 0.502798 0.466333 253 254 243 1 3
-0.485277 0.505335 0.477784 253 255 244 1 3
-0.501819 0.501245 0.475358 253 255 244 1 3
-0.508162 0.502534 0.488752 238 239 233 1 3
-0.482340 0.500809 0.492817 238 239 232 1 3
-0.429314 0.515784 0.122378 255 252 232 1 3
-0.531140 0.503503 0.367455 255 255 245 1 3
-0.523137 0.503470 0.379868 255 254 244 1 3
-0.700856 0.516213 0.188300 255 252 250 1 3
-0.186474 0.514527 0.091503 253 239 203 1 3
-0.212643 0.513542 0.111878 255 240 209 1 3
-0.207804 0.515156 0.083068 255 239 214 1 3
-0.676176 0.288865 -0.081458 255 252 254 0 0
-0.665729 0.279855 -0.092056 255 253 254 0 0
-0.666067 0.312023 -0.041422 255 253 255 0 0
-0.105547 0.508246 0.310575 254 236 213 1 3
-0.127267 0.508789 0.296864 254 239 198 1 3
-0.086525 0.506781 0.281775 255 239 196 1 3
-0.805829 0.477892 -0.086032 255 253 254 1 3
-0.801206 0.477658 -0.100350 251 248 250 1 3
-0.796109 0.471961 -0.106843 245 246 245 1 3
-0.041346 0.512399 -0.050116 217 195 169 7 2
-0.053872 0.502228 -0.050951 242 221 210 7 2
-0.031475 0.500196 -0.051314 241 222 208 7 2
-0.003633 0.516695 0.010128 252 232 191 1 3
-0.533558 0.516029 0.126087 255 253 240 1 3
-0.562593 0.516252 0.122566 255 252 245 1 3
-0.152256 0.518852 0.421085 255 242 207 1 3
-0.643117 0.314781 -0.038107 255 253 254 0 0
-0.645892 0.318053 -0.022486 255 253 254 0 0
-0.607566 0.319810 -0.035967 255 253 254 0 0
-0.600352 0.325203 -0.023625 255 252 253 0 0
-0.592978 0.338911 -0.023933 255 252 252 0 0
-0.595404 0.319831 -0.045180 255 252 253 0 0
-0.128564 0.507754 -0.050316 234 213 195 7 2
-0.458284 0.291996 -0.059421 255 253 255 7 2
-0.444977 0.311533 -0.058241 255 252 252 7 2
-0.479129 0.511398 0.233878 255 253 237 1 3
-0.478503 0.512620 0.213878 255 253 237 1 3
0.108487 0.514782 0.001878 250 221 191 1 3
0.109679 0.514929 0.014503 248 222 183 1 3
-0.676274 0.514414 0.239878 255 252 248 1 3
-0.663695 0.514318 0.213878 255 252 248 1 3
-0.646182 0.513542 0.241965 255 252 250 1 3
-0.633485 0.504048 0.405208 254 254 250 1 3
-0.618136 0.504447 0.413766 254 254 249 1 3
-0.527164 0.493423 0.493433 222 223 217 1 3
-0.506708 0.487148 0.496839 222 223 217 1 3
-0.522586 0.481431 0.497877 222 223 217 1 3
-0.577770 0.389589 -0.065518 240 221 209 7 2
-0.570353 0.404270 -0.059735 245 226 223 7 2
-0.575201 0.410868 -0.066152 240 223 206 7 2
-0.599225 0.503372 0.426996 254 255 248 1 3
-0.844844 0.286360 -0.058596 255 253 254 0 0
-0.846436 0.302114 -0.023017 255 253 254 0 0
-0.835592 0.292746 -0.042921 255 253 254 0 0
-0.863346 0.295655 -0.027142 255 253 254 0 0
-0.847417 0.296577 -0.026622 255 253 254 0 0
-0.307850 0.332942 -0.058580 221 200 204 7 2
-0.604403 0.312780 -0.056223 255 253 254 0 0
-0.649799 0.305020 -0.061575 255 253 254 0 0
-0.628874 0.313102 -0.049824 255 253 254 0 0
-0.642972 0.349606 -0.069725 255 255 255 0 0
-0.627195 0.348164 -0.070524 255 254 255 0 0
-0.722161 0.514436 0.291602 255 251 249 1 3
-0.713012 0.512727 0.305892 255 251 249 1 3
-0.471427 0.383396 -0.054039 255 254 254 7 2
-0.470265 0.438840 -0.051121 255 254 254 7 2
0.034105 0.507642 0.229854 249 223 189 1 3
-0.759640 0.342059 -0.028446 255 253 254 0 0
-0.751540 0.349507 -0.034442 254 254 253 0 0
-0.768574 0.347113 -0.036308 254 253 254 0 0
-0.740431 0.341805 -0.025589 255 252 254 0 0
-0.780792 0.332589 -0.025501 255 252 255 0 0
-0.733219 0.324664 -0.021279 255 254 255 0 0
-0.765886 0.333547 -0.025321 254 253 254 0 0
-0.770992 0.315596 -0.021241 255 254 254 0 0
-0.766759 0.519098 -0.008123 255 255 255 1 3
-0.782616 0.519228 0.013503 255 255 255 1 3
-0.343592 0.310285 -0.059545 230 205 202 7 2
-0.338116 0.276284 -0.061458 231 208 216 7 2
-0.101326 0.507988 0.278007 253 237 199 1 3
-0.124500 0.508703 0.266476 255 238 205 1 3
-0.079897 0.508710 0.262378 251 238 198 1 3
-0.103030 0.509839 0.250628 251 241 183 1 3
-0.120199 0.510598 0.246036 253 236 203 1 3
-0.279109 0.320777 -0.059660 190 184 163 7 2
-0.237014 0.511030 0.169878 255 246 204 1 3
-0.247962 0.510529 0.188945 254 247 204 1 3
-0.229176 0.511071 0.202837 255 246 210 1 3
-0.395835 0.506347 0.453053 255 251 236 1 3
-0.411044 0.504688 0.445536 255 251 236 1 3
-0.379379 0.509001 0.440132 255 252 233 1 3
0.014756 0.504595 0.293311 253 230 200 1 3
-0.642441 0.512528 0.297104 255 252 246 1 3
-0.623269 0.511612 0.301903 255 252 244 1 3
-0.619261 0.512494 0.275877 255 251 245 1 3
-0.717229 0.516619 0.214877 255 255 255 1 3
-0.707967 0.514601 0.237877 255 251 251 1 3
-0.506020 0.518520 0.055878 254 253 237 1 3
-0.473631 0.518417 0.064378 255 253 239 1 3
-0.696628 0.254846 -0.168559 104 85 81 7 5
-0.689279 0.513627 0.292950 255 250 250 1 3
-0.664649 0.519795 -0.107145 252 235 214 1 3
-0.664797 0.521559 -0.095180 253 253 232 1 3
-0.288713 0.467178 -0.050665 254 254 254 7 2
-0.301933 0.453003 -0.051720 255 255 255 7 2
-0.100761 0.506852 0.342295 253 239 200 1 3
-0.063731 0.507023 0.308607 254 236 207 1 3
0.080668 0.503903 0.273021 250 227 183 1 3
0.096805 0.504673 0.254505 250 223 182 1 3
-0.699174 0.514047 0.265628 255 251 248 1 3
-0.666747 0.513464 0.261533 255 253 247 1 3
-0.682718 0.513540 0.252378 255 251 248 1 3
-0.843606 0.236597 -0.109613 255 252 255 0 0
-0.068967 0.509819 0.229378 252 233 206 1 3
-0.058502 0.510514 0.216106 250 234 205 1 3
-0.512295 0.333646 -0.057085 253 250 250 7 2
0.025819 0.508666 0.207452 252 228 191 1 3
0.040593 0.510206 0.172878 252 222 193 1 3
-0.597174 0.502713 0.394426 254 254 250 1 3
-0.089651 0.507979 0.322093 254 237 206 1 3
-0.128159 0.509185 0.315850 254 241 205 1 3
-0.170739 0.514133 0.457579 248 239 210 1 3
-0.168670 0.514853 0.440175 252 245 213 1 3
-0.427457 0.521131 -0.001498 255 253 237 1 3
0.072584 0.507758 0.184301 248 221 188 1 3
-0.334528 0.515622 0.103878 255 249 222 1 3
-0.348111 0.515702 0.084878 255 249 224 1 3
-0.294530 0.517742 0.026878 255 248 219 1 3
-0.251314 0.508372 0.251878 255 246 216 1 3
-0.232879 0.509955 0.242877 255 244 213 1 3
-0.539481 0.505256 0.349007 255 253 241 1 3
-0.504294 0.505060 0.366943 254 253 242 1 3
-0.513673 0.505749 0.347215 255 254 242 1 3
-0.177366 0.511129 0.471761 223 214 188 1 3
-0.184492 0.510899 0.486001 223 214 186 1 3
-0.172398 0.510138 0.479285 191 185 148 1 3
-0.298820 0.508193 0.240836 255 248 221 1 3
0.002508 0.504239 0.318878 253 234 190 1 3
-0.744702 0.519709 -0.036123 255 254 254 1 3
0.044732 0.511593 -0.049967 213 187 146 7 2
-0.403890 0.510666 0.241878 253 253 230 1 3
-0.080779 0.514980 0.091717 254 231 195 1 3
-0.115856 0.382926 -0.055390 209 186 191 7 2
-0.099322 0.362787 -0.056837 178 163 158 7 2
-0.228105 0.514169 0.060878 255 241 210 1 3
-0.309345 0.512799 0.148378 255 248 219 1 3
-0.328482 0.513110 0.151128 255 248 219 1 3
-0.122374 0.505589 0.387377 254 240 209 1 3
-0.141699 0.506389 0.377478 254 240 206 1 3
-0.162060 0.510386 0.377522 255 240 211 1 3
-0.147022 0.510630 0.400702 255 241 217 1 3
-0.584335 0.257399 -0.079268 251 249 250 7 2
0.080564 0.499776 0.391729 251 226 192 1 3
0.097087 0.496203 0.398522 249 223 195 1 3
0.038915 0.515405 0.020878 250 226 171 1 3
0.028065 0.514604 0.039878 247 226 172 1 3
-0.481353 0.520123 0.032148 255 253 237 1 3
-0.553651 0.519666 0.016878 255 254 239 1 3
-0.570927 0.520203 -0.003747 255 253 239 1 3
-0.009593 0.508106 0.246253 251 229 193 1 3
-0.314489 0.508115 0.270944 255 250 222 1 3
-0.341893 0.508036 0.275627 255 250 224 1 3
-0.591778 0.518882 0.045878 255 253 240 1 3
0.047726 0.500421 0.384927 252 232 180 1 3
0.071650 0.499287 0.388227 252 227 193 1 3
0.050926 0.497299 0.393635 251 232 190 1 3
0.060800 0.500989 0.366022 251 230 186 1 3
0.047480 0.514538 0.050409 250 220 183 1 3
0.017506 0.514614 0.070628 249 221 184 1 3
-0.683754 0.310259 -0.038596 255 253 255 0 0
-0.690933 0.317457 -0.017915 255 252 255 0 0
-0.683075 0.314886 -0.022169 255 253 255 0 0
-0.707173 0.311391 -0.023070 255 253 255 0 0
-0.578952 0.511655 0.265877 255 253 244 1 3
-0.484393 0.326008 -0.057508 255 254 255 7 2
-0.266625 0.507659 0.312826 255 250 222 1 3
-0.208989 0.509873 0.233628 255 245 213 1 3
-0.210820 0.510546 0.213377 254 242 208 1 3
-0.187948 0.510583 0.226377 254 242 213 1 3
-0.378116 0.516573 0.089378 255 250 228 1 3
-0.528174 0.323096 -0.057151 254 246 248 7 2
-0.524536 0.305369 -0.058129 253 246 247 7 2
-0.624097 0.262873 -0.108706 254 253 254 0 0
-0.633581 0.245559 -0.116138 255 253 254 0 0
-0.555581 0.270890 -0.062959 255 254 254 7 2
-0.578465 0.262727 -0.073083 255 253 255 7 2
-0.105072 0.511346 0.184378 254 235 199 1 3
-0.132302 0.509710 0.283877 255 238 206 1 3
-0.147846 0.509695 0.296457 255 243 192 1 3
-0.419110 0.505657 0.352571 255 253 233 1 3
-0.478917 0.507972 0.303877 255 253 237 1 3
-0.489783 0.506397 0.351531 255 252 237 1 3
-0.416015 0.521965 -0.036180 254 253 228 1 3
-0.440707 0.508386 -0.048406 255 254 253 7 2
-0.429369 0.488510 -0.049752 255 254 253 7 2
-0.418762 0.507949 -0.050009 255 255 251 7 2
-0.392783 0.517256 -0.046124 249 231 197 7 2
-0.436813 0.517295 -0.045832 254 246 234 7 2
-0.205625 0.460814 -0.050472 255 255 254 7 2
-0.271540 0.511425 0.489156 251 245 214 1 3
-0.277223 0.512808 0.486061 253 248 219 1 3
-0.262747 0.517663 0.473572 255 249 219 1 3
-0.579124 0.501137 0.448536 254 254 249 1 3
-0.553175 0.501486 0.436036 253 255 247 1 3
-0.591613 0.502005 0.439761 253 254 249 1 3
0.046492 0.416141 -0.053384 200 173 173 7 2
-0.602365 0.519156 0.011878 255 253 240 1 3
