ply
format ascii 1.0
element vertex 1038
property float x
property float y
property float z
property uchar red
property uchar green
property uchar blue
property uchar semantic_label
property uchar instance_label
end_header
-1.383832 -2.129157 -0.929192 255 255 0 61 18
-1.223688 -2.140486 -0.861723 255 255 0 61 18
-1.376748 -2.153549 -0.810723 255 255 0 61 18
-1.293029 -2.134840 -0.879723 255 255 0 61 18
-1.396726 -2.146532 -0.807723 255 255 0 61 18
-1.261002 -2.121527 -0.774723 255 255 0 61 18
-1.274982 -2.122079 -0.711723 255 255 0 61 18
-1.235742 -2.117695 -0.747723 255 255 0 61 18
-1.246017 -2.144532 -0.873723 255 255 0 61 18
-1.281790 -2.154110 -0.810723 255 255 0 61 18
-1.207896 -2.138340 -0.816723 255 255 0 61 18
-1.264331 -2.142288 -0.762723 255 255 0 61 18
-1.234941 -2.077994 -0.916324 255 255 0 61 18
-1.389741 -2.152436 -0.813723 255 255 0 61 18
-1.219622 -2.096586 -0.795723 255 255 0 61 18
-1.209303 -2.135583 -0.900723 255 255 0 61 18
-1.238824 -2.081832 -0.786723 255 255 0 61 18
-1.339582 -2.137416 -0.879723 255 255 0 61 18
-1.250165 -2.120764 -0.779052 255 255 0 61 18
-1.343122 -2.139638 -0.852723 255 255 0 61 18
-1.205290 -2.097218 -0.858723 255 255 0 61 18
-1.323809 -2.149784 -0.777723 255 255 0 61 18
-1.203089 -2.159010 -0.825723 255 255 0 61 18
-1.320710 -2.135206 -0.882723 255 255 0 61 18
-1.266454 -2.154105 -0.807199 255 255 0 61 18
-1.276044 -2.141506 -0.831723 255 255 0 61 18
-1.255943 -2.133512 -0.885723 255 255 0 61 18
-1.324865 -2.140328 -0.834723 255 255 0 61 18
-1.218086 -2.078511 -0.855723 255 255 0 61 18
-1.280503 -2.148052 -0.755528 255 255 0 61 18
-1.265358 -2.134526 -0.873723 255 255 0 61 18
-1.279585 -2.143738 -0.813723 255 255 0 61 18
-1.227563 -2.137836 -0.810723 255 255 0 61 18
-1.250824 -2.102221 -0.756723 255 255 0 61 18
-1.403020 -2.132853 -0.891723 255 255 0 61 18
-1.218398 -2.072309 -0.860191 255 255 0 61 18
-1.213402 -2.128577 -0.870723 255 255 0 61 18
-1.254846 -2.142779 -0.801723 255 255 0 61 18
-1.396781 -2.161222 -0.795723 255 255 0 61 18
-1.380832 -2.143903 -0.822723 255 255 0 61 18
-1.226553 -2.147252 -0.801723 255 255 0 61 18
-1.275880 -2.155169 -0.771006 255 255 0 61 18
-1.318840 -2.126409 -0.945723 255 255 0 61 18
-1.214098 -2.131497 -0.852723 255 255 0 61 18
-1.261830 -2.132358 -0.945723 255 255 0 61 18
-1.245420 -2.141722 -0.816723 255 255 0 61 18
-1.200396 -2.152812 -0.873723 255 255 0 61 18
-1.362228 -2.142950 -0.830249 255 255 0 61 18
-1.203980 -2.124446 -0.855723 255 255 0 61 18
-1.218598 -2.130970 -0.804723 255 255 0 61 18
-1.256659 -2.122450 -0.743173 255 255 0 61 18
-1.243786 -2.090746 -0.765723 255 255 0 61 18
-1.235965 -2.148319 -0.786723 255 255 0 61 18
-1.229754 -2.118968 -0.810723 255 255 0 61 18
-1.349370 -2.133415 -0.888723 255 255 0 61 18
-1.227111 -2.091927 -0.813723 255 255 0 61 18
-1.216867 -2.122829 -0.873723 255 255 0 61 18
-1.334262 -2.141247 -0.813723 255 255 0 61 18
-1.256290 -2.091858 -0.734622 255 255 0 61 18
-1.303085 -2.138865 -0.846723 255 255 0 61 18
-1.237110 -2.160342 -0.787325 255 255 0 61 18
-1.282005 -2.126265 -0.733857 255 255 0 61 18
-1.203314 -2.131210 -0.840723 255 255 0 61 18
-1.399443 -2.130455 -0.864723 255 255 0 61 18
-1.310633 -2.110977 -0.732723 255 255 0 61 18
-1.356905 -2.141014 -0.891723 255 255 0 61 18
-1.411916 -2.145846 -0.888723 255 255 0 61 18
-1.239461 -2.092369 -0.912723 255 255 0 61 18
-1.243871 -2.069962 -0.912723 255 255 0 61 18
-1.250648 -2.102258 -0.924723 255 255 0 61 18
-1.267216 -2.143266 -0.798723 255 255 0 61 18
-1.291746 -2.128800 -0.915723 255 255 0 61 18
-1.270891 -2.131693 -0.770146 255 255 0 61 18
-1.386035 -2.139520 -0.843723 255 255 0 61 18
-1.357316 -2.148703 -0.777723 255 255 0 61 18
-1.262426 -2.149585 -0.831723 255 255 0 61 18
-1.254912 -2.150425 -0.771723 255 255 0 61 18
-1.304314 -2.144641 -0.813723 255 255 0 61 18
-1.236139 -2.136014 -0.924723 255 255 0 61 18
-1.221857 -2.105311 -0.792723 255 255 0 61 18
-1.291334 -2.141294 -0.834723 255 255 0 61 18
-1.324665 -2.124951 -0.918723 255 255 0 61 18
-1.368742 -2.141564 -0.900723 255 255 0 61 18
-1.241986 -2.125569 -0.791145 255 255 0 61 18
-1.263250 -2.130250 -0.858723 255 255 0 61 18
-1.270798 -2.097975 -0.729723 255 255 0 61 18
-1.376021 -2.164553 -0.790332 255 255 0 61 18
-1.269025 -2.151778 -0.762723 255 255 0 61 18
-1.213524 -2.143887 -0.834723 255 255 0 61 18
-1.195081 -2.150196 -0.855723 255 255 0 61 18
-1.200025 -2.159024 -0.832537 255 255 0 61 18
-1.393517 -2.139365 -0.930723 255 255 0 61 18
-1.369840 -2.121046 -0.729723 255 255 0 61 18
-1.212446 -2.073168 -0.807723 255 255 0 61 18
-1.211579 -2.141233 -0.807632 255 255 0 61 18
-1.251878 -2.157679 -0.852723 255 255 0 61 18
-1.299459 -2.122555 -0.699723 255 255 0 61 18
-1.312102 -2.152422 -0.768723 255 255 0 61 18
-1.221838 -2.142119 -0.921723 255 255 0 61 18
-1.295430 -2.117276 -0.713079 255 255 0 61 18
-1.217201 -2.075632 -0.870723 255 255 0 61 18
-1.253907 -2.138371 -0.851881 255 255 0 61 18
-1.256600 -2.136602 -0.876723 255 255 0 61 18
-1.265814 -2.093379 -0.942723 255 255 0 61 18
-1.221776 -2.139066 -0.903723 255 255 0 61 18
-1.316595 -2.115844 -0.746065 255 255 0 61 18
-1.196921 -2.141283 -0.855723 255 255 0 61 18
-1.386950 -2.143828 -0.879643 255 255 0 61 18
-1.207230 -2.106350 -0.867723 255 255 0 61 18
-1.224451 -2.086359 -0.784339 255 255 0 61 18
-1.308759 -2.166583 -0.756723 255 255 0 61 18
-1.287576 -2.158818 -0.756723 255 255 0 61 18
-1.260614 -2.141058 -0.861723 255 255 0 61 18
-1.218305 -2.158451 -0.816723 255 255 0 61 18
-1.272700 -2.140202 -0.900723 255 255 0 61 18
-1.382017 -2.149478 -0.852723 255 255 0 61 18
-1.342859 -2.138403 -0.906723 255 255 0 61 18
-1.399161 -2.150434 -0.840723 255 255 0 61 18
-1.323895 -2.135762 -0.964903 255 255 0 61 18
-1.339447 -2.107920 -0.730989 255 255 0 61 18
-1.206337 -2.087715 -0.849723 255 255 0 61 18
-1.274781 -2.164423 -0.753723 255 255 0 61 18
-1.287519 -2.166632 -0.756723 255 255 0 61 18
-1.240731 -2.076375 -0.768723 255 255 0 61 18
-1.230181 -2.142176 -0.837723 255 255 0 61 18
-1.264686 -2.088073 -0.954723 255 255 0 61 18
-1.252731 -2.089547 -0.945677 255 255 0 61 18
-1.343373 -2.140822 -0.845476 255 255 0 61 18
-1.282414 -2.142613 -0.750723 255 255 0 61 18
-1.275257 -2.152235 -0.817832 255 255 0 61 18
-1.214174 -2.162151 -0.795723 255 255 0 61 18
-1.210736 -2.129144 -0.816723 255 255 0 61 18
-1.317587 -2.149371 -0.817406 255 255 0 61 18
-1.368299 -2.142653 -0.759723 255 255 0 61 18
-1.230248 -2.128064 -0.925409 255 255 0 61 18
-1.384016 -2.144453 -0.866912 255 255 0 61 18
-1.314585 -2.149678 -0.831723 255 255 0 61 18
-1.343261 -2.154723 -0.801723 255 255 0 61 18
-1.247487 -2.093729 -0.745839 255 255 0 61 18
-1.259777 -2.137122 -0.847278 255 255 0 61 18
-1.214553 -2.128334 -0.906723 255 255 0 61 18
-1.280270 -2.148101 -0.849723 255 255 0 61 18
-1.214080 -2.146835 -0.897723 255 255 0 61 18
-1.222459 -2.068379 -0.798723 255 255 0 61 18
-1.217301 -2.090945 -0.870723 255 255 0 61 18
-1.339191 -2.135577 -0.842259 255 255 0 61 18
-1.244970 -2.060527 -0.912723 255 255 0 61 18
-1.407181 -2.138000 -0.909723 255 255 0 61 18
-1.260367 -2.155400 -0.792723 255 255 0 61 18
-1.358184 -2.138353 -0.909723 255 255 0 61 18
-1.259595 -2.107405 -0.936723 255 255 0 61 18
-1.267666 -2.145380 -0.738723 255 255 0 61 18
-1.232928 -2.155097 -0.798208 255 255 0 61 18
-1.411415 -2.157926 -0.828723 255 255 0 61 18
-1.270662 -2.134809 -0.945723 255 255 0 61 18
-1.378335 -2.088869 -0.756723 255 255 0 61 18
-1.201471 -2.158717 -0.840723 255 255 0 61 18
-1.327956 -2.144100 -0.873723 255 255 0 61 18
-1.323586 -2.148735 -0.846723 255 255 0 61 18
-1.255744 -2.089291 -0.954723 255 255 0 61 18
-1.320082 -2.161108 -0.838159 255 255 0 61 18
-1.272352 -2.138563 -0.762723 255 255 0 61 18
-1.379625 -2.138225 -0.876723 255 255 0 61 18
-1.324901 -2.141682 -0.744723 255 255 0 61 18
-1.265439 -2.134902 -0.900723 255 255 0 61 18
-1.209903 -2.080250 -0.876723 255 255 0 61 18
-1.244906 -2.139303 -0.927723 255 255 0 61 18
-1.260093 -2.080890 -0.939723 255 255 0 61 18
-1.293730 -2.138135 -0.918723 255 255 0 61 18
-1.222297 -2.114419 -0.894723 255 255 0 61 18
-1.318279 -2.123767 -0.729723 255 255 0 61 18
-1.232582 -2.139047 -0.933723 255 255 0 61 18
-1.256377 -2.128644 -0.759723 255 255 0 61 18
-1.257538 -2.097728 -0.929720 255 255 0 61 18
-1.246670 -2.089885 -0.927723 255 255 0 61 18
-1.230095 -2.079025 -0.900723 255 255 0 61 18
-1.271205 -2.089881 -0.945723 255 255 0 61 18
-1.246531 -2.139938 -0.786723 255 255 0 61 18
-1.214988 -2.094503 -0.846723 255 255 0 61 18
-1.211905 -2.113913 -0.810723 255 255 0 61 18
-1.348618 -2.136642 -0.958754 255 255 0 61 18
-1.250780 -2.102231 -0.744723 255 255 0 61 18
-1.354462 -2.113930 -0.720723 255 255 0 61 18
-1.242638 -2.099776 -0.762723 255 255 0 61 18
-1.256659 -2.122450 -0.946718 255 255 0 61 18
-1.234448 -2.147822 -0.819723 255 255 0 61 18
-1.253400 -2.150408 -0.828723 255 255 0 61 18
-1.312158 -2.138258 -0.955612 255 255 0 61 18
-1.297542 -2.156075 -0.789723 255 255 0 61 18
-1.334353 -2.141678 -0.891723 255 255 0 61 18
-1.354849 -2.144517 -0.813723 255 255 0 61 18
-1.297533 -2.141597 -0.960723 255 255 0 61 18
-1.350732 -2.145392 -0.945723 255 255 0 61 18
-1.240541 -2.135077 -0.759723 255 255 0 61 18
-1.218568 -2.167351 -0.789723 255 255 0 61 18
-1.359666 -2.149627 -0.840723 255 255 0 61 18
-1.257027 -2.153043 -0.817158 255 255 0 61 18
-1.372011 -2.104065 -0.759723 255 255 0 61 18
-1.210815 -2.095391 -0.813723 255 255 0 61 18
-1.268396 -2.119956 -0.726297 255 255 0 61 18
-1.198634 -2.137851 -0.867723 255 255 0 61 18
-1.246973 -2.106107 -0.735723 255 255 0 61 18
-1.207729 -2.108691 -0.831723 255 255 0 61 18
-1.224817 -2.083213 -0.891723 255 255 0 61 18
-1.333578 -2.109168 -0.726042 255 255 0 61 18
-1.251607 -2.077518 -0.774723 255 255 0 61 18
-1.352559 -2.140757 -0.858723 255 255 0 61 18
-1.237277 -2.146700 -0.858723 255 255 0 61 18
-1.221261 -2.114640 -0.799691 255 255 0 61 18
-1.334386 -2.127398 -0.746304 255 255 0 61 18
-1.360724 -2.135880 -0.924723 255 255 0 61 18
-1.248549 -2.142019 -0.888723 255 255 0 61 18
-1.214399 -2.154500 -0.831723 255 255 0 61 18
-1.275924 -2.090753 -0.939723 255 255 0 61 18
-1.380018 -2.154503 -0.785357 255 255 0 61 18
-1.390025 -2.129436 -0.909723 255 255 0 61 18
-1.234359 -2.104112 -0.906723 255 255 0 61 18
-1.203274 -2.087733 -0.834723 255 255 0 61 18
-1.259164 -2.112717 -0.774723 255 255 0 61 18
-1.205204 -2.111241 -0.861723 255 255 0 61 18
-1.251321 -2.145054 -0.756723 255 255 0 61 18
-1.334592 -2.142802 -0.828723 255 255 0 61 18
-1.234757 -2.062698 -0.902291 255 255 0 61 18
-1.283474 -2.147420 -0.840723 255 255 0 61 18
-1.304482 -2.118419 -0.735723 255 255 0 61 18
-1.250391 -2.150681 -0.792723 255 255 0 61 18
-1.367217 -2.166425 -0.771294 255 255 0 61 18
-1.209192 -2.115577 -0.822723 255 255 0 61 18
-1.343794 -2.142802 -0.948723 255 255 0 61 18
-1.242116 -2.140614 -0.900723 255 255 0 61 18
-1.221128 -2.154538 -0.786723 255 255 0 61 18
-1.362351 -2.136790 -0.873723 255 255 0 61 18
-1.241986 -2.125569 -0.770641 255 255 0 61 18
-1.258601 -2.088300 -0.745855 255 255 0 61 18
-1.367813 -2.154798 -0.789723 255 255 0 61 18
-1.403376 -2.155673 -0.852723 255 255 0 61 18
-1.254231 -2.082171 -0.954723 255 255 0 61 18
-1.206263 -2.099426 -0.843723 255 255 0 61 18
-1.207369 -2.150287 -0.882723 255 255 0 61 18
-1.251668 -2.098975 -0.735419 255 255 0 61 18
-1.294735 -2.157295 -0.778428 255 255 0 61 18
-1.236351 -2.070196 -0.783723 255 255 0 61 18
-1.231192 -2.140131 -0.858723 255 255 0 61 18
-1.262782 -2.093545 -0.932258 255 255 0 61 18
-1.236581 -2.126719 -0.759723 255 255 0 61 18
-1.230319 -2.091244 -0.912723 255 255 0 61 18
-1.298049 -2.144032 -0.879723 255 255 0 61 18
-1.346502 -2.141114 -0.894723 255 255 0 61 18
-1.239676 -2.129128 -0.935807 255 255 0 61 18
-1.269411 -2.138141 -0.909723 255 255 0 61 18
-1.334373 -2.141768 -0.735723 255 255 0 61 18
-1.233778 -2.144667 -0.828723 255 255 0 61 18
-1.312195 -2.152862 -0.813723 255 255 0 61 18
-1.239674 -2.143553 -0.870723 255 255 0 61 18
-1.217886 -2.127625 -0.830009 255 255 0 61 18
-1.239365 -2.127666 -0.903723 255 255 0 61 18
-1.301667 -2.146621 -0.850055 255 255 0 61 18
-1.261791 -2.060019 -0.931598 255 255 0 61 18
-1.379527 -2.166620 -0.783723 255 255 0 61 18
-1.375489 -2.146265 -0.858723 255 255 0 61 18
-1.329580 -2.119218 -0.725568 255 255 0 61 18
-1.206444 -2.111655 -0.840723 255 255 0 61 18
-1.225809 -2.063895 -0.897723 255 255 0 61 18
-1.237335 -2.146981 -0.804723 255 255 0 61 18
-1.280743 -2.134753 -0.759723 255 255 0 61 18
-1.221010 -2.084605 -0.897723 255 255 0 61 18
-1.199199 -2.146933 -0.834723 255 255 0 61 18
-1.280831 -2.135715 -0.927723 255 255 0 61 18
-1.257906 -2.128320 -0.730508 255 255 0 61 18
-1.240994 -2.092042 -0.922107 255 255 0 61 18
-1.215397 -2.144769 -0.798723 255 255 0 61 18
-1.208557 -2.080535 -0.822723 255 255 0 61 18
-1.233523 -2.108965 -0.792723 255 255 0 61 18
-1.330388 -2.137449 -0.912149 255 255 0 61 18
-1.309045 -2.138041 -0.873723 255 255 0 61 18
-1.298005 -2.172679 -0.750723 255 255 0 61 18
-1.327014 -2.150434 -0.755153 255 255 0 61 18
-1.243027 -2.058317 -0.921723 255 255 0 61 18
-1.272578 -2.125201 -0.727908 255 255 0 61 18
-1.320977 -2.114913 -0.705723 255 255 0 61 18
-1.216949 -2.103287 -0.837723 255 255 0 61 18
-1.314078 -2.147295 -0.750723 255 255 0 61 18
-1.210745 -2.150611 -0.867723 255 255 0 61 18
-1.238127 -2.150702 -0.828723 255 255 0 61 18
-1.206836 -2.129973 -0.828723 255 255 0 61 18
-1.260585 -2.155354 -0.852595 255 255 0 61 18
-1.332081 -2.158558 -0.828723 255 255 0 61 18
-1.322024 -2.126958 -0.739083 255 255 0 61 18
-1.283337 -2.118100 -0.714723 255 255 0 61 18
-1.328025 -2.111902 -0.705723 255 255 0 61 18
-1.272514 -2.139331 -0.951723 255 255 0 61 18
-1.233892 -2.065949 -0.792723 255 255 0 61 18
-1.300954 -2.157697 -0.747723 255 255 0 61 18
-1.316950 -2.146374 -0.858723 255 255 0 61 18
-1.303556 -2.155510 -0.795723 255 255 0 61 18
-1.397233 -2.147777 -0.897723 255 255 0 61 18
-1.385461 -2.165680 -0.795723 255 255 0 61 18
-1.388232 -2.149858 -0.861723 255 255 0 61 18
-1.217118 -2.084849 -0.795723 255 255 0 61 18
-1.388035 -2.148932 -0.915723 255 255 0 61 18
-1.233225 -2.113207 -0.912723 255 255 0 61 18
-1.401996 -2.142463 -0.840723 255 255 0 61 18
-1.248067 -2.067601 -0.774723 255 255 0 61 18
-1.238937 -2.140079 -0.828723 255 255 0 61 18
-1.343671 -2.156652 -0.777723 255 255 0 61 18
-1.233438 -2.099782 -0.777158 255 255 0 61 18
-1.360050 -2.140346 -0.897723 255 255 0 61 18
-1.219319 -2.148789 -0.855130 255 255 0 61 18
-1.221823 -2.111453 -0.819723 255 255 0 61 18
-1.360089 -2.132890 -0.897723 255 255 0 61 18
-1.401675 -2.149899 -0.864723 255 255 0 61 18
-1.326290 -2.147026 -0.858723 255 255 0 61 18
-1.305226 -2.148932 -0.751326 255 255 0 61 18
-1.314504 -2.149297 -0.849723 255 255 0 61 18
-1.241828 -2.153682 -0.810723 255 255 0 61 18
-1.251853 -2.114270 -0.725093 255 255 0 61 18
-1.379776 -2.145354 -0.924723 255 255 0 61 18
-1.223155 -2.092767 -0.786723 255 255 0 61 18
-1.219025 -2.099780 -0.897723 255 255 0 61 18
-1.354546 -2.150096 -0.834723 255 255 0 61 18
-1.232628 -2.084620 -0.915723 255 255 0 61 18
-1.362553 -2.144480 -0.936723 255 255 0 61 18
-1.227936 -2.146042 -0.822723 255 255 0 61 18
-1.369538 -2.134053 -0.900723 255 255 0 61 18
-1.371848 -2.130492 -0.924723 255 255 0 61 18
-1.251450 -2.141235 -0.942723 255 255 0 61 18
-1.216833 -2.072642 -0.828723 255 255 0 61 18
-1.336540 -2.137533 -0.918723 255 255 0 61 18
-1.347705 -2.167506 -0.762723 255 255 0 61 18
-1.243315 -2.113019 -0.921723 255 255 0 61 18
-1.307116 -2.128966 -0.933723 255 255 0 61 18
-1.368096 -2.141702 -0.885549 255 255 0 61 18
-1.356444 -2.144598 -0.870723 255 255 0 61 18
-1.328289 -2.156430 -0.789723 255 255 0 61 18
-1.299553 -2.136672 -0.879723 255 255 0 61 18
-1.345544 -2.136607 -0.930723 255 255 0 61 18
-1.366724 -2.149674 -0.834723 255 255 0 61 18
-1.248224 -2.154913 -0.843586 255 255 0 61 18
-1.365939 -2.145227 -0.861723 255 255 0 61 18
-1.320439 -2.133927 -0.939723 255 255 0 61 18
-1.380309 -2.141439 -0.885723 255 255 0 61 18
-1.268765 -2.150548 -0.818715 255 255 0 61 18
-1.343321 -2.111721 -0.714723 255 255 0 61 18
-1.413690 -2.139771 -0.870723 255 255 0 61 18
-1.338091 -2.144830 -0.858723 255 255 0 61 18
-1.243602 -2.162030 -0.767985 255 255 0 61 18
-1.226540 -2.119652 -0.915723 255 255 0 61 18
-1.246429 -2.146476 -0.858723 255 255 0 61 18
-1.211687 -2.135077 -0.864723 255 255 0 61 18
-1.240667 -2.133799 -0.747723 255 255 0 61 18
-1.276253 -2.142822 -0.888723 255 255 0 61 18
-1.210699 -2.144487 -0.903723 255 255 0 61 18
-1.206149 -2.130120 -0.875630 255 255 0 61 18
-1.244921 -2.124945 -0.723678 255 255 0 61 18
-1.393482 -2.151641 -0.819723 255 255 0 61 18
-1.271397 -2.054910 -0.930723 255 255 0 61 18
-1.293769 -2.152751 -0.804723 255 255 0 61 18
-1.322207 -2.156675 -0.786723 255 255 0 61 18
-1.271699 -2.149923 -0.851836 255 255 0 61 18
-1.316056 -2.142168 -0.891723 255 255 0 61 18
-1.258100 -2.143662 -0.879723 255 255 0 61 18
-1.214513 -2.140610 -0.878231 255 255 0 61 18
-1.387993 -2.148731 -0.831723 255 255 0 61 18
-1.211208 -2.147446 -0.843723 255 255 0 61 18
-1.300264 -2.140017 -0.903723 255 255 0 61 18
-1.345122 -2.140451 -0.753723 255 255 0 61 18
-1.294404 -2.141309 -0.891723 255 255 0 61 18
-1.268341 -2.134122 -0.933723 255 255 0 61 18
-1.328357 -2.142328 -0.894723 255 255 0 61 18
-1.331533 -2.157264 -0.777723 255 255 0 61 18
-1.289828 -2.134208 -0.939723 255 255 0 61 18
-1.309114 -2.152801 -0.807723 255 255 0 61 18
-1.234528 -2.071949 -0.906723 255 255 0 61 18
-1.224890 -2.073997 -0.789133 255 255 0 61 18
-1.372902 -2.149881 -0.776236 255 255 0 61 18
-1.217551 -2.068325 -0.807723 255 255 0 61 18
-1.304204 -2.158556 -0.771723 255 255 0 61 18
-1.208647 -2.092784 -0.867723 255 255 0 61 18
-1.324680 -2.139454 -0.903723 255 255 0 61 18
-1.309394 -2.151113 -0.825723 255 255 0 61 18
-1.347590 -2.146230 -0.846723 255 255 0 61 18
-1.204407 -2.078351 -0.831723 255 255 0 61 18
-1.198216 -2.144073 -0.843723 255 255 0 61 18
-1.258898 -2.161845 -0.759515 255 255 0 61 18
-1.307792 -2.117715 -0.701675 255 255 0 61 18
-1.406742 -2.158023 -0.846723 255 255 0 61 18
-1.210958 -2.080025 -0.807723 255 255 0 61 18
-1.328254 -2.147104 -0.822723 255 255 0 61 18
-1.206045 -2.090271 -0.825723 255 255 0 61 18
-1.351689 -2.151084 -0.819723 255 255 0 61 18
-1.210951 -2.150568 -0.804723 255 255 0 61 18
-1.244915 -2.096060 -0.753723 255 255 0 61 18
-1.224011 -2.098720 -0.903398 255 255 0 61 18
-1.206083 -2.096396 -0.837723 255 255 0 61 18
-1.332444 -2.161549 -0.761658 255 255 0 61 18
-1.208233 -2.154351 -0.852723 255 255 0 61 18
-1.410824 -2.155138 -0.858723 255 255 0 61 18
-1.216457 -2.077607 -0.888723 255 255 0 61 18
-1.394550 -2.150724 -0.828723 255 255 0 61 18
-1.362823 -2.145751 -0.852723 255 255 0 61 18
-1.313210 -2.157635 -0.774723 255 255 0 61 18
-1.295979 -2.141696 -0.792723 255 255 0 61 18
-1.380163 -2.140754 -0.897723 255 255 0 61 18
-1.223515 -2.081954 -0.822723 255 255 0 61 18
-1.375657 -2.148416 -0.798723 255 255 0 61 18
-1.360789 -2.150609 -0.810723 255 255 0 61 18
-1.347371 -2.145205 -0.867723 255 255 0 61 18
-1.298849 -2.133363 -0.948723 255 255 0 61 18
-1.339007 -2.120281 -0.725201 255 255 0 61 18
-1.348618 -2.136642 -0.737786 255 255 0 61 18
-1.356604 -2.145350 -0.951723 255 255 0 61 18
-1.198856 -2.147005 -0.870723 255 255 0 61 18
-1.228933 -2.116076 -0.903723 255 255 0 61 18
-1.340919 -2.158136 -0.768723 255 255 0 61 18
-1.407820 -2.141008 -0.846723 255 255 0 61 18
-1.396507 -2.131071 -0.906723 255 255 0 61 18
-1.218717 -2.081442 -0.873723 255 255 0 61 18
-1.227658 -2.144737 -0.918723 255 255 0 61 18
-1.237755 -2.134523 -0.888723 255 255 0 61 18
-1.223428 -2.132581 -0.900723 255 255 0 61 18
-1.336934 -2.139389 -0.903723 255 255 0 61 18
-1.218493 -2.109093 -0.834723 255 255 0 61 18
-1.231751 -2.106276 -0.918154 255 255 0 61 18
-1.315900 -2.155864 -0.749981 255 255 0 61 18
-1.323642 -2.134569 -0.891723 255 255 0 61 18
-1.235678 -2.139179 -0.866550 255 255 0 61 18
-1.218166 -2.093828 -0.852723 255 255 0 61 18
-1.372031 -2.145787 -0.813723 255 255 0 61 18
-1.332930 -2.134984 -0.939723 255 255 0 61 18
-1.287133 -2.135957 -0.864723 255 255 0 61 18
-1.393148 -2.144126 -0.813723 255 255 0 61 18
-1.217584 -2.068480 -0.882723 255 255 0 61 18
-1.330148 -2.136323 -0.888723 255 255 0 61 18
-1.243811 -2.148584 -0.801723 255 255 0 61 18
-1.327616 -2.124409 -0.945723 255 255 0 61 18
-1.236894 -2.080647 -0.903723 255 255 0 61 18
-1.262967 -2.108841 -0.728647 255 255 0 61 18
-1.219978 -2.130248 -0.888723 255 255 0 61 18
-1.378549 -2.147594 -0.843723 255 255 0 61 18
-1.349386 -2.125826 -0.945723 255 255 0 61 18
-1.330964 -2.154588 -0.801723 255 255 0 61 18
-1.316657 -2.144998 -0.804723 255 255 0 61 18
-1.380168 -2.140778 -0.834723 255 255 0 61 18
-1.299035 -2.148667 -0.837723 255 255 0 61 18
-1.293632 -2.152103 -0.825723 255 255 0 61 18
-1.312966 -2.127630 -0.930723 255 255 0 61 18
-1.317744 -2.135681 -0.867723 255 255 0 61 18
-1.313966 -2.161194 -0.756723 255 255 0 61 18
-1.398468 -2.140298 -0.864723 255 255 0 61 18
-1.407216 -2.138165 -0.855723 255 255 0 61 18
-1.316056 -2.142168 -0.828723 255 255 0 61 18
-1.294367 -2.126704 -0.950123 255 255 0 61 18
-1.336151 -2.150131 -0.768723 255 255 0 61 18
-1.266605 -2.140388 -0.834723 255 255 0 61 18
-1.368871 -2.130924 -0.912723 255 255 0 61 18
-1.346036 -2.138921 -0.858723 255 255 0 61 18
-1.279003 -2.140998 -0.840723 255 255 0 61 18
-1.292398 -2.131871 -0.897723 255 255 0 61 18
-1.291152 -2.126009 -0.936723 255 255 0 61 18
-1.277097 -2.132031 -0.906723 255 255 0 61 18
-1.344330 -2.145324 -0.792723 255 255 0 61 18
-1.287771 -2.138959 -0.843723 255 255 0 61 18
-1.334898 -2.144238 -0.801723 255 255 0 61 18
-1.301845 -2.133025 -0.900723 255 255 0 61 18
-1.285511 -2.142756 -0.879723 255 255 0 61 18
-1.307976 -2.133011 -0.965175 255 255 0 61 18
-1.341834 -2.133579 -0.888723 255 255 0 61 18
-1.345392 -2.135891 -0.864723 255 255 0 61 18
-1.334701 -2.128880 -0.909723 255 255 0 61 18
-1.358812 -2.126882 -0.930723 255 255 0 61 18
-1.267813 -2.146075 -0.747723 255 255 0 61 18
-1.377661 -2.128984 -0.909723 255 255 0 61 18
-1.323787 -2.149678 -0.768723 255 255 0 61 18
-1.345431 -2.136078 -0.876723 255 255 0 61 18
-1.255155 -2.144239 -0.845269 255 255 0 61 18
-1.249062 -2.144429 -0.867723 255 255 0 61 18
-1.286516 -2.133058 -0.885723 255 255 0 61 18
-1.356692 -2.145766 -0.801723 255 255 0 61 18
-1.299050 -2.148738 -0.771723 255 255 0 61 18
-1.312919 -2.127408 -0.921723 255 255 0 61 18
-1.283797 -2.149124 -0.780723 255 255 0 61 18
-1.335330 -2.131843 -0.891723 255 255 0 61 18
-1.234620 -2.127135 -0.801723 255 255 0 61 18
-1.217595 -2.126251 -0.894723 255 255 0 61 18
-1.216689 -2.118679 -0.894723 255 255 0 61 18
-1.321008 -2.136613 -0.915723 255 255 0 61 18
-1.290697 -2.138297 -0.813723 255 255 0 61 18
-1.333477 -2.123121 -0.948723 255 255 0 61 18
-1.363177 -2.147417 -0.780723 255 255 0 61 18
-1.378866 -2.084207 -0.750723 255 255 0 61 18
-1.234874 -2.099478 -0.801723 255 255 0 61 18
-1.330933 -2.152668 -0.819723 255 255 0 61 18
-1.225886 -2.086053 -0.879723 255 255 0 61 18
-1.315900 -2.155864 -0.825067 255 255 0 61 18
-1.387574 -2.146762 -0.900540 255 255 0 61 18
-1.276760 -2.130445 -0.848192 255 255 0 61 18
-1.342126 -2.134954 -0.940118 255 255 0 61 18
-1.303666 -2.127164 -0.753723 255 255 0 61 18
-1.233254 -2.084487 -0.773929 255 255 0 61 18
-1.256588 -2.165403 -0.771808 255 255 0 61 18
-1.335009 -2.130332 -0.959191 255 255 0 61 18
-1.374150 -2.155751 -0.779585 255 255 0 61 18
-1.261380 -2.072516 -0.930723 255 255 0 61 18
-1.326081 -2.146044 -0.798723 255 255 0 61 18
-1.375348 -2.132535 -0.894723 255 255 0 61 18
-1.365999 -2.139081 -0.840723 255 255 0 61 18
-1.244867 -2.118823 -0.726723 255 255 0 61 18
-1.278562 -2.138921 -0.918723 255 255 0 61 18
-1.232191 -2.093915 -0.905648 255 255 0 61 18
-1.250052 -2.062515 -0.925652 255 255 0 61 18
-1.224564 -2.144608 -0.906123 255 255 0 61 18
-1.391919 -2.138345 -0.846723 255 255 0 61 18
-1.210063 -2.076391 -0.852723 255 255 0 61 18
-1.394066 -2.148449 -0.844507 255 255 0 61 18
-1.237309 -2.108161 -0.765723 255 255 0 61 18
-1.234344 -2.154797 -0.789723 255 255 0 61 18
-1.351980 -2.160462 -0.759723 255 255 0 61 18
-1.220085 -2.065817 -0.889784 255 255 0 61 18
-1.214550 -2.068637 -0.843723 255 255 0 61 18
-1.298363 -2.159936 -0.765723 255 255 0 61 18
-1.277128 -2.161037 -0.768196 255 255 0 61 18
-1.252859 -2.075716 -0.921723 255 255 0 61 18
-1.236639 -2.102170 -0.750723 255 255 0 61 18
-1.408541 -2.158826 -0.822723 255 255 0 61 18
-1.225441 -2.148732 -0.840723 255 255 0 61 18
-1.213115 -2.116370 -0.885723 255 255 0 61 18
-1.254392 -2.169503 -0.765723 255 255 0 61 18
-1.218694 -2.145854 -0.913070 255 255 0 61 18
-1.384835 -2.148305 -0.927723 255 255 0 61 18
-1.221719 -2.142145 -0.882723 255 255 0 61 18
-1.305877 -2.137568 -0.951723 255 255 0 61 18
-1.400293 -2.147126 -0.855723 255 255 0 61 18
-1.370752 -2.139771 -0.906723 255 255 0 61 18
-1.217343 -2.153922 -0.792723 255 255 0 61 18
-1.316155 -2.128206 -0.952726 255 255 0 61 18
-1.249174 -2.087237 -0.761879 255 255 0 61 18
-1.203655 -2.142917 -0.891723 255 255 0 61 18
-1.250237 -2.077811 -0.764957 255 255 0 61 18
-1.219350 -2.099710 -0.825723 255 255 0 61 18
-1.347589 -2.117368 -0.720723 255 255 0 61 18
-1.241638 -2.137912 -0.753723 255 255 0 61 18
-1.219828 -2.122325 -0.909723 255 255 0 61 18
-1.308467 -2.120893 -0.726723 255 255 0 61 18
-1.412622 -2.149174 -0.825723 255 255 0 61 18
-1.248039 -2.139617 -0.904570 255 255 0 61 18
-1.237235 -2.117645 -0.762723 255 255 0 61 18
-1.301786 -2.132749 -0.756723 255 255 0 61 18
-1.225571 -2.138259 -0.894723 255 255 0 61 18
-1.335632 -2.133267 -0.749015 255 255 0 61 18
-1.221885 -2.117573 -0.872237 255 255 0 61 18
-1.379102 -2.150190 -0.822723 255 255 0 61 18
-1.356103 -2.171854 -0.765025 255 255 0 61 18
-1.279094 -2.141428 -0.852723 255 255 0 61 18
-1.285748 -2.143870 -0.809791 255 255 0 61 18
-1.339934 -2.153500 -0.810723 255 255 0 61 18
-1.262272 -2.148860 -0.863686 255 255 0 61 18
-1.403658 -2.150286 -0.888723 255 255 0 61 18
-1.281104 -2.136456 -0.735723 255 255 0 61 18
-1.258714 -2.146549 -0.857360 255 255 0 61 18
-1.233508 -2.143397 -0.927723 255 255 0 61 18
-1.220839 -2.112653 -0.903723 255 255 0 61 18
-1.344875 -2.119035 -0.730760 255 255 0 61 18
-1.298440 -2.145869 -0.798723 255 255 0 61 18
-1.262903 -2.130324 -0.771723 255 255 0 61 18
-1.293119 -2.120834 -0.725794 255 255 0 61 18
-1.254545 -2.110631 -0.729723 255 255 0 61 18
-1.204014 -2.134505 -0.852723 255 255 0 61 18
-1.226138 -2.079865 -0.806096 255 255 0 61 18
-1.302496 -2.136087 -0.885723 255 255 0 61 18
-1.247600 -2.151979 -0.815027 255 255 0 61 18
-1.212047 -2.125798 -0.885723 255 255 0 61 18
-1.289745 -2.133820 -0.756045 255 255 0 61 18
-1.228562 -2.134557 -0.872207 255 255 0 61 18
-1.270038 -2.127677 -0.846723 255 255 0 61 18
-1.291005 -2.154173 -0.768723 255 255 0 61 18
-1.323087 -2.117532 -0.725552 255 255 0 61 18
-1.253469 -2.150732 -0.860016 255 255 0 61 18
-1.233532 -2.114655 -0.753723 255 255 0 61 18
-1.372165 -2.088697 -0.749622 255 255 0 61 18
-1.307528 -2.142308 -0.888723 255 255 0 61 18
-1.329975 -2.137537 -0.924723 255 255 0 61 18
-1.292559 -2.147054 -0.759723 255 255 0 61 18
-1.218326 -2.115263 -0.848193 255 255 0 61 18
-1.253060 -2.091093 -0.747723 255 255 0 61 18
-1.354422 -2.149515 -0.789723 255 255 0 61 18
-1.266511 -2.082227 -0.951723 255 255 0 61 18
-1.304795 -2.132474 -0.912723 255 255 0 61 18
-1.204775 -2.138083 -0.822723 255 255 0 61 18
-1.261111 -2.157826 -0.780723 255 255 0 61 18
-1.327814 -2.139771 -0.846723 255 255 0 61 18
-1.303541 -2.126576 -0.945723 255 255 0 61 18
-1.282851 -2.115819 -0.708723 255 255 0 61 18
-1.245382 -2.155974 -0.786723 255 255 0 61 18
-1.397350 -2.163897 -0.801723 255 255 0 61 18
-1.245289 -2.155538 -0.766901 255 255 0 61 18
-1.394266 -2.142273 -0.825723 255 255 0 61 18
-1.271863 -2.136267 -0.870723 255 255 0 61 18
-1.403932 -2.137151 -0.902116 255 255 0 61 18
-1.273129 -2.142220 -0.825723 255 255 0 61 18
-1.333681 -2.138514 -0.855723 255 255 0 61 18
-1.400741 -2.136565 -0.873723 255 255 0 61 18
-1.268563 -2.149599 -0.840723 255 255 0 61 18
-1.237515 -2.123452 -0.933723 255 255 0 61 18
-1.279071 -2.126888 -0.935253 255 255 0 61 18
-1.254858 -2.070693 -0.764309 255 255 0 61 18
-1.216220 -2.085041 -0.861723 255 255 0 61 18
-1.403824 -2.151064 -0.807723 255 255 0 61 18
-1.255780 -2.147173 -0.763612 255 255 0 61 18
-1.268222 -2.126127 -0.942723 255 255 0 61 18
-1.267588 -2.101726 -0.734116 255 255 0 61 18
-1.280654 -2.134335 -0.891723 255 255 0 61 18
-1.251944 -2.143559 -0.822723 255 255 0 61 18
-1.228774 -2.085439 -0.801723 255 255 0 61 18
-1.209271 -2.087087 -0.864723 255 255 0 61 18
-1.221035 -2.070287 -0.822723 255 255 0 61 18
-1.346437 -2.126376 -0.951723 255 255 0 61 18
-1.334824 -2.115036 -0.728264 255 255 0 61 18
-1.216823 -2.137052 -0.851094 255 255 0 61 18
-1.254673 -2.141969 -0.900723 255 255 0 61 18
-1.238448 -2.101785 -0.795723 255 255 0 61 18
-1.360356 -2.134146 -0.884262 255 255 0 61 18
-1.367767 -2.154583 -0.798723 255 255 0 61 18
-1.285905 -2.130183 -0.954723 255 255 0 61 18
-1.251038 -2.124866 -0.939723 255 255 0 61 18
-1.292240 -2.145557 -0.752776 255 255 0 61 18
-1.403487 -2.143380 -0.819723 255 255 0 61 18
-1.352616 -2.126590 -0.727625 255 255 0 61 18
-1.241547 -2.137930 -0.854243 255 255 0 61 18
-1.316494 -2.144228 -0.864723 255 255 0 61 18
-1.237671 -2.148556 -0.834723 255 255 0 61 18
-1.270012 -2.156416 -0.773197 255 255 0 61 18
-1.262892 -2.166203 -0.756723 255 255 0 61 18
-1.267659 -2.130918 -0.909723 255 255 0 61 18
-1.268365 -2.141431 -0.891723 255 255 0 61 18
-1.325933 -2.130918 -0.954723 255 255 0 61 18
-1.341195 -2.130577 -0.909723 255 255 0 61 18
-1.242610 -2.128504 -0.926257 255 255 0 61 18
-1.294991 -2.129637 -0.755492 255 255 0 61 18
-1.277459 -2.133734 -0.945723 255 255 0 61 18
-1.290532 -2.151949 -0.816723 255 255 0 61 18
-1.221885 -2.117573 -0.824191 255 255 0 61 18
-1.242626 -2.119299 -0.771723 255 255 0 61 18
-1.225369 -2.148395 -0.852723 255 255 0 61 18
-1.324211 -2.137245 -0.861723 255 255 0 61 18
-1.275192 -2.158382 -0.762723 255 255 0 61 18
-1.218259 -2.093808 -0.834723 255 255 0 61 18
-1.241362 -2.122634 -0.739806 255 255 0 61 18
-1.237681 -2.134171 -0.879723 255 255 0 61 18
-1.342240 -2.149923 -0.828723 255 255 0 61 18
-1.279879 -2.145118 -0.797220 255 255 0 61 18
-1.238868 -2.110897 -0.773126 255 255 0 61 18
-1.240002 -2.058517 -0.908309 255 255 0 61 18
-1.249679 -2.111665 -0.753723 255 255 0 61 18
-1.382486 -2.137259 -0.855723 255 255 0 61 18
-1.294551 -2.141999 -0.906881 255 255 0 61 18
-1.284065 -2.128893 -0.912723 255 255 0 61 18
-1.260162 -2.153363 -0.807723 255 255 0 61 18
-1.255284 -2.130411 -0.897723 255 255 0 61 18
-1.378304 -2.132010 -0.903723 255 255 0 61 18
-1.275448 -2.146060 -0.801723 255 255 0 61 18
-1.373965 -2.140455 -0.839240 255 255 0 61 18
-1.253049 -2.141619 -0.780723 255 255 0 61 18
-1.251307 -2.140560 -0.834723 255 255 0 61 18
-1.224826 -2.095479 -0.882723 255 255 0 61 18
-1.250772 -2.138046 -0.918723 255 255 0 61 18
-1.228552 -2.140692 -0.849723 255 255 0 61 18
-1.272346 -2.131384 -0.897723 255 255 0 61 18
-1.251045 -2.096040 -0.923506 255 255 0 61 18
-1.388363 -2.136044 -0.927723 255 255 0 61 18
-1.249756 -2.111650 -0.783723 255 255 0 61 18
-1.223425 -2.124818 -0.819723 255 255 0 61 18
-1.250158 -2.056357 -0.915723 255 255 0 61 18
-1.410743 -2.140329 -0.834723 255 255 0 61 18
-1.304925 -2.147520 -0.777723 255 255 0 61 18
-1.316916 -2.161782 -0.828723 255 255 0 61 18
-1.332953 -2.106234 -0.734258 255 255 0 61 18
-1.333241 -2.122014 -0.708723 255 255 0 61 18
-1.228796 -2.150087 -0.831723 255 255 0 61 18
-1.299342 -2.135680 -0.927723 255 255 0 61 18
-1.333043 -2.135510 -0.867723 255 255 0 61 18
-1.369985 -2.078444 -0.756723 255 255 0 61 18
-1.252180 -2.123403 -0.756723 255 255 0 61 18
-1.262088 -2.133564 -0.887245 255 255 0 61 18
-1.216876 -2.065150 -0.870723 255 255 0 61 18
-1.239701 -2.107652 -0.789723 255 255 0 61 18
-1.411991 -2.153841 -0.816723 255 255 0 61 18
-1.204532 -2.122509 -0.849723 255 255 0 61 18
-1.260061 -2.080739 -0.963723 255 255 0 61 18
-1.255725 -2.118061 -0.777723 255 255 0 61 18
-1.309039 -2.123585 -0.752528 255 255 0 61 18
-1.263539 -2.090317 -0.738723 255 255 0 61 18
-1.211579 -2.141233 -0.872253 255 255 0 61 18
-1.367053 -2.079077 -0.747723 255 255 0 61 18
-1.267957 -2.132318 -0.893273 255 255 0 61 18
-1.338449 -2.146512 -0.747723 255 255 0 61 18
-1.219206 -2.090540 -0.878656 255 255 0 61 18
-1.230093 -2.141762 -0.798723 255 255 0 61 18
-1.329715 -2.113055 -0.741723 255 255 0 61 18
-1.307623 -2.116921 -0.741723 255 255 0 61 18
-1.228338 -2.162362 -0.801723 255 255 0 61 18
-1.327381 -2.159557 -0.750723 255 255 0 61 18
-1.218833 -2.132081 -0.834723 255 255 0 61 18
-1.368299 -2.157085 -0.783723 255 255 0 61 18
-1.245195 -2.134089 -0.936723 255 255 0 61 18
-1.315460 -2.168226 -0.752722 255 255 0 61 18
-1.243678 -2.143611 -0.933723 255 255 0 61 18
-1.266894 -2.141745 -0.770102 255 255 0 61 18
-1.244511 -2.137446 -0.765723 255 255 0 61 18
-1.406368 -2.158103 -0.810723 255 255 0 61 18
-1.219574 -2.121132 -0.833189 255 255 0 61 18
-1.272445 -2.116027 -0.717723 255 255 0 61 18
-1.368465 -2.172293 -0.767571 255 255 0 61 18
-1.367872 -2.095745 -0.756723 255 255 0 61 18
-1.251830 -2.143024 -0.879723 255 255 0 61 18
-1.355754 -2.155782 -0.783723 255 255 0 61 18
-1.261720 -2.102973 -0.932540 255 255 0 61 18
-1.311681 -2.121585 -0.705723 255 255 0 61 18
-1.300038 -2.153389 -0.804723 255 255 0 61 18
-1.251341 -2.155153 -0.798723 255 255 0 61 18
-1.353994 -2.141633 -0.837723 255 255 0 61 18
-1.259687 -2.057400 -0.924723 255 255 0 61 18
-1.394809 -2.151940 -0.909723 255 255 0 61 18
-1.357813 -2.122180 -0.723723 255 255 0 61 18
-1.231257 -2.132807 -0.897723 255 255 0 61 18
-1.293875 -2.160544 -0.756723 255 255 0 61 18
-1.232913 -2.140596 -0.891723 255 255 0 61 18
-1.278887 -2.111591 -0.731137 255 255 0 61 18
-1.278960 -2.140795 -0.900723 255 255 0 61 18
-1.388637 -2.137336 -0.869391 255 255 0 61 18
-1.228936 -2.140611 -0.903723 255 255 0 61 18
-1.355874 -2.141916 -0.879723 255 255 0 61 18
-1.228490 -2.105361 -0.807723 255 255 0 61 18
-1.224569 -2.072487 -0.882723 255 255 0 61 18
-1.309935 -2.156663 -0.783723 255 255 0 61 18
-1.227877 -2.125501 -0.807723 255 255 0 61 18
-1.391498 -2.165227 -0.792723 255 255 0 61 18
-1.409363 -2.148265 -0.905209 255 255 0 61 18
-1.345804 -2.131105 -0.738723 255 255 0 61 18
-1.235054 -2.136243 -0.910592 255 255 0 61 18
-1.254205 -2.096478 -0.768723 255 255 0 61 18
-1.272394 -2.109905 -0.727818 255 255 0 61 18
-1.270891 -2.131693 -0.863174 255 255 0 61 18
-1.268949 -2.165843 -0.763176 255 255 0 61 18
-1.271845 -2.143759 -0.813723 255 255 0 61 18
-1.289704 -2.148055 -0.840723 255 255 0 61 18
-1.271840 -2.064016 -0.932371 255 255 0 61 18
-1.315264 -2.131463 -0.963723 255 255 0 61 18
-1.363106 -2.118227 -0.730740 255 255 0 61 18
-1.216200 -2.134118 -0.878680 255 255 0 61 18
-1.252620 -2.111041 -0.768723 255 255 0 61 18
-1.245968 -2.144305 -0.843723 255 255 0 61 18
-1.397876 -2.150707 -0.885723 255 255 0 61 18
-1.339752 -2.167071 -0.759723 255 255 0 61 18
-1.322470 -2.139132 -0.948723 255 255 0 61 18
-1.338681 -2.151021 -0.822723 255 255 0 61 18
-1.205558 -2.112910 -0.855723 255 255 0 61 18
-1.340011 -2.144604 -0.879723 255 255 0 61 18
-1.266336 -2.074389 -0.762723 255 255 0 61 18
-1.327893 -2.125711 -0.728788 255 255 0 61 18
-1.211315 -2.104486 -0.885723 255 255 0 61 18
-1.310316 -2.144020 -0.876723 255 255 0 61 18
-1.326830 -2.135139 -0.733523 255 255 0 61 18
-1.266588 -2.147943 -0.846723 255 255 0 61 18
-1.400231 -2.159408 -0.831723 255 255 0 61 18
-1.205611 -2.121032 -0.837723 255 255 0 61 18
-1.347186 -2.115477 -0.749941 255 255 0 61 18
-1.248819 -2.143283 -0.849723 255 255 0 61 18
-1.256446 -2.085691 -0.771723 255 255 0 61 18
-1.316595 -2.115844 -0.732235 255 255 0 61 18
-1.243489 -2.103781 -0.917261 255 255 0 61 18
-1.345255 -2.149673 -0.837723 255 255 0 61 18
-1.382933 -2.153789 -0.798723 255 255 0 61 18
-1.305410 -2.164227 -0.761713 255 255 0 61 18
-1.363302 -2.112051 -0.723723 255 255 0 61 18
-1.206209 -2.101543 -0.852723 255 255 0 61 18
-1.209263 -2.159203 -0.840723 255 255 0 61 18
-1.284217 -2.136667 -0.750723 255 255 0 61 18
-1.308600 -2.135947 -0.920448 255 255 0 61 18
-1.390149 -2.158875 -0.813723 255 255 0 61 18
-1.332699 -2.133890 -0.742764 255 255 0 61 18
-1.245105 -2.140241 -0.946037 255 255 0 61 18
-1.346176 -2.139578 -0.900723 255 255 0 61 18
-1.348032 -2.119453 -0.714723 255 255 0 61 18
-1.266494 -2.154294 -0.792723 255 255 0 61 18
-1.383186 -2.097265 -0.759723 255 255 0 61 18
-1.407822 -2.155443 -0.867723 255 255 0 61 18
-1.222253 -2.148165 -0.824228 255 255 0 61 18
-1.290113 -2.164412 -0.751560 255 255 0 61 18
-1.293729 -2.138130 -0.954723 255 255 0 61 18
-1.221661 -2.087667 -0.903723 255 255 0 61 18
-1.331274 -2.141618 -0.885723 255 255 0 61 18
-1.407810 -2.155396 -0.879723 255 255 0 61 18
-1.229090 -2.165905 -0.783723 255 255 0 61 18
-1.212229 -2.101005 -0.879723 255 255 0 61 18
-1.204164 -2.091920 -0.855723 255 255 0 61 18
-1.249731 -2.162004 -0.774723 255 255 0 61 18
-1.257538 -2.097728 -0.732783 255 255 0 61 18
-1.239746 -2.086174 -0.920637 255 255 0 61 18
-1.264398 -2.130007 -0.764589 255 255 0 61 18
-1.302731 -2.137193 -0.961704 255 255 0 61 18
-1.239306 -2.098536 -0.772084 255 255 0 61 18
-1.319898 -2.145813 -0.842728 255 255 0 61 18
-1.292320 -2.145933 -0.861723 255 255 0 61 18
-1.377900 -2.144536 -0.867723 255 255 0 61 18
-1.195993 -2.154482 -0.861723 255 255 0 61 18
-1.243858 -2.134372 -0.773086 255 255 0 61 18
-1.216558 -2.143242 -0.861723 255 255 0 61 18
-1.367710 -2.139884 -0.750723 255 255 0 61 18
-1.236741 -2.129751 -0.778896 255 255 0 61 18
-1.201420 -2.146461 -0.828723 255 255 0 61 18
-1.212940 -2.075491 -0.864723 255 255 0 61 18
-1.412934 -2.144439 -0.846723 255 255 0 61 18
-1.229821 -2.154912 -0.810723 255 255 0 61 18
-1.316056 -2.142169 -0.879723 255 255 0 61 18
-1.266354 -2.139206 -0.945723 255 255 0 61 18
-1.213337 -2.091787 -0.885943 255 255 0 61 18
-1.207619 -2.114472 -0.828723 255 255 0 61 18
-1.224819 -2.116951 -0.786757 255 255 0 61 18
-1.269511 -2.154062 -0.813723 255 255 0 61 18
-1.286371 -2.146806 -0.754196 255 255 0 61 18
-1.234445 -2.147811 -0.843723 255 255 0 61 18
-1.324810 -2.154491 -0.801723 255 255 0 61 18
-1.351886 -2.137583 -0.921723 255 255 0 61 18
-1.245289 -2.155538 -0.778999 255 255 0 61 18
-1.346234 -2.164752 -0.768723 255 255 0 61 18
-1.219608 -2.072052 -0.891723 255 255 0 61 18
-1.212913 -2.075367 -0.801723 255 255 0 61 18
-1.294531 -2.113045 -0.708723 255 255 0 61 18
-1.259676 -2.093364 -0.942723 255 255 0 61 18
-1.223203 -2.080489 -0.878234 255 255 0 61 18
-1.212876 -2.150158 -0.879723 255 255 0 61 18
-1.209245 -2.101393 -0.870723 255 255 0 61 18
-1.305612 -2.136318 -0.927723 255 255 0 61 18
-1.332135 -2.145668 -0.861723 255 255 0 61 18
-1.325793 -2.159116 -0.774723 255 255 0 61 18
-1.244014 -2.149537 -0.837723 255 255 0 61 18
-1.226506 -2.110457 -0.912292 255 255 0 61 18
-1.362533 -2.144392 -0.873723 255 255 0 61 18
-1.258530 -2.131253 -0.934755 255 255 0 61 18
-1.366058 -2.136002 -0.927723 255 255 0 61 18
-1.243858 -2.134372 -0.742445 255 255 0 61 18
-1.301559 -2.160541 -0.753723 255 255 0 61 18
-1.339625 -2.156955 -0.789723 255 255 0 61 18
-1.246168 -2.130815 -0.737960 255 255 0 61 18
-1.212998 -2.075767 -0.819723 255 255 0 61 18
-1.220665 -2.108632 -0.798723 255 255 0 61 18
-1.283214 -2.146385 -0.864723 255 255 0 61 18
-1.199986 -2.149832 -0.879723 255 255 0 61 18
-1.237321 -2.151098 -0.774723 255 255 0 61 18
-1.247438 -2.151217 -0.852723 255 255 0 61 18
-1.262786 -2.151278 -0.819723 255 255 0 61 18
-1.211466 -2.082984 -0.814651 255 255 0 61 18
-1.252871 -2.090201 -0.765723 255 255 0 61 18
-1.270114 -2.156895 -0.780723 255 255 0 61 18
-1.257467 -2.140681 -0.736506 255 255 0 61 18
-1.210410 -2.120013 -0.810723 255 255 0 61 18
-1.279570 -2.143663 -0.876723 255 255 0 61 18
-1.284878 -2.139777 -0.957723 255 255 0 61 18
-1.356282 -2.144213 -0.903723 255 255 0 61 18
-1.222358 -2.129741 -0.810723 255 255 0 61 18
-1.235570 -2.167531 -0.777723 255 255 0 61 18
-1.209339 -2.101839 -0.814327 255 255 0 61 18
-1.382828 -2.144704 -0.933723 255 255 0 61 18
-1.327468 -2.152567 -0.813723 255 255 0 61 18
-1.209000 -2.157960 -0.816723 255 255 0 61 18
-1.357805 -2.165431 -0.768723 255 255 0 61 18
-1.337830 -2.158031 -0.780723 255 255 0 61 18
-1.272954 -2.141399 -0.738723 255 255 0 61 18
-1.297935 -2.143489 -0.840723 255 255 0 61 18
-1.233740 -2.124254 -0.780723 255 255 0 61 18
-1.198854 -2.153140 -0.834723 255 255 0 61 18
-1.206332 -2.096344 -0.825723 255 255 0 61 18
-1.404231 -2.146289 -0.912723 255 255 0 61 18
-1.217562 -2.121560 -0.882723 255 255 0 61 18
-1.230320 -2.085110 -0.902830 255 255 0 61 18
-1.323764 -2.135141 -0.933723 255 255 0 61 18
-1.206543 -2.120834 -0.831723 255 255 0 61 18
-1.291801 -2.157919 -0.751652 255 255 0 61 18
-1.347568 -2.146130 -0.861723 255 255 0 61 18
-1.239625 -2.092334 -0.771723 255 255 0 61 18
-1.313221 -2.128829 -0.752907 255 255 0 61 18
-1.306289 -2.139504 -0.913245 255 255 0 61 18
-1.259369 -2.085071 -0.927723 255 255 0 61 18
-1.282194 -2.141578 -0.888723 255 255 0 61 18
-1.278754 -2.168686 -0.756723 255 255 0 61 18
-1.368178 -2.098798 -0.750723 255 255 0 61 18
-1.322709 -2.144608 -0.870723 255 255 0 61 18
-1.325293 -2.156934 -0.837723 255 255 0 61 18
-1.248956 -2.143929 -0.750723 255 255 0 61 18
-1.259458 -2.077903 -0.759723 255 255 0 61 18
-1.259877 -2.149369 -0.759723 255 255 0 61 18
-1.237060 -2.145680 -0.849723 255 255 0 61 18
-1.222253 -2.148165 -0.862544 255 255 0 61 18
-1.250438 -2.086968 -0.957723 255 255 0 61 18
-1.328552 -2.143238 -0.828723 255 255 0 61 18
-1.332574 -2.147734 -0.840723 255 255 0 61 18
-1.351846 -2.151825 -0.813723 255 255 0 61 18
-1.211751 -2.113189 -0.816723 255 255 0 61 18
-1.285932 -2.159166 -0.768409 255 255 0 61 18
-1.274634 -2.149300 -0.756247 255 255 0 61 18
-1.239238 -2.141498 -0.885723 255 255 0 61 18
-1.301923 -2.118963 -0.704616 255 255 0 61 18
-1.362397 -2.143747 -0.942723 255 255 0 61 18
-1.214492 -2.106877 -0.855723 255 255 0 61 18
-1.207524 -2.093024 -0.819723 255 255 0 61 18
-1.342989 -2.139019 -0.912723 255 255 0 61 18
-1.265646 -2.135875 -0.952883 255 255 0 61 18
-1.322444 -2.143362 -0.960723 255 255 0 61 18
-1.253095 -2.134542 -0.945723 255 255 0 61 18
-1.291369 -2.155885 -0.798723 255 255 0 61 18
-1.209140 -2.157087 -0.828723 255 255 0 61 18
-1.217078 -2.109395 -0.896282 255 255 0 61 18
-1.366841 -2.150223 -0.828723 255 255 0 61 18
-1.334803 -2.129359 -0.936723 255 255 0 61 18
-1.212708 -2.160977 -0.807723 255 255 0 61 18
-1.397233 -2.150845 -0.879723 255 255 0 61 18
-1.378297 -2.131979 -0.930723 255 255 0 61 18
-1.247337 -2.124432 -0.735723 255 255 0 61 18
-1.397441 -2.135464 -0.860534 255 255 0 61 18
-1.329762 -2.140650 -0.906723 255 255 0 61 18
-1.374157 -2.141356 -0.888723 255 255 0 61 18
-1.273348 -2.143256 -0.879723 255 255 0 61 18
-1.330133 -2.165107 -0.752794 255 255 0 61 18
-1.225811 -2.150476 -0.782525 255 255 0 61 18
-1.289122 -2.130886 -0.949683 255 255 0 61 18
-1.274264 -2.118709 -0.725828 255 255 0 61 18
-1.413246 -2.147440 -0.879723 255 255 0 61 18
-1.328293 -2.142020 -0.954723 255 255 0 61 18
-1.270891 -2.131693 -0.728882 255 255 0 61 18
-1.261840 -2.121349 -0.717723 255 255 0 61 18
-1.369082 -2.146343 -0.849723 255 255 0 61 18
-1.215712 -2.155690 -0.825723 255 255 0 61 18
-1.286825 -2.148937 -0.834723 255 255 0 61 18
-1.197454 -2.141169 -0.849723 255 255 0 61 18
-1.283437 -2.147429 -0.792062 255 255 0 61 18
-1.213032 -2.133641 -0.846723 255 255 0 61 18
-1.346620 -2.141666 -0.888723 255 255 0 61 18
-1.345030 -2.128202 -0.933723 255 255 0 61 18
-1.216216 -2.078907 -0.795723 255 255 0 61 18
-1.278714 -2.139637 -0.951723 255 255 0 61 18
-1.236254 -2.126787 -0.753723 255 255 0 61 18
-1.372610 -2.148510 -0.843723 255 255 0 61 18
-1.359139 -2.155874 -0.789723 255 255 0 61 18
-1.250790 -2.123698 -0.723981 255 255 0 61 18
-1.216599 -2.100296 -0.846723 255 255 0 61 18
-1.300874 -2.157316 -0.777723 255 255 0 61 18
-1.332637 -2.148031 -0.786723 255 255 0 61 18
-1.212572 -2.150223 -0.885723 255 255 0 61 18
-1.210408 -2.104678 -0.819723 255 255 0 61 18
-1.381642 -2.162147 -0.792723 255 255 0 61 18
-1.262488 -2.142680 -0.891723 255 255 0 61 18
-1.318848 -2.126446 -0.918723 255 255 0 61 18
-1.311425 -2.134810 -0.933723 255 255 0 61 18
-1.244324 -2.150995 -0.825723 255 255 0 61 18
-1.287204 -2.136293 -0.927723 255 255 0 61 18
-1.294459 -2.141567 -0.885723 255 255 0 61 18
-1.288252 -2.126794 -0.942723 255 255 0 61 18
-1.211208 -2.153919 -0.846723 255 255 0 61 18
-1.355989 -2.113605 -0.758090 255 255 0 61 18
-1.266542 -2.125659 -0.948723 255 255 0 61 18
-1.217590 -2.149157 -0.831723 255 255 0 61 18
-1.326749 -2.149194 -0.783723 255 255 0 61 18
-1.286575 -2.133332 -0.900723 255 255 0 61 18
-1.381069 -2.145078 -0.879723 255 255 0 61 18
-1.366115 -2.146811 -0.795723 255 255 0 61 18
-1.312303 -2.124509 -0.942723 255 255 0 61 18
-1.362221 -2.142917 -0.885723 255 255 0 61 18
-1.310797 -2.146291 -0.792723 255 255 0 61 18
-1.255512 -2.145916 -0.795723 255 255 0 61 18
-1.388263 -2.150002 -0.855723 255 255 0 61 18
-1.271421 -2.134183 -0.939723 255 255 0 61 18
-1.338137 -2.123533 -0.741723 255 255 0 61 18
-1.297804 -2.142875 -0.810723 255 255 0 61 18
-1.250101 -2.134887 -0.885723 255 255 0 61 18
-1.216171 -2.112654 -0.867723 255 255 0 61 18
-1.401183 -2.153071 -0.800280 255 255 0 61 18
-1.344165 -2.130124 -0.921723 255 255 0 61 18
-1.270139 -2.142589 -0.819723 255 255 0 61 18
-1.413759 -2.154521 -0.870723 255 255 0 61 18
-1.296568 -2.151487 -0.813723 255 255 0 61 18
-1.348515 -2.150583 -0.768723 255 255 0 61 18
-1.258477 -2.145439 -0.819723 255 255 0 61 18
-1.223217 -2.074353 -0.813723 255 255 0 61 18
-1.334919 -2.144340 -0.873723 255 255 0 61 18
-1.411937 -2.145945 -0.894723 255 255 0 61 18
-1.218003 -2.078527 -0.849723 255 255 0 61 18
-1.395417 -2.140376 -0.924723 255 255 0 61 18
-1.341835 -2.133587 -0.747723 255 255 0 61 18
-1.223702 -2.104919 -0.822723 255 255 0 61 18
-1.291760 -2.128875 -0.909723 255 255 0 61 18
-1.351882 -2.137570 -0.750723 255 255 0 61 18
-1.247112 -2.135254 -0.870723 255 255 0 61 18
-1.371176 -2.127333 -0.930723 255 255 0 61 18
-1.365931 -2.131516 -0.906723 255 255 0 61 18
-1.352977 -2.128288 -0.927723 255 255 0 61 18
-1.365318 -2.128630 -0.918723 255 255 0 61 18
-1.304772 -2.132368 -0.894723 255 255 0 61 18
-1.262000 -2.147583 -0.789723 255 255 0 61 18
-1.335336 -2.131871 -0.897723 255 255 0 61 18
-1.314361 -2.148623 -0.783723 255 255 0 61 18
-1.317289 -2.147970 -0.777723 255 255 0 61 18
-1.318786 -2.126152 -0.930723 255 255 0 61 18
-1.213650 -2.143860 -0.849723 255 255 0 61 18
-1.381454 -2.146828 -0.807723 255 255 0 61 18
-1.353591 -2.131178 -0.906723 255 255 0 61 18
-1.306633 -2.141122 -0.834723 255 255 0 61 18
-1.367195 -2.137460 -0.861723 255 255 0 61 18
-1.267859 -2.146291 -0.792723 255 255 0 61 18
-1.403013 -2.132823 -0.885723 255 255 0 61 18
-1.316545 -2.137324 -0.852723 255 255 0 61 18
-1.245425 -2.141749 -0.822723 255 255 0 61 18
-1.315419 -2.139172 -0.840723 255 255 0 61 18
-1.308328 -2.134670 -0.879723 255 255 0 61 18
-1.300561 -2.126985 -0.927723 255 255 0 61 18
-1.240739 -2.119700 -0.791168 255 255 0 61 18
-1.409491 -2.134439 -0.867723 255 255 0 61 18
-1.351251 -2.134596 -0.876723 255 255 0 61 18
-1.328832 -2.130126 -0.909723 255 255 0 61 18
-1.406562 -2.135089 -0.873723 255 255 0 61 18
-1.377717 -2.129246 -0.924723 255 255 0 61 18
-1.339523 -2.137138 -0.864723 255 255 0 61 18
-1.337817 -2.143541 -0.807723 255 255 0 61 18
-1.314793 -2.136225 -0.873723 255 255 0 61 18
-1.274349 -2.147960 -0.786723 255 255 0 61 18
-1.318151 -2.137594 -0.927723 255 255 0 61 18
-1.326008 -2.145700 -0.852723 255 255 0 61 18
-1.335051 -2.159386 -0.768723 255 255 0 61 18
-1.310830 -2.160868 -0.762723 255 255 0 61 18
-1.319136 -2.142230 -0.885723 255 255 0 61 18
-1.310182 -2.143394 -0.813723 255 255 0 61 18
-1.373513 -2.131350 -0.942723 255 255 0 61 18
-1.353691 -2.146081 -0.855723 255 255 0 61 18
-1.232211 -2.133781 -0.783723 255 255 0 61 18
-1.399266 -2.153478 -0.858723 255 255 0 61 18
-1.212523 -2.087965 -0.804723 255 255 0 61 18
-1.250798 -2.102226 -0.762723 255 255 0 61 18
-1.337575 -2.099118 -0.731545 255 255 0 61 18
-1.264838 -2.117645 -0.722086 255 255 0 61 18
