ply
format ascii 1.0
element vertex 1091
property float x
property float y
property float z
property uchar red
property uchar green
property uchar blue
property uchar semantic_label
property uchar instance_label
end_header
0.453049 0.050978 -0.064204 255 125 0 41 10
0.443756 0.148719 -0.051951 255 125 0 41 10
0.437390 0.080804 -0.086204 255 125 0 41 10
0.443126 0.005900 -0.078204 255 125 0 41 10
0.427694 0.121042 -0.142204 255 125 0 41 10
0.470020 0.026208 -0.144204 255 125 0 41 10
0.439769 0.133812 -0.074204 255 125 0 41 10
0.473599 0.072407 -0.156204 255 125 0 41 10
0.454802 0.011851 -0.120204 255 125 0 41 10
0.462890 0.009859 -0.078204 255 125 0 41 10
0.460756 0.050163 -0.094204 255 125 0 41 10
0.473602 -0.000149 -0.120204 255 125 0 41 10
0.460196 0.016829 -0.028204 255 125 0 41 10
0.434239 0.133429 -0.102204 255 125 0 41 10
0.466397 0.107935 -0.133014 255 125 0 41 10
0.445738 0.122172 -0.098204 255 125 0 41 10
0.438897 0.098409 -0.136204 255 125 0 41 10
0.450301 0.034088 -0.096204 255 125 0 41 10
0.457503 0.004528 -0.155138 255 125 0 41 10
0.442379 0.047901 -0.080204 255 125 0 41 10
0.438515 0.121723 -0.138204 255 125 0 41 10
0.438185 0.084963 -0.094204 255 125 0 41 10
0.462692 0.022316 -0.010204 255 125 0 41 10
0.455730 0.127950 -0.054204 255 125 0 41 10
0.429815 0.128572 -0.132204 255 125 0 41 10
0.455533 0.001118 -0.060204 255 125 0 41 10
0.457041 0.051728 -0.046204 255 125 0 41 10
0.460348 0.012123 -0.050204 255 125 0 41 10
0.459254 0.063561 -0.089125 255 125 0 41 10
0.459714 0.047130 -0.068204 255 125 0 41 10
0.464053 0.093122 -0.114204 255 125 0 41 10
0.448335 0.008649 -0.142204 255 125 0 41 10
0.463712 0.086391 -0.100204 255 125 0 41 10
0.446506 0.091706 -0.078204 255 125 0 41 10
0.447942 0.023969 -0.052204 255 125 0 41 10
0.467045 0.141056 -0.126204 255 125 0 41 10
0.464358 0.120402 -0.106204 255 125 0 41 10
0.463163 0.035900 -0.084204 255 125 0 41 10
0.438593 0.047776 -0.153199 255 125 0 41 10
0.439085 0.068627 -0.092204 255 125 0 41 10
0.440770 0.091546 -0.122204 255 125 0 41 10
0.455881 0.141719 -0.027244 255 125 0 41 10
0.438611 0.137832 -0.122204 255 125 0 41 10
0.450502 -0.007597 -0.149583 255 125 0 41 10
0.447325 0.061210 -0.094204 255 125 0 41 10
0.458933 0.103006 0.026733 255 125 0 41 10
0.471307 0.040437 -0.149050 255 125 0 41 10
0.458665 0.098542 -0.091188 255 125 0 41 10
0.460732 0.069636 -0.078204 255 125 0 41 10
0.432368 0.060608 -0.130204 255 125 0 41 10
0.469500 0.083049 -0.150204 255 125 0 41 10
0.465243 0.053175 -0.100204 255 125 0 41 10
0.444914 0.018724 -0.069479 255 125 0 41 10
0.429006 0.117975 -0.100204 255 125 0 41 10
0.432790 0.025724 -0.120205 255 125 0 41 10
0.452251 0.120720 -0.052204 255 125 0 41 10
0.469719 0.157687 -0.154204 255 125 0 41 10
0.465076 0.145646 -0.117400 255 125 0 41 10
0.467004 0.010589 -0.122204 255 125 0 41 10
0.430057 0.140991 -0.114204 255 125 0 41 10
0.448993 0.120292 -0.066204 255 125 0 41 10
0.472056 0.007672 -0.152204 255 125 0 41 10
0.462676 0.037489 -0.102204 255 125 0 41 10
0.460030 0.033091 -0.070204 255 125 0 41 10
0.430887 0.026823 -0.146204 255 125 0 41 10
0.449718 0.039044 -0.033938 255 125 0 41 10
0.436792 0.115790 -0.082204 255 125 0 41 10
0.463408 0.154756 -0.130204 255 125 0 41 10
0.440393 -0.005107 -0.114204 255 125 0 41 10
0.448587 0.133085 -0.072204 255 125 0 41 10
0.458939 0.068362 -0.066204 255 125 0 41 10
0.458881 0.082915 -0.072204 255 125 0 41 10
0.463776 -0.004606 -0.112204 255 125 0 41 10
0.468497 0.097484 -0.148204 255 125 0 41 10
0.439391 0.091195 -0.132204 255 125 0 41 10
0.453345 0.129326 -0.001531 255 125 0 41 10
0.446757 0.153914 -0.087188 255 125 0 41 10
0.437698 0.048293 -0.104204 255 125 0 41 10
0.434934 0.061437 -0.105643 255 125 0 41 10
0.444081 0.117281 -0.092204 255 125 0 41 10
0.455482 0.074977 0.025796 255 125 0 41 10
0.447666 0.027491 -0.102204 255 125 0 41 10
0.439155 -0.007974 -0.138204 255 125 0 41 10
0.461515 0.025305 -0.094204 255 125 0 41 10
0.429522 0.096892 -0.136204 255 125 0 41 10
0.462577 0.057023 -0.086204 255 125 0 41 10
0.456807 -0.000677 -0.100204 255 125 0 41 10
0.464828 0.065217 -0.098204 255 125 0 41 10
0.442013 0.037700 -0.122204 255 125 0 41 10
0.466981 0.146857 -0.152204 255 125 0 41 10
0.448593 0.013095 -0.108204 255 125 0 41 10
0.461224 0.142973 -0.094204 255 125 0 41 10
0.453914 0.034312 0.000831 255 125 0 41 10
0.430892 0.070438 -0.136204 255 125 0 41 10
0.441411 0.016656 -0.086204 255 125 0 41 10
0.458745 0.121590 -0.078204 255 125 0 41 10
0.439650 -0.006393 -0.126204 255 125 0 41 10
0.463646 0.047169 0.020736 255 125 0 41 10
0.436890 0.076473 -0.102204 255 125 0 41 10
0.459110 0.031312 0.012550 255 125 0 41 10
0.474936 0.033722 -0.152204 255 125 0 41 10
0.455163 0.116475 -0.034204 255 125 0 41 10
0.447624 0.083418 -0.036204 255 125 0 41 10
0.447876 0.102461 -0.070204 255 125 0 41 10
0.457620 0.039101 -0.056204 255 125 0 41 10
0.457269 0.076254 -0.038204 255 125 0 41 10
0.431163 0.084398 -0.128204 255 125 0 41 10
0.454590 0.117061 0.015796 255 125 0 41 10
0.441319 0.132497 -0.056204 255 125 0 41 10
0.476005 -0.011425 -0.154204 255 125 0 41 10
0.457802 0.037045 -0.044204 255 125 0 41 10
0.431528 -0.004461 -0.140204 255 125 0 41 10
0.453614 0.009792 -0.072204 255 125 0 41 10
0.441902 0.033507 -0.080204 255 125 0 41 10
0.470541 0.079110 -0.132204 255 125 0 41 10
0.434032 0.006531 -0.118204 255 125 0 41 10
0.433733 0.009013 -0.134204 255 125 0 41 10
0.433025 0.000185 -0.132204 255 125 0 41 10
0.477199 -0.004535 -0.136204 255 125 0 41 10
0.457891 0.110536 -0.072204 255 125 0 41 10
0.426077 0.078097 -0.149925 255 125 0 41 10
0.426663 0.117019 -0.114204 255 125 0 41 10
0.466059 0.078107 -0.110204 255 125 0 41 10
0.469646 0.057561 -0.125368 255 125 0 41 10
0.467412 0.058851 -0.114204 255 125 0 41 10
0.446202 0.084954 -0.048843 255 125 0 41 10
0.466540 0.050117 -0.108204 255 125 0 41 10
0.446987 0.010314 -0.048204 255 125 0 41 10
0.455460 0.096990 -0.078204 255 125 0 41 10
0.444111 0.005332 -0.070703 255 125 0 41 10
0.461890 0.105918 -0.108204 255 125 0 41 10
0.428853 0.081113 -0.140204 255 125 0 41 10
0.445803 0.050543 -0.058204 255 125 0 41 10
0.454730 0.103124 -0.042204 255 125 0 41 10
0.436209 0.113816 -0.114204 255 125 0 41 10
0.440652 0.141273 -0.064204 255 125 0 41 10
0.429436 0.163915 -0.149263 255 125 0 41 10
0.452623 0.116077 -0.046204 255 125 0 41 10
0.461378 0.039241 0.008853 255 125 0 41 10
0.443761 0.090981 -0.094204 255 125 0 41 10
0.453541 0.117666 0.003349 255 125 0 41 10
0.427693 0.114115 -0.154204 255 125 0 41 10
0.447309 0.045054 -0.098204 255 125 0 41 10
0.457034 0.145672 -0.072204 255 125 0 41 10
0.449166 0.082087 -0.082204 255 125 0 41 10
0.437397 0.057705 -0.151124 255 125 0 41 10
0.438805 0.126174 -0.120204 255 125 0 41 10
0.457876 0.033174 -0.006204 255 125 0 41 10
0.444518 0.132113 -0.098204 255 125 0 41 10
0.445100 0.069423 -0.100204 255 125 0 41 10
0.449613 0.074863 -0.084204 255 125 0 41 10
0.439768 0.127927 -0.110204 255 125 0 41 10
0.443048 0.017493 -0.142204 255 125 0 41 10
0.440325 0.046776 -0.139172 255 125 0 41 10
0.450199 0.017982 -0.094204 255 125 0 41 10
0.440667 0.055369 -0.082204 255 125 0 41 10
0.437825 0.036673 -0.154204 255 125 0 41 10
0.467746 0.035564 -0.126204 255 125 0 41 10
0.433905 0.071656 -0.108204 255 125 0 41 10
0.456130 0.086149 0.024870 255 125 0 41 10
0.437292 0.145522 -0.123301 255 125 0 41 10
0.435655 0.139539 -0.098204 255 125 0 41 10
0.440735 -0.004514 -0.096204 255 125 0 41 10
0.447005 0.098346 -0.085091 255 125 0 41 10
0.456722 0.113520 -0.064204 255 125 0 41 10
0.429305 0.123688 -0.126204 255 125 0 41 10
0.432525 -0.004146 -0.126204 255 125 0 41 10
0.429755 0.154492 -0.124204 255 125 0 41 10
0.454398 0.013248 -0.064204 255 125 0 41 10
0.464150 0.074591 -0.098204 255 125 0 41 10
0.432233 0.092760 -0.110204 255 125 0 41 10
0.439986 0.026188 -0.091612 255 125 0 41 10
0.452593 0.072025 -0.065197 255 125 0 41 10
0.453381 0.005390 -0.048204 255 125 0 41 10
0.441378 0.004599 -0.143160 255 125 0 41 10
0.447345 0.118935 -0.077189 255 125 0 41 10
0.445320 0.009252 -0.114204 255 125 0 41 10
0.464005 0.127791 -0.127157 255 125 0 41 10
0.471858 0.132494 -0.150204 255 125 0 41 10
0.462591 -0.003029 -0.074204 255 125 0 41 10
0.469368 0.131622 -0.136204 255 125 0 41 10
0.454541 0.149421 -0.044204 255 125 0 41 10
0.439865 0.083993 -0.136204 255 125 0 41 10
0.448986 0.153778 -0.076204 255 125 0 41 10
0.469274 0.140915 -0.157195 255 125 0 41 10
0.453966 0.110492 0.021796 255 125 0 41 10
0.455874 0.061706 -0.034204 255 125 0 41 10
0.455931 0.093192 -0.046204 255 125 0 41 10
0.441986 0.029652 -0.137176 255 125 0 41 10
0.445254 0.039313 -0.109179 255 125 0 41 10
0.436469 0.072097 -0.155173 255 125 0 41 10
0.436013 0.103308 -0.126204 255 125 0 41 10
0.458625 0.156301 -0.100204 255 125 0 41 10
0.428108 -0.008523 -0.156204 255 125 0 41 10
0.468482 0.065161 -0.138204 255 125 0 41 10
0.440872 0.063724 -0.120204 255 125 0 41 10
0.471158 0.022047 -0.126204 255 125 0 41 10
0.468216 0.088409 -0.122204 255 125 0 41 10
0.461008 0.114598 -0.086204 255 125 0 41 10
0.462163 -0.007401 -0.149650 255 125 0 41 10
0.459767 0.108450 -0.098204 255 125 0 41 10
0.468764 0.076032 -0.124204 255 125 0 41 10
0.464627 -0.011133 -0.156857 255 125 0 41 10
0.461704 0.079805 -0.086204 255 125 0 41 10
0.455687 0.141831 -0.066204 255 125 0 41 10
0.459503 0.007992 -0.141184 255 125 0 41 10
0.474725 0.066358 -0.152204 255 125 0 41 10
0.446164 0.054953 -0.106204 255 125 0 41 10
0.458437 0.140243 -0.036204 255 125 0 41 10
0.454613 0.135522 -0.013358 255 125 0 41 10
0.432785 0.120412 -0.150204 255 125 0 41 10
0.426524 0.112479 -0.136204 255 125 0 41 10
0.447807 0.000888 -0.090204 255 125 0 41 10
0.458414 -0.001894 -0.138204 255 125 0 41 10
0.449341 0.048500 -0.092204 255 125 0 41 10
0.460876 0.060315 0.023796 255 125 0 41 10
0.449771 -0.004864 -0.157105 255 125 0 41 10
0.458966 0.027064 -0.060204 255 125 0 41 10
0.436835 0.100730 -0.148204 255 125 0 41 10
0.460212 0.111505 0.013796 255 125 0 41 10
0.442522 0.126581 -0.060204 255 125 0 41 10
0.440915 0.011796 -0.092658 255 125 0 41 10
0.446406 0.045308 -0.052204 255 125 0 41 10
0.463457 0.006842 -0.110204 255 125 0 41 10
0.469538 0.065374 -0.126204 255 125 0 41 10
0.439520 0.114215 -0.066204 255 125 0 41 10
0.475426 0.005726 -0.146204 255 125 0 41 10
0.467651 0.024072 -0.134204 255 125 0 41 10
0.457808 0.094418 -0.066204 255 125 0 41 10
0.463298 0.106566 -0.116204 255 125 0 41 10
0.470991 0.093735 -0.140204 255 125 0 41 10
0.454081 0.126601 -0.008204 255 125 0 41 10
0.467450 0.035735 -0.134204 255 125 0 41 10
0.460306 0.021384 -0.017119 255 125 0 41 10
0.440963 0.041790 -0.084204 255 125 0 41 10
0.443259 0.118983 -0.054204 255 125 0 41 10
0.440000 0.150887 -0.070204 255 125 0 41 10
0.456524 0.074832 0.033796 255 125 0 41 10
0.453771 0.002064 -0.122717 255 125 0 41 10
0.448081 0.033061 -0.038204 255 125 0 41 10
0.435636 0.110653 -0.140204 255 125 0 41 10
0.446368 0.105240 -0.036204 255 125 0 41 10
0.448408 0.150651 -0.060204 255 125 0 41 10
0.442110 0.001868 -0.157203 255 125 0 41 10
0.474192 0.021434 -0.158204 255 125 0 41 10
0.466550 0.133249 -0.122204 255 125 0 41 10
0.464343 0.032377 -0.090204 255 125 0 41 10
0.444593 0.104357 -0.100204 255 125 0 41 10
0.443450 0.024188 -0.117183 255 125 0 41 10
0.438232 0.079149 -0.152204 255 125 0 41 10
0.454186 0.150784 -0.080204 255 125 0 41 10
0.441541 0.096882 -0.111192 255 125 0 41 10
0.451522 0.054169 -0.081184 255 125 0 41 10
0.444057 0.049240 -0.064964 255 125 0 41 10
0.456482 0.062760 -0.042204 255 125 0 41 10
0.432060 0.012289 -0.140204 255 125 0 41 10
0.440861 0.055704 -0.119183 255 125 0 41 10
0.431780 0.097899 -0.128204 255 125 0 41 10
0.458980 0.054482 0.027796 255 125 0 41 10
0.443526 0.063404 -0.068204 255 125 0 41 10
0.440151 -0.008549 -0.148204 255 125 0 41 10
0.437724 0.129108 -0.088204 255 125 0 41 10
0.441201 0.076293 -0.113167 255 125 0 41 10
0.468503 0.023581 -0.114504 255 125 0 41 10
0.464937 0.045405 -0.118204 255 125 0 41 10
0.454141 0.043419 0.019796 255 125 0 41 10
0.467474 0.121799 -0.126204 255 125 0 41 10
0.473144 0.002426 -0.132204 255 125 0 41 10
0.455378 0.028848 -0.067178 255 125 0 41 10
0.451856 0.006746 -0.064204 255 125 0 41 10
0.430697 0.110099 -0.100204 255 125 0 41 10
0.461556 0.029900 0.005796 255 125 0 41 10
0.467865 0.072446 -0.142204 255 125 0 41 10
0.452557 0.058190 -0.066204 255 125 0 41 10
0.453306 0.009259 -0.129140 255 125 0 41 10
0.461414 0.129286 -0.116204 255 125 0 41 10
0.458277 0.077868 -0.064204 255 125 0 41 10
0.425462 0.105031 -0.148204 255 125 0 41 10
0.465881 0.091039 -0.128204 255 125 0 41 10
0.429189 0.023184 -0.152204 255 125 0 41 10
0.436345 0.099881 -0.092555 255 125 0 41 10
0.456665 0.095078 0.022985 255 125 0 41 10
0.442547 0.144798 -0.104204 255 125 0 41 10
0.440186 0.104592 -0.132204 255 125 0 41 10
0.440854 0.064946 -0.080204 255 125 0 41 10
0.445866 0.110550 -0.084204 255 125 0 41 10
0.463063 0.040578 0.017796 255 125 0 41 10
0.448433 0.128819 -0.020204 255 125 0 41 10
0.438366 0.089478 -0.074204 255 125 0 41 10
0.443646 0.107213 -0.044204 255 125 0 41 10
0.428397 0.042116 -0.151457 255 125 0 41 10
0.465986 0.071221 -0.109059 255 125 0 41 10
0.458398 0.094078 0.030536 255 125 0 41 10
0.451707 0.130273 -0.032204 255 125 0 41 10
0.454565 0.014189 -0.025271 255 125 0 41 10
0.450962 0.022160 -0.006204 255 125 0 41 10
0.447756 -0.000354 -0.126204 255 125 0 41 10
0.437666 0.062168 -0.095589 255 125 0 41 10
0.464281 0.044268 -0.094204 255 125 0 41 10
0.465861 0.003006 -0.128204 255 125 0 41 10
0.463290 0.006551 -0.072204 255 125 0 41 10
0.432103 0.150829 -0.154204 255 125 0 41 10
0.452132 0.087227 -0.068204 255 125 0 41 10
0.472849 0.037237 -0.138204 255 125 0 41 10
0.440617 0.059282 -0.138204 255 125 0 41 10
0.439318 0.093546 -0.068204 255 125 0 41 10
0.443092 0.022086 -0.076204 255 125 0 41 10
0.434886 0.017585 -0.114204 255 125 0 41 10
0.468729 0.145848 -0.138204 255 125 0 41 10
0.459358 0.045026 -0.080204 255 125 0 41 10
0.432919 0.159595 -0.110204 255 125 0 41 10
0.452378 0.023652 -0.075259 255 125 0 41 10
0.438985 0.024456 -0.099280 255 125 0 41 10
0.441455 0.066909 -0.126204 255 125 0 41 10
0.471292 0.086634 -0.140204 255 125 0 41 10
0.465858 0.002999 -0.120204 255 125 0 41 10
0.437685 0.122202 -0.107193 255 125 0 41 10
0.467076 0.141110 -0.144204 255 125 0 41 10
0.440647 0.071994 -0.078204 255 125 0 41 10
0.439140 0.146765 -0.110204 255 125 0 41 10
0.437007 0.009029 -0.106204 255 125 0 41 10
0.439639 0.051792 -0.094204 255 125 0 41 10
0.444234 0.042211 -0.068204 255 125 0 41 10
0.463379 0.042705 -0.087462 255 125 0 41 10
0.445712 0.084105 -0.094204 255 125 0 41 10
0.457881 0.033184 -0.078204 255 125 0 41 10
0.467698 0.102187 -0.120204 255 125 0 41 10
0.465528 0.070430 -0.122204 255 125 0 41 10
0.461521 0.071490 0.030682 255 125 0 41 10
0.439402 0.069177 -0.142204 255 125 0 41 10
0.475122 0.007046 -0.158204 255 125 0 41 10
0.448477 0.129828 -0.006204 255 125 0 41 10
0.429488 0.120006 -0.157119 255 125 0 41 10
0.475894 0.012384 -0.149234 255 125 0 41 10
0.433031 0.147983 -0.104204 255 125 0 41 10
0.459722 0.014793 -0.042204 255 125 0 41 10
0.432469 0.065169 -0.118961 255 125 0 41 10
0.443412 0.120122 -0.104204 255 125 0 41 10
0.444686 0.142329 -0.094204 255 125 0 41 10
0.433387 0.046164 -0.110204 255 125 0 41 10
0.427345 0.084293 -0.152494 255 125 0 41 10
0.437650 0.108366 -0.106204 255 125 0 41 10
0.453803 0.015901 -0.014204 255 125 0 41 10
0.435613 0.126614 -0.098204 255 125 0 41 10
0.453596 0.004474 -0.088204 255 125 0 41 10
0.466133 0.011477 -0.096204 255 125 0 41 10
0.456764 0.015249 -0.096204 255 125 0 41 10
0.449842 0.011260 -0.037985 255 125 0 41 10
0.470663 0.153969 -0.148204 255 125 0 41 10
0.428948 0.092605 -0.142204 255 125 0 41 10
0.457770 0.008992 -0.107379 255 125 0 41 10
0.454494 0.133281 -0.080204 255 125 0 41 10
0.467096 0.113144 -0.124204 255 125 0 41 10
0.443663 0.141845 -0.046204 255 125 0 41 10
0.457507 0.056536 -0.076204 255 125 0 41 10
0.470443 0.030940 -0.122204 255 125 0 41 10
0.465967 0.011188 -0.115050 255 125 0 41 10
0.453215 0.154805 -0.068204 255 125 0 41 10
0.448603 0.021113 -0.046204 255 125 0 41 10
0.447667 0.065632 -0.044204 255 125 0 41 10
0.462417 0.161039 -0.117245 255 125 0 41 10
0.426436 0.158719 -0.155072 255 125 0 41 10
0.463510 0.028773 -0.104204 255 125 0 41 10
0.466134 0.155478 -0.142204 255 125 0 41 10
0.461249 0.059016 -0.100204 255 125 0 41 10
0.460538 0.039726 -0.070204 255 125 0 41 10
0.442083 -0.000426 -0.080204 255 125 0 41 10
0.455110 0.024384 -0.031662 255 125 0 41 10
0.446656 0.123951 -0.086204 255 125 0 41 10
0.454255 0.138902 -0.048204 255 125 0 41 10
0.462871 0.145826 -0.124204 255 125 0 41 10
0.441005 0.155953 -0.102204 255 125 0 41 10
0.446129 0.068829 -0.054510 255 125 0 41 10
0.446776 0.080003 -0.104204 255 125 0 41 10
0.445120 0.129456 -0.044204 255 125 0 41 10
0.434114 0.013412 -0.128204 255 125 0 41 10
0.459256 0.011565 -0.132204 255 125 0 41 10
0.460626 0.115885 -0.110204 255 125 0 41 10
0.431509 0.095505 -0.116204 255 125 0 41 10
0.440070 0.044614 -0.122204 255 125 0 41 10
0.470398 0.114862 -0.157142 255 125 0 41 10
0.464163 -0.003936 -0.157149 255 125 0 41 10
0.466227 0.117270 -0.136204 255 125 0 41 10
0.431718 0.007868 -0.145129 255 125 0 41 10
0.447159 0.138612 -0.028204 255 125 0 41 10
0.453935 0.135914 -0.062204 255 125 0 41 10
0.452230 0.103395 -0.064204 255 125 0 41 10
0.455970 0.000794 -0.044204 255 125 0 41 10
0.439470 0.077293 -0.123381 255 125 0 41 10
0.456536 0.076677 -0.078204 255 125 0 41 10
0.457305 0.013879 -0.084204 255 125 0 41 10
0.457589 0.089925 -0.080204 255 125 0 41 10
0.441916 -0.011876 -0.156204 255 125 0 41 10
0.472385 0.081383 -0.144204 255 125 0 41 10
0.466291 0.083750 -0.134204 255 125 0 41 10
0.468472 0.053620 -0.120204 255 125 0 41 10
0.470848 0.047643 -0.132204 255 125 0 41 10
0.468392 0.109092 -0.146204 255 125 0 41 10
0.450201 0.138070 -0.068204 255 125 0 41 10
0.429641 0.122227 -0.110204 255 125 0 41 10
0.421699 0.020580 -0.150204 255 125 0 41 10
0.456470 0.106738 -0.085201 255 125 0 41 10
0.463023 0.098089 -0.096204 255 125 0 41 10
0.472624 0.050719 -0.140204 255 125 0 41 10
0.451857 0.022751 -0.022204 255 125 0 41 10
0.469799 0.059782 -0.148204 255 125 0 41 10
0.454296 0.124158 -0.066204 255 125 0 41 10
0.426821 0.127386 -0.146204 255 125 0 41 10
0.434954 0.129473 -0.150204 255 125 0 41 10
0.432124 0.019180 -0.140204 255 125 0 41 10
0.444665 0.074293 -0.093140 255 125 0 41 10
0.449914 0.027384 -0.011176 255 125 0 41 10
0.443152 0.049763 -0.110204 255 125 0 41 10
0.438401 0.094076 -0.080204 255 125 0 41 10
0.460872 0.009511 -0.062204 255 125 0 41 10
0.450377 0.004186 -0.110204 255 125 0 41 10
0.445215 0.135245 -0.020204 255 125 0 41 10
0.449953 -0.000548 -0.146204 255 125 0 41 10
0.433130 0.046312 -0.131034 255 125 0 41 10
0.430333 0.154160 -0.116204 255 125 0 41 10
0.430084 0.135828 -0.128204 255 125 0 41 10
0.449155 0.018070 -0.034204 255 125 0 41 10
0.428583 0.106672 -0.110204 255 125 0 41 10
0.472644 0.032736 -0.158204 255 125 0 41 10
0.446134 0.034185 -0.062204 255 125 0 41 10
0.463182 0.150365 -0.110204 255 125 0 41 10
0.452534 0.032799 0.009796 255 125 0 41 10
0.463362 0.024238 -0.082204 255 125 0 41 10
0.425364 0.140862 -0.152045 255 125 0 41 10
0.454149 0.142719 -0.058195 255 125 0 41 10
0.446665 0.077757 -0.048628 255 125 0 41 10
0.438105 0.036512 -0.102204 255 125 0 41 10
0.425904 0.149798 -0.148204 255 125 0 41 10
0.431651 0.099751 -0.108204 255 125 0 41 10
0.455142 0.086719 -0.046204 255 125 0 41 10
0.448173 0.046864 -0.046204 255 125 0 41 10
0.400410 0.077640 -0.148204 255 125 0 41 10
0.456041 0.067725 -0.054204 255 125 0 41 10
0.465132 0.005742 -0.084204 255 125 0 41 10
0.467431 0.005724 -0.104857 255 125 0 41 10
0.455674 0.123362 -0.002204 255 125 0 41 10
0.477032 -0.005646 -0.158204 255 125 0 41 10
0.441867 0.101312 -0.068204 255 125 0 41 10
0.462410 0.005028 -0.150204 255 125 0 41 10
0.427826 0.157916 -0.142204 255 125 0 41 10
0.462122 0.068529 -0.086204 255 125 0 41 10
0.443470 0.098077 -0.056204 255 125 0 41 10
0.469772 0.105987 -0.138204 255 125 0 41 10
0.439178 0.148789 -0.076204 255 125 0 41 10
0.434345 0.096418 -0.097925 255 125 0 41 10
0.435077 0.093686 -0.157200 255 125 0 41 10
0.427632 0.148790 -0.135720 255 125 0 41 10
0.454955 0.108114 -0.046204 255 125 0 41 10
0.435154 0.035906 -0.122204 255 125 0 41 10
0.468471 -0.008474 -0.148204 255 125 0 41 10
0.461120 0.018605 -0.072204 255 125 0 41 10
0.441019 0.035978 -0.144204 255 125 0 41 10
0.433287 0.027746 -0.132204 255 125 0 41 10
0.466118 0.095450 -0.134204 255 125 0 41 10
0.448477 0.002810 -0.076204 255 125 0 41 10
0.451111 0.017456 -0.087160 255 125 0 41 10
0.444184 0.083809 -0.062204 255 125 0 41 10
0.429093 0.131320 -0.118204 255 125 0 41 10
0.438721 0.022300 -0.144204 255 125 0 41 10
0.444861 0.062632 -0.061918 255 125 0 41 10
0.431910 0.074729 -0.128204 255 125 0 41 10
0.458036 0.152021 -0.086204 255 125 0 41 10
0.433646 -0.004793 -0.157118 255 125 0 41 10
0.445570 0.119959 -0.048204 255 125 0 41 10
0.467083 0.042876 -0.128204 255 125 0 41 10
0.455986 0.073901 -0.052204 255 125 0 41 10
0.457549 0.046070 -0.074204 255 125 0 41 10
0.456398 0.090614 -0.058214 255 125 0 41 10
0.434001 -0.002689 -0.120204 255 125 0 41 10
0.455305 0.105101 -0.036204 255 125 0 41 10
0.458831 0.112303 -0.092204 255 125 0 41 10
0.432740 0.085797 -0.122204 255 125 0 41 10
0.456280 0.132250 -0.088204 255 125 0 41 10
0.442214 0.075708 -0.072204 255 125 0 41 10
0.464886 0.029318 -0.112204 255 125 0 41 10
0.452801 0.118093 -0.040204 255 125 0 41 10
0.435244 0.112065 -0.126204 255 125 0 41 10
0.435685 0.148760 -0.090204 255 125 0 41 10
0.439153 0.036745 -0.094204 255 125 0 41 10
0.455020 0.105265 -0.054204 255 125 0 41 10
0.431268 0.035088 -0.140204 255 125 0 41 10
0.436511 0.118260 -0.132204 255 125 0 41 10
0.446816 0.140024 -0.084204 255 125 0 41 10
0.454113 0.052673 -0.070204 255 125 0 41 10
0.448330 0.062940 -0.086204 255 125 0 41 10
0.449236 0.032395 -0.090204 255 125 0 41 10
0.458493 -0.001756 -0.126204 255 125 0 41 10
0.433130 0.046312 -0.157170 255 125 0 41 10
0.444311 0.023691 -0.130204 255 125 0 41 10
0.448077 0.009969 -0.120204 255 125 0 41 10
0.467116 -0.006822 -0.134204 255 125 0 41 10
0.455132 0.114438 0.009796 255 125 0 41 10
0.444518 0.088235 -0.106204 255 125 0 41 10
0.441303 0.002334 -0.088204 255 125 0 41 10
0.460771 0.014188 -0.091190 255 125 0 41 10
0.458488 0.061694 -0.066204 255 125 0 41 10
0.472091 0.045797 -0.156204 255 125 0 41 10
0.468480 -0.004119 -0.100204 255 125 0 41 10
0.427291 0.140199 -0.140204 255 125 0 41 10
0.454151 0.064198 0.027796 255 125 0 41 10
0.463012 0.119127 -0.100204 255 125 0 41 10
0.430473 0.147150 -0.110204 255 125 0 41 10
0.474805 0.026870 -0.148204 255 125 0 41 10
0.458939 0.026792 -0.046204 255 125 0 41 10
0.433533 0.025295 -0.156204 255 125 0 41 10
0.473228 -0.009169 -0.130204 255 125 0 41 10
0.442382 0.057137 -0.070204 255 125 0 41 10
0.432923 0.085691 -0.108204 255 125 0 41 10
0.452196 0.028376 0.001796 255 125 0 41 10
0.442620 -0.003045 -0.102204 255 125 0 41 10
0.433689 0.041370 -0.114204 255 125 0 41 10
0.440427 0.127547 -0.066204 255 125 0 41 10
0.433664 0.051237 -0.122204 255 125 0 41 10
0.454397 0.087150 0.031426 255 125 0 41 10
0.427501 0.093441 -0.148204 255 125 0 41 10
0.446914 0.002189 -0.058204 255 125 0 41 10
0.457897 0.055107 -0.062204 255 125 0 41 10
0.443734 0.096679 -0.090204 255 125 0 41 10
0.459123 0.040542 -0.064204 255 125 0 41 10
0.455307 0.114337 -0.058204 255 125 0 41 10
0.456796 0.046505 -0.054204 255 125 0 41 10
0.447991 0.010019 -0.134204 255 125 0 41 10
0.453933 0.094346 -0.033282 255 125 0 41 10
0.457562 0.018351 -0.066204 255 125 0 41 10
0.442762 0.133127 -0.050204 255 125 0 41 10
0.453068 0.067133 -0.060204 255 125 0 41 10
0.451717 0.028653 -0.080204 255 125 0 41 10
0.452054 0.011091 -0.114204 255 125 0 41 10
0.438387 0.149509 -0.118204 255 125 0 41 10
0.469288 0.164941 -0.150204 255 125 0 41 10
0.433791 0.122141 -0.142204 255 125 0 41 10
0.454184 0.082653 -0.034204 255 125 0 41 10
0.448234 0.030663 -0.050204 255 125 0 41 10
0.471002 0.067909 -0.132204 255 125 0 41 10
0.440156 0.060730 -0.132204 255 125 0 41 10
0.439437 0.081236 -0.072204 255 125 0 41 10
0.435114 0.086735 -0.088204 255 125 0 41 10
0.435859 0.159041 -0.140204 255 125 0 41 10
0.439354 0.031172 -0.150204 255 125 0 41 10
0.444531 0.110059 -0.092204 255 125 0 41 10
0.435008 0.107581 -0.090204 255 125 0 41 10
0.438186 0.140388 -0.078204 255 125 0 41 10
0.434764 0.153910 -0.104204 255 125 0 41 10
0.469920 0.015833 -0.136204 255 125 0 41 10
0.437521 0.097921 -0.142204 255 125 0 41 10
0.448152 0.123086 0.001796 255 125 0 41 10
0.437235 0.137424 -0.140204 255 125 0 41 10
0.442001 0.037678 -0.132204 255 125 0 41 10
0.441811 0.049350 -0.130204 255 125 0 41 10
0.429522 0.016064 -0.152296 255 125 0 41 10
0.468801 0.041883 -0.138204 255 125 0 41 10
0.456256 0.050367 -0.034204 255 125 0 41 10
0.462918 0.005908 -0.038204 255 125 0 41 10
0.461488 0.063431 -0.106204 255 125 0 41 10
0.453086 0.040878 0.013796 255 125 0 41 10
0.471673 0.053071 -0.152204 255 125 0 41 10
0.458386 0.091776 -0.090204 255 125 0 41 10
0.459488 0.130398 -0.002204 255 125 0 41 10
0.462639 0.156292 -0.108204 255 125 0 41 10
0.458914 0.082232 0.031796 255 125 0 41 10
0.455997 0.121920 0.011796 255 125 0 41 10
0.461817 0.024001 -0.100204 255 125 0 41 10
0.453270 0.005196 -0.056204 255 125 0 41 10
0.446499 0.025468 -0.058204 255 125 0 41 10
0.429380 0.117760 -0.128204 255 125 0 41 10
0.449438 0.126963 -0.012204 255 125 0 41 10
0.468311 0.141471 -0.132204 255 125 0 41 10
0.442436 0.008608 -0.130204 255 125 0 41 10
0.460448 0.101631 -0.086204 255 125 0 41 10
0.456832 0.127367 -0.060204 255 125 0 41 10
0.438931 0.016361 -0.154204 255 125 0 41 10
0.428542 0.154365 -0.130204 255 125 0 41 10
0.440370 0.042852 -0.090204 255 125 0 41 10
0.432062 0.053857 -0.116204 255 125 0 41 10
0.453872 0.108237 -0.068204 255 125 0 41 10
0.464640 0.100890 -0.126204 255 125 0 41 10
0.431249 0.091056 -0.128204 255 125 0 41 10
0.441147 0.100199 -0.104204 255 125 0 41 10
0.471841 -0.002636 -0.156204 255 125 0 41 10
0.446215 0.038758 -0.056204 255 125 0 41 10
0.454581 0.127467 -0.078204 255 125 0 41 10
0.459537 0.019519 -0.052204 255 125 0 41 10
0.446065 0.060717 -0.108204 255 125 0 41 10
0.435979 0.074689 -0.088204 255 125 0 41 10
0.427518 0.104594 -0.142204 255 125 0 41 10
0.444045 0.116221 -0.042204 255 125 0 41 10
0.450186 0.039855 -0.086204 255 125 0 41 10
0.461694 0.002108 -0.060204 255 125 0 41 10
0.467958 0.081630 -0.120204 255 125 0 41 10
0.472400 0.010330 -0.130204 255 125 0 41 10
0.446675 0.020016 -0.108204 255 125 0 41 10
0.456030 0.067732 -0.074204 255 125 0 41 10
0.433534 0.115013 -0.096204 255 125 0 41 10
0.459669 0.130294 -0.012204 255 125 0 41 10
0.450222 0.011919 -0.098204 255 125 0 41 10
0.468512 0.039741 -0.116204 255 125 0 41 10
0.447950 0.125514 -0.032204 255 125 0 41 10
0.448538 0.001000 -0.104204 255 125 0 41 10
0.430735 0.042164 -0.142204 255 125 0 41 10
0.462448 0.006291 -0.050204 255 125 0 41 10
0.435856 0.127034 -0.126204 255 125 0 41 10
0.438934 0.016366 -0.100204 255 125 0 41 10
0.454886 0.131996 -0.074204 255 125 0 41 10
0.450755 0.004840 -0.034204 255 125 0 41 10
0.431749 0.079922 -0.116204 255 125 0 41 10
0.452786 0.046511 -0.070204 255 125 0 41 10
0.450623 0.022356 -0.038204 255 125 0 41 10
0.469522 0.085346 -0.129157 255 125 0 41 10
0.436406 0.092918 -0.086204 255 125 0 41 10
0.458522 0.066293 0.032372 255 125 0 41 10
0.435450 0.010332 -0.123180 255 125 0 41 10
0.439042 0.158368 -0.092204 255 125 0 41 10
0.455055 0.130648 -0.038204 255 125 0 41 10
0.471348 0.054269 -0.132204 255 125 0 41 10
0.443021 0.093718 -0.100204 255 125 0 41 10
0.473359 -0.000008 -0.114178 255 125 0 41 10
0.468543 0.135652 -0.154204 255 125 0 41 10
0.426835 0.109991 -0.122204 255 125 0 41 10
0.452422 0.091728 -0.064204 255 125 0 41 10
0.464097 0.093097 -0.100204 255 125 0 41 10
0.435999 -0.008717 -0.112204 255 125 0 41 10
0.452921 0.034886 -0.070204 255 125 0 41 10
0.441861 0.043580 -0.134204 255 125 0 41 10
0.445661 0.006745 -0.062204 255 125 0 41 10
0.444234 -0.003978 -0.138204 255 125 0 41 10
0.469626 0.071429 -0.150204 255 125 0 41 10
0.468734 0.101966 -0.152204 255 125 0 41 10
0.454607 0.017746 -0.060204 255 125 0 41 10
0.462410 0.087142 -0.094204 255 125 0 41 10
0.456850 -0.000603 -0.086204 255 125 0 41 10
0.446961 0.068350 -0.106204 255 125 0 41 10
0.449469 0.124635 -0.080204 255 125 0 41 10
0.452398 0.083685 -0.063158 255 125 0 41 10
0.455410 0.000902 -0.066204 255 125 0 41 10
0.438965 -0.007864 -0.132204 255 125 0 41 10
0.443769 0.134855 -0.104204 255 125 0 41 10
0.454178 0.140392 -0.072204 255 125 0 41 10
0.435463 0.116556 -0.138204 255 125 0 41 10
0.446749 0.146991 -0.046204 255 125 0 41 10
0.460874 0.131908 -0.092204 255 125 0 41 10
0.458023 0.031940 -0.056204 255 125 0 41 10
0.447361 0.105069 -0.094204 255 125 0 41 10
0.454503 -0.000668 -0.157103 255 125 0 41 10
0.445770 -0.011793 -0.149747 255 125 0 41 10
0.450131 0.023760 -0.098204 255 125 0 41 10
0.441560 0.156915 -0.109170 255 125 0 41 10
0.447559 0.115305 -0.072204 255 125 0 41 10
0.442761 0.013039 -0.138204 255 125 0 41 10
0.445579 0.149976 -0.092204 255 125 0 41 10
0.447068 0.094454 -0.044204 255 125 0 41 10
0.441911 0.015839 -0.124204 255 125 0 41 10
0.461933 0.108202 0.022779 255 125 0 41 10
0.464039 0.023848 -0.088897 255 125 0 41 10
0.446998 0.040615 -0.102204 255 125 0 41 10
0.434737 0.036147 -0.110204 255 125 0 41 10
0.471461 0.114248 -0.144204 255 125 0 41 10
0.457812 0.121063 0.005796 255 125 0 41 10
0.460522 0.021260 -0.004204 255 125 0 41 10
0.457369 0.084296 -0.086204 255 125 0 41 10
0.459545 0.017205 -0.036204 255 125 0 41 10
0.450061 0.121985 -0.058204 255 125 0 41 10
0.458000 0.057357 -0.044204 255 125 0 41 10
0.465116 0.037083 -0.096204 255 125 0 41 10
0.465648 0.074635 -0.104204 255 125 0 41 10
0.450065 0.149695 -0.066204 255 125 0 41 10
0.463714 0.055287 -0.110204 255 125 0 41 10
0.449873 0.133640 -0.058204 255 125 0 41 10
0.455401 0.140887 -0.084204 255 125 0 41 10
0.467100 0.059031 -0.136204 255 125 0 41 10
0.455465 0.097000 -0.072204 255 125 0 41 10
0.430202 0.057241 -0.141136 255 125 0 41 10
0.458508 0.024731 0.003796 255 125 0 41 10
0.462938 0.041943 -0.106204 255 125 0 41 10
0.450378 0.028187 -0.086204 255 125 0 41 10
0.458872 0.040687 -0.084204 255 125 0 41 10
0.454470 0.007276 -0.144204 255 125 0 41 10
0.473641 0.092480 -0.152204 255 125 0 41 10
0.463537 0.088801 -0.118204 255 125 0 41 10
0.437424 0.025751 -0.106204 255 125 0 41 10
0.468148 0.066965 -0.118204 255 125 0 41 10
0.434544 0.114778 -0.150204 255 125 0 41 10
0.454236 0.144978 -0.048204 255 125 0 41 10
0.467195 0.149316 -0.128204 255 125 0 41 10
0.467327 0.135110 -0.146204 255 125 0 41 10
0.448728 0.105330 -0.082204 255 125 0 41 10
0.473900 0.016929 -0.142204 255 125 0 41 10
0.460151 0.074590 -0.090204 255 125 0 41 10
0.425688 0.034443 -0.150204 255 125 0 41 10
0.451182 0.033580 -0.032353 255 125 0 41 10
0.457216 0.100032 -0.064204 255 125 0 41 10
0.433092 -0.009753 -0.138204 255 125 0 41 10
0.443013 0.039432 -0.116204 255 125 0 41 10
0.441300 0.078546 -0.132204 255 125 0 41 10
0.472423 0.021317 -0.132204 255 125 0 41 10
0.455187 0.072518 -0.034204 255 125 0 41 10
0.458039 0.013456 -0.073326 255 125 0 41 10
0.472378 0.058293 -0.157120 255 125 0 41 10
0.430681 0.146071 -0.124204 255 125 0 41 10
0.469744 0.125730 -0.156204 255 125 0 41 10
0.455789 0.105560 0.017796 255 125 0 41 10
0.445664 0.056022 -0.056204 255 125 0 41 10
0.445236 0.013919 -0.060204 255 125 0 41 10
0.449329 0.136264 -0.016204 255 125 0 41 10
0.464157 0.037636 -0.110204 255 125 0 41 10
0.432718 0.009599 -0.157136 255 125 0 41 10
0.413915 0.077032 -0.152204 255 125 0 41 10
0.460073 0.012281 -0.056204 255 125 0 41 10
0.463254 0.070489 0.024823 255 125 0 41 10
0.451470 0.098077 0.024820 255 125 0 41 10
0.449334 0.152426 -0.052204 255 125 0 41 10
0.454468 0.052467 0.023796 255 125 0 41 10
0.439224 0.102838 -0.082204 255 125 0 41 10
0.470699 0.015384 -0.124522 255 125 0 41 10
0.465498 -0.000088 -0.082204 255 125 0 41 10
0.439552 0.085437 -0.078204 255 125 0 41 10
0.456914 0.039508 0.004810 255 125 0 41 10
0.443315 0.153592 -0.062204 255 125 0 41 10
0.455442 0.095784 -0.054204 255 125 0 41 10
0.434906 0.005390 -0.110204 255 125 0 41 10
0.459163 -0.012597 -0.154588 255 125 0 41 10
0.434118 0.160025 -0.152204 255 125 0 41 10
0.438565 0.159728 -0.128204 255 125 0 41 10
0.463008 0.149151 -0.104204 255 125 0 41 10
0.456662 0.043072 0.009796 255 125 0 41 10
0.477108 -0.006791 -0.142204 255 125 0 41 10
0.452491 0.069775 0.025796 255 125 0 41 10
0.452942 0.018707 -0.078204 255 125 0 41 10
0.464728 0.101042 -0.106204 255 125 0 41 10
0.438431 0.151793 -0.082204 255 125 0 41 10
0.471220 0.005846 -0.142204 255 125 0 41 10
0.448704 0.067343 -0.096204 255 125 0 41 10
0.449670 0.069094 -0.084204 255 125 0 41 10
0.437379 0.087737 -0.150204 255 125 0 41 10
0.441953 -0.004969 -0.108204 255 125 0 41 10
0.457718 0.022879 -0.078204 255 125 0 41 10
0.472028 0.100064 -0.144204 255 125 0 41 10
0.423809 0.070169 -0.148886 255 125 0 41 10
0.435370 0.144322 -0.144204 255 125 0 41 10
0.454149 0.142719 -0.033270 255 125 0 41 10
0.437933 0.066633 -0.147200 255 125 0 41 10
0.459590 0.054130 -0.090204 255 125 0 41 10
0.453870 0.026234 -0.016204 255 125 0 41 10
0.471630 0.014847 -0.152204 255 125 0 41 10
0.431918 0.097818 -0.122204 255 125 0 41 10
0.465317 0.060061 -0.128204 255 125 0 41 10
0.458693 0.052337 -0.082204 255 125 0 41 10
0.450061 0.127638 -0.068204 255 125 0 41 10
0.479512 -0.010489 -0.148204 255 125 0 41 10
0.442640 0.117032 -0.098204 255 125 0 41 10
0.462637 0.113421 -0.098204 255 125 0 41 10
0.473165 0.110955 -0.152204 255 125 0 41 10
0.435718 0.014795 -0.107587 255 125 0 41 10
0.429580 0.100164 -0.156204 255 125 0 41 10
0.460667 0.006010 -0.132204 255 125 0 41 10
0.440156 0.138483 -0.070204 255 125 0 41 10
0.442047 0.053759 -0.076204 255 125 0 41 10
0.466897 0.004799 -0.096204 255 125 0 41 10
0.435886 0.090909 -0.098204 255 125 0 41 10
0.431137 0.056700 -0.134204 255 125 0 41 10
0.456404 0.090610 -0.040204 255 125 0 41 10
0.445296 0.138592 -0.040204 255 125 0 41 10
0.439251 0.120917 -0.080204 255 125 0 41 10
0.436458 0.125219 -0.092204 255 125 0 41 10
0.437038 0.111029 -0.078204 255 125 0 41 10
0.459343 0.131716 -0.100204 255 125 0 41 10
0.443752 0.010157 -0.074204 255 125 0 41 10
0.470580 0.006215 -0.120204 255 125 0 41 10
0.458809 0.122791 -0.096204 255 125 0 41 10
0.469329 0.001011 -0.136204 255 125 0 41 10
0.447279 0.001192 -0.116204 255 125 0 41 10
0.473801 0.103660 -0.154204 255 125 0 41 10
0.444684 0.134326 -0.031357 255 125 0 41 10
0.438531 0.137879 -0.116204 255 125 0 41 10
0.441370 0.050793 -0.116204 255 125 0 41 10
0.435559 0.132667 -0.144204 255 125 0 41 10
0.440009 0.072363 -0.136204 255 125 0 41 10
0.455182 0.040509 -0.033248 255 125 0 41 10
0.448926 0.034883 -0.044204 255 125 0 41 10
0.465652 0.020607 -0.122204 255 125 0 41 10
0.439367 0.085116 -0.122204 255 125 0 41 10
0.456304 0.022453 -0.026204 255 125 0 41 10
0.456268 0.136876 -0.030204 255 125 0 41 10
0.455999 0.105924 -0.076204 255 125 0 41 10
0.464916 0.127264 -0.112204 255 125 0 41 10
0.464198 0.005281 -0.064204 255 125 0 41 10
0.433726 0.071371 -0.122204 255 125 0 41 10
0.469821 0.037865 -0.144204 255 125 0 41 10
0.436646 0.081232 -0.098204 255 125 0 41 10
0.425274 0.110892 -0.150204 255 125 0 41 10
0.431115 -0.009178 -0.148204 255 125 0 41 10
0.447776 0.077117 -0.036204 255 125 0 41 10
0.456032 0.137013 -0.040204 255 125 0 41 10
0.436469 0.072097 -0.096919 255 125 0 41 10
0.440447 -0.006410 -0.120204 255 125 0 41 10
0.424552 0.115928 -0.146204 255 125 0 41 10
0.473272 -0.006887 -0.124204 255 125 0 41 10
0.455967 -0.006133 -0.149236 255 125 0 41 10
0.449201 0.046151 -0.036204 255 125 0 41 10
0.425045 0.134118 -0.150204 255 125 0 41 10
0.472768 0.069614 -0.142204 255 125 0 41 10
0.455866 0.132490 -0.020204 255 125 0 41 10
0.457038 0.011724 -0.031327 255 125 0 41 10
0.450066 0.105817 -0.074204 255 125 0 41 10
0.471012 0.077557 -0.154204 255 125 0 41 10
0.434227 0.154220 -0.150204 255 125 0 41 10
0.446487 0.031672 -0.108204 255 125 0 41 10
0.460527 -0.002234 -0.096204 255 125 0 41 10
-0.082339 0.071409 -0.066204 0 0 255 45 11
-0.049013 0.015217 -0.157165 0 0 255 45 11
-0.105896 0.061916 -0.138204 0 0 255 45 11
-0.085518 0.003988 -0.094204 0 0 255 45 11
-0.042812 0.045956 -0.104204 0 0 255 45 11
-0.051870 0.021486 -0.058204 0 0 255 45 11
-0.099744 0.011349 -0.148204 0 0 255 45 11
-0.111522 0.030948 -0.062204 0 0 255 45 11
-0.052624 0.058872 -0.146204 0 0 255 45 11
-0.114045 0.036598 -0.104204 0 0 255 45 11
-0.054680 0.011562 -0.118204 0 0 255 45 11
-0.047825 0.057275 -0.068204 0 0 255 45 11
-0.085261 0.008433 -0.059393 0 0 255 45 11
-0.100142 0.066658 -0.096204 0 0 255 45 11
-0.078921 0.039414 -0.067128 0 0 255 45 11
-0.058520 0.020707 -0.088204 0 0 255 45 11
-0.083408 0.003642 -0.124204 0 0 255 45 11
-0.061654 0.073323 -0.089074 0 0 255 45 11
-0.106705 0.039290 -0.157194 0 0 255 45 11
-0.042627 0.034625 -0.132204 0 0 255 45 11
-0.107665 0.058319 -0.070204 0 0 255 45 11
-0.104409 0.033344 -0.130204 0 0 255 45 11
-0.073584 0.004001 -0.152204 0 0 255 45 11
-0.106289 0.018264 -0.086204 0 0 255 45 11
-0.102926 0.014012 -0.112204 0 0 255 45 11
-0.053339 0.061594 -0.120204 0 0 255 45 11
-0.042348 0.034761 -0.076204 0 0 255 45 11
-0.064660 0.005777 -0.070204 0 0 255 45 11
-0.049404 0.038538 -0.159178 0 0 255 45 11
-0.104044 0.053918 -0.116204 0 0 255 45 11
-0.113153 0.040702 -0.082204 0 0 255 45 11
-0.059516 0.018973 -0.138204 0 0 255 45 11
-0.061178 0.074147 -0.062204 0 0 255 45 11
-0.045063 0.024484 -0.104204 0 0 255 45 11
-0.066394 0.005111 -0.102204 0 0 255 45 11
-0.059065 0.041806 -0.060510 0 0 255 45 11
-0.050519 0.056608 -0.088204 0 0 255 45 11
-0.100634 0.065806 -0.157105 0 0 255 45 11
-0.103224 0.013320 -0.066204 0 0 255 45 11
-0.096797 0.045116 -0.060204 0 0 255 45 11
-0.095413 0.070849 -0.124204 0 0 255 45 11
-0.071065 0.021021 -0.059511 0 0 255 45 11
-0.071346 0.056535 -0.062204 0 0 255 45 11
-0.091075 0.026363 -0.060204 0 0 255 45 11
-0.096629 0.072730 -0.078204 0 0 255 45 11
-0.088982 0.013988 -0.078204 0 0 255 45 11
-0.094221 0.016915 -0.130204 0 0 255 45 11
-0.112634 0.045021 -0.140805 0 0 255 45 11
-0.110242 0.025165 -0.144939 0 0 255 45 11
-0.069046 0.004519 -0.134204 0 0 255 45 11
-0.111061 0.051746 -0.096204 0 0 255 45 11
-0.075636 0.079086 -0.080204 0 0 255 45 11
-0.083261 0.011897 -0.109184 0 0 255 45 11
-0.050404 0.036806 -0.117208 0 0 255 45 11
-0.050182 0.015893 -0.074204 0 0 255 45 11
-0.046145 0.052184 -0.132204 0 0 255 45 11
-0.049469 0.036266 -0.092204 0 0 255 45 11
-0.100834 0.025459 -0.100204 0 0 255 45 11
-0.072427 0.012570 -0.084204 0 0 255 45 11
-0.095366 0.062930 -0.060204 0 0 255 45 11
-0.043745 0.028342 -0.147684 0 0 255 45 11
-0.084122 0.012395 -0.142204 0 0 255 45 11
-0.050467 0.060698 -0.104204 0 0 255 45 11
-0.101560 0.028202 -0.074204 0 0 255 45 11
-0.052863 0.070557 -0.076204 0 0 255 45 11
-0.093653 0.017897 -0.161178 0 0 255 45 11
-0.065136 0.015289 -0.159167 0 0 255 45 11
-0.043426 0.044893 -0.146204 0 0 255 45 11
-0.111510 0.026967 -0.116204 0 0 255 45 11
-0.069078 0.004465 -0.118204 0 0 255 45 11
-0.059503 0.018965 -0.104204 0 0 255 45 11
-0.114472 0.046082 -0.062204 0 0 255 45 11
-0.112896 0.044568 -0.124204 0 0 255 45 11
-0.044160 0.040129 -0.062204 0 0 255 45 11
-0.078879 0.003487 -0.074204 0 0 255 45 11
-0.108263 0.054045 -0.152204 0 0 255 45 11
-0.047482 0.021262 -0.128204 0 0 255 45 11
-0.100442 0.010140 -0.098204 0 0 255 45 11
-0.103859 0.058431 -0.084204 0 0 255 45 11
-0.060209 0.007825 -0.148135 0 0 255 45 11
-0.045000 0.050169 -0.118204 0 0 255 45 11
-0.099156 0.068366 -0.110204 0 0 255 45 11
-0.057249 0.026901 -0.158204 0 0 255 45 11
-0.104024 0.031934 -0.088204 0 0 255 45 11
-0.056994 0.061395 -0.058376 0 0 255 45 11
-0.063333 0.030413 -0.067128 0 0 255 45 11
-0.066814 0.069374 -0.076204 0 0 255 45 11
-0.104706 0.042753 -0.071178 0 0 255 45 11
-0.107578 0.019009 -0.132204 0 0 255 45 11
-0.045446 0.024706 -0.086204 0 0 255 45 11
-0.088450 0.006911 -0.154204 0 0 255 45 11
-0.047935 0.046927 -0.078204 0 0 255 45 11
-0.059975 0.007691 -0.084204 0 0 255 45 11
-0.099083 0.024493 -0.120204 0 0 255 45 11
-0.105865 0.038804 -0.114204 0 0 255 45 11
-0.101183 0.026863 -0.154204 0 0 255 45 11
-0.071869 0.007629 -0.059526 0 0 255 45 11
-0.095176 0.007260 -0.120204 0 0 255 45 11
-0.064247 0.014775 -0.126204 0 0 255 45 11
-0.053724 0.024865 -0.114204 0 0 255 45 11
-0.080725 0.024289 -0.067178 0 0 255 45 11
-0.092452 0.015978 -0.090204 0 0 255 45 11
-0.053173 0.028012 -0.076204 0 0 255 45 11
-0.098718 0.023130 -0.140204 0 0 255 45 11
-0.062268 0.018252 -0.070204 0 0 255 45 11
-0.104928 0.054428 -0.058204 0 0 255 45 11
-0.083140 0.060107 -0.060204 0 0 255 45 11
-0.105061 0.052196 -0.130204 0 0 255 45 11
-0.093576 0.006032 -0.136204 0 0 255 45 11
-0.075180 0.011850 -0.096204 0 0 255 45 11
-0.084242 0.070199 -0.078311 0 0 255 45 11
-0.052176 0.029740 -0.138204 0 0 255 45 11
-0.056349 0.010216 -0.096204 0 0 255 45 11
-0.072549 0.078451 -0.064204 0 0 255 45 11
-0.112019 0.049285 -0.108204 0 0 255 45 11
-0.044744 0.026610 -0.066628 0 0 255 45 11
-0.059756 0.052609 -0.066204 0 0 255 45 11
-0.105646 0.059463 -0.104204 0 0 255 45 11
-0.049121 0.017590 -0.144204 0 0 255 45 11
-0.093286 0.006535 -0.068204 0 0 255 45 11
-0.105131 0.036071 -0.144204 0 0 255 45 11
-0.043793 0.046846 -0.090204 0 0 255 45 11
-0.069723 0.013318 -0.110204 0 0 255 45 11
-0.093769 0.006417 -0.108204 0 0 255 45 11
-0.078305 0.012481 -0.130204 0 0 255 45 11
-0.060014 0.012332 -0.060204 0 0 255 45 11
-0.074180 0.013582 -0.070204 0 0 255 45 11
-0.090687 0.036969 -0.066204 0 0 255 45 11
-0.098852 0.008893 -0.082204 0 0 255 45 11
-0.049488 0.036277 -0.104204 0 0 255 45 11
-0.102314 0.022897 -0.059470 0 0 255 45 11
-0.113136 0.032152 -0.074204 0 0 255 45 11
-0.106210 0.040148 -0.096204 0 0 255 45 11
-0.081626 0.002728 -0.136204 0 0 255 45 11
-0.050811 0.068102 -0.088204 0 0 255 45 11
-0.071850 0.067662 -0.059383 0 0 255 45 11
-0.049601 0.050198 -0.059360 0 0 255 45 11
-0.103422 0.062796 -0.126204 0 0 255 45 11
-0.043173 0.028012 -0.118204 0 0 255 45 11
-0.076067 0.003125 -0.108204 0 0 255 45 11
-0.070659 0.011549 -0.144204 0 0 255 45 11
-0.055911 0.009963 -0.132204 0 0 255 45 11
-0.069993 0.038878 -0.060013 0 0 255 45 11
-0.111342 0.051203 -0.078204 0 0 255 45 11
-0.109740 0.022034 -0.106204 0 0 255 45 11
-0.092653 0.019629 -0.069181 0 0 255 45 11
-0.098170 0.062074 -0.074927 0 0 255 45 11
-0.059534 0.018983 -0.150204 0 0 255 45 11
-0.110344 0.024988 -0.094204 0 0 255 45 11
-0.113776 0.035044 -0.136204 0 0 255 45 11
-0.052219 0.035544 -0.068204 0 0 255 45 11
-0.052529 0.061127 -0.131166 0 0 255 45 11
-0.094211 0.016930 -0.104204 0 0 255 45 11
-0.050333 0.052930 -0.155158 0 0 255 45 11
-0.052748 0.026611 -0.096204 0 0 255 45 11
-0.075887 0.003021 -0.088204 0 0 255 45 11
-0.057997 0.008857 -0.108204 0 0 255 45 11
-0.048134 0.042424 -0.126204 0 0 255 45 11
-0.053494 0.059455 -0.078204 0 0 255 45 11
-0.100778 0.033557 -0.060302 0 0 255 45 11
-0.049228 0.040746 -0.138204 0 0 255 45 11
-0.057725 0.064127 -0.069185 0 0 255 45 11
-0.078458 0.032217 -0.059290 0 0 255 45 11
-0.085529 0.003969 -0.083575 0 0 255 45 11
-0.097964 0.054430 -0.066204 0 0 255 45 11
-0.092730 0.071495 -0.068204 0 0 255 45 11
-0.102824 0.014013 -0.124204 0 0 255 45 11
-0.113603 0.034034 -0.124204 0 0 255 45 11
-0.105088 0.052211 -0.142204 0 0 255 45 11
-0.107148 0.018760 -0.074204 0 0 255 45 11
-0.096637 0.020731 -0.080204 0 0 255 45 11
-0.103320 0.029152 -0.110204 0 0 255 45 11
-0.065675 0.014358 -0.092204 0 0 255 45 11
-0.102366 0.011380 -0.138204 0 0 255 45 11
-0.114496 0.037798 -0.148204 0 0 255 45 11
-0.056533 0.024179 -0.124204 0 0 255 45 11
-0.049380 0.052381 -0.098204 0 0 255 45 11
-0.048927 0.031366 -0.058204 0 0 255 45 11
-0.078316 0.012464 -0.118204 0 0 255 45 11
-0.082772 0.012746 -0.088204 0 0 255 45 11
-0.092789 0.017398 -0.116204 0 0 255 45 11
-0.095654 0.014433 -0.059393 0 0 255 45 11
-0.063271 0.016521 -0.080204 0 0 255 45 11
-0.050583 0.016124 -0.108204 0 0 255 45 11
-0.070457 0.046074 -0.067151 0 0 255 45 11
-0.083676 0.002899 -0.146204 0 0 255 45 11
-0.110793 0.030102 -0.154204 0 0 255 45 11
-0.106702 0.047296 -0.088204 0 0 255 45 11
-0.104963 0.068305 -0.082204 0 0 255 45 11
-0.084534 0.013694 -0.068204 0 0 255 45 11
-0.042517 0.032252 -0.098204 0 0 255 45 11
-0.041731 0.036417 -0.112204 0 0 255 45 11
-0.048924 0.017475 -0.092204 0 0 255 45 11
-0.087265 0.012962 -0.124204 0 0 255 45 11
-0.087257 0.012977 -0.098204 0 0 255 45 11
-0.051553 0.054817 -0.112204 0 0 255 45 11
-0.069335 0.004018 -0.080204 0 0 255 45 11
-0.085688 0.003694 -0.114204 0 0 255 45 11
-0.042929 0.048656 -0.068204 0 0 255 45 11
-0.045570 0.065179 -0.080204 0 0 255 45 11
-0.051174 0.031474 -0.128204 0 0 255 45 11
-0.049524 0.036298 -0.148204 0 0 255 45 11
-0.113436 0.033938 -0.090204 0 0 255 45 11
-0.105593 0.043266 -0.134204 0 0 255 45 11
-0.103235 0.062688 -0.148204 0 0 255 45 11
-0.042042 0.034288 -0.086204 0 0 255 45 11
-0.111575 0.026857 -0.082204 0 0 255 45 11
-0.105687 0.017917 -0.152204 0 0 255 45 11
-0.080261 0.017094 -0.060237 0 0 255 45 11
-0.061137 0.022218 -0.060433 0 0 255 45 11
-0.059262 0.065464 -0.084204 0 0 255 45 11
-0.063745 0.005248 -0.126204 0 0 255 45 11
-0.067224 0.004947 -0.092204 0 0 255 45 11
-0.105140 0.036076 -0.078204 0 0 255 45 11
-0.088819 0.046270 -0.066204 0 0 255 45 11
-0.047713 0.029469 -0.156204 0 0 255 45 11
-0.074451 0.073784 -0.072204 0 0 255 45 11
-0.106452 0.059927 -0.094204 0 0 255 45 11
-0.041386 0.038528 -0.154204 0 0 255 45 11
-0.054095 0.064340 -0.096204 0 0 255 45 11
-0.085730 0.003621 -0.104204 0 0 255 45 11
-0.056972 0.009431 -0.074204 0 0 255 45 11
-0.041528 0.044182 -0.134204 0 0 255 45 11
-0.048977 0.051278 -0.142204 0 0 255 45 11
-0.113816 0.041085 -0.070204 0 0 255 45 11
-0.090713 0.014989 -0.150204 0 0 255 45 11
-0.074339 0.003352 -0.126204 0 0 255 45 11
-0.092452 0.015978 -0.140204 0 0 255 45 11
-0.077914 0.011120 -0.156204 0 0 255 45 11
-0.072001 0.027401 -0.066204 0 0 255 45 11
-0.050071 0.065383 -0.064204 0 0 255 45 11
-0.062931 0.015109 -0.116204 0 0 255 45 11
-0.052765 0.026622 -0.148204 0 0 255 45 11
-0.094364 0.006760 -0.092204 0 0 255 45 11
-0.114792 0.039339 -0.116204 0 0 255 45 11
-0.110681 0.062369 -0.078204 0 0 255 45 11
-0.051723 0.044495 -0.066204 0 0 255 45 11
-0.066985 0.014047 -0.136204 0 0 255 45 11
-0.103863 0.063051 -0.116204 0 0 255 45 11
-0.105813 0.032837 -0.102204 0 0 255 45 11
-0.069386 0.063930 -0.067326 0 0 255 45 11
-0.103366 0.065074 -0.064001 0 0 255 45 11
-0.111517 0.026958 -0.130204 0 0 255 45 11
-0.107421 0.044321 -0.148204 0 0 255 45 11
-0.076768 0.003143 -0.098204 0 0 255 45 11
-0.074265 0.003479 -0.142204 0 0 255 45 11
-0.105597 0.043268 -0.106204 0 0 255 45 11
-0.042224 0.036702 -0.142204 0 0 255 45 11
-0.042352 0.036775 -0.122204 0 0 255 45 11
-0.084229 0.078219 -0.074204 0 0 255 45 11
-0.051789 0.014512 -0.084204 0 0 255 45 11
-0.087974 0.067734 -0.058496 0 0 255 45 11
-0.100506 0.024164 -0.130204 0 0 255 45 11
-0.105707 0.041022 -0.059789 0 0 255 45 11
-0.051166 0.031487 -0.084204 0 0 255 45 11
-0.089242 0.061538 -0.066593 0 0 255 45 11
-0.088293 0.077156 -0.082204 0 0 255 45 11
-0.105665 0.017093 -0.096204 0 0 255 45 11
-0.104041 0.031906 -0.120204 0 0 255 45 11
-0.053499 0.013189 -0.066204 0 0 255 45 11
-0.066149 0.049537 -0.060204 0 0 255 45 11
-0.048093 0.019305 -0.118204 0 0 255 45 11
-0.048618 0.043901 -0.112204 0 0 255 45 11
-0.078333 0.004433 -0.065439 0 0 255 45 11
-0.108171 0.020752 -0.122204 0 0 255 45 11
-0.108839 0.023596 -0.066204 0 0 255 45 11
-0.057869 0.031878 -0.060433 0 0 255 45 11
-0.100531 0.024177 -0.090204 0 0 255 45 11
-0.098388 0.021695 -0.110204 0 0 255 45 11
-0.048209 0.042467 -0.098204 0 0 255 45 11
-0.049260 0.040764 -0.084204 0 0 255 45 11
-0.044438 0.026433 -0.136204 0 0 255 45 11
-0.044308 0.026358 -0.076204 0 0 255 45 11
-0.098480 0.027612 -0.066204 0 0 255 45 11
-0.055458 0.025867 -0.068204 0 0 255 45 11
-0.061736 0.006397 -0.138204 0 0 255 45 11
-0.110005 0.052742 -0.122204 0 0 255 45 11
-0.087671 0.004259 -0.074204 0 0 255 45 11
-0.049783 0.053882 -0.124204 0 0 255 45 11
