ply
format ascii 1.0
element vertex 1100
property float x
property float y
property float z
property uchar red
property uchar green
property uchar blue
property uchar semantic_label
property uchar instance_label
end_header
0.034208 0.109702 0.395341 255 255 0 63 15
0.060773 0.156135 0.427340 255 255 0 63 15
-0.056260 0.126631 0.279340 255 255 0 63 15
0.131246 0.148792 0.293341 255 255 0 63 15
-0.072106 0.184968 0.299340 255 255 0 63 15
0.023968 0.067675 0.309340 255 255 0 63 15
0.135055 0.136904 0.259340 255 255 0 63 15
-0.005751 0.073510 0.277340 255 255 0 63 15
0.073095 0.084206 0.235340 255 255 0 63 15
0.058258 0.093544 0.319519 255 255 0 63 15
-0.062345 0.245064 0.277340 255 255 0 63 15
-0.050865 0.102211 0.249340 255 255 0 63 15
0.059131 0.080552 0.285340 255 255 0 63 15
0.137882 0.180351 0.285340 255 255 0 63 15
0.083040 0.079512 0.305340 255 255 0 63 15
-0.029096 0.214578 0.406941 255 255 0 63 15
-0.062394 0.173162 0.319968 255 255 0 63 15
-0.020978 0.139865 0.316367 255 255 0 63 15
0.140199 0.152055 0.233340 255 255 0 63 15
-0.027418 0.096589 0.293341 255 255 0 63 15
-0.037968 0.090521 0.299340 255 255 0 63 15
0.054498 0.070338 0.213340 255 255 0 63 15
0.099146 0.166191 0.325340 255 255 0 63 15
-0.082107 0.192642 0.265341 255 255 0 63 15
-0.075676 0.217926 0.241340 255 255 0 63 15
0.018886 0.077488 0.294327 255 255 0 63 15
-0.065513 0.145676 0.307340 255 255 0 63 15
-0.049620 0.185686 0.316545 255 255 0 63 15
-0.026256 0.236868 0.339341 255 255 0 63 15
-0.080095 0.200410 0.237341 255 255 0 63 15
0.110225 0.232178 0.320397 255 255 0 63 15
-0.060561 0.135482 0.273340 255 255 0 63 15
0.106086 0.161685 0.317340 255 255 0 63 15
0.058016 0.197275 0.448433 255 255 0 63 15
0.018394 0.155921 0.451964 255 255 0 63 15
0.007201 0.080413 0.277340 255 255 0 63 15
0.094937 0.157064 0.406792 255 255 0 63 15
0.122853 0.130530 0.251340 255 255 0 63 15
-0.043003 0.192618 0.385341 255 255 0 63 15
0.029968 0.078955 0.209341 255 255 0 63 15
0.106298 0.106616 0.265341 255 255 0 63 15
0.046173 0.255027 0.407340 255 255 0 63 15
-0.012299 0.122070 0.316555 255 255 0 63 15
0.027196 0.120052 0.351340 255 255 0 63 15
-0.042128 0.204258 0.325340 255 255 0 63 15
0.041240 0.245356 0.405340 255 255 0 63 15
0.077979 0.169248 0.404499 255 255 0 63 15
0.076877 0.218279 0.449340 255 255 0 63 15
0.005661 0.180372 0.443340 255 255 0 63 15
0.029073 0.119361 0.365340 255 255 0 63 15
0.140634 0.173058 0.319295 255 255 0 63 15
0.134549 0.158231 0.215340 255 255 0 63 15
-0.037769 0.158673 0.387340 255 255 0 63 15
0.111699 0.101314 0.255340 255 255 0 63 15
-0.080717 0.164665 0.237341 255 255 0 63 15
0.047820 0.069640 0.273340 255 255 0 63 15
0.065948 0.103588 0.316534 255 255 0 63 15
0.015104 0.078790 0.236340 255 255 0 63 15
-0.070297 0.230072 0.213340 255 255 0 63 15
-0.029798 0.230969 0.355340 255 255 0 63 15
0.028233 0.159923 0.447340 255 255 0 63 15
0.018021 0.238545 0.407340 255 255 0 63 15
0.066340 0.117015 0.387340 255 255 0 63 15
-0.003273 0.203571 0.451629 255 255 0 63 15
-0.043406 0.181431 0.345340 255 255 0 63 15
0.110966 0.179043 0.368394 255 255 0 63 15
0.049749 0.160978 0.413341 255 255 0 63 15
-0.080426 0.168795 0.259340 255 255 0 63 15
-0.053094 0.255456 0.255340 255 255 0 63 15
-0.013241 0.226041 0.407340 255 255 0 63 15
-0.029774 0.274039 0.316651 255 255 0 63 15
-0.057471 0.129162 0.293341 255 255 0 63 15
-0.054373 0.122737 0.239340 255 255 0 63 15
-0.033007 0.172503 0.317340 255 255 0 63 15
0.062880 0.082395 0.237341 255 255 0 63 15
0.076054 0.102224 0.320374 255 255 0 63 15
0.143175 0.174297 0.211037 255 255 0 63 15
-0.043115 0.223009 0.319340 255 255 0 63 15
0.002608 0.193085 0.429340 255 255 0 63 15
0.079005 0.209085 0.404344 255 255 0 63 15
-0.021226 0.148411 0.363340 255 255 0 63 15
0.132700 0.226555 0.275340 255 255 0 63 15
-0.000535 0.128596 0.369340 255 255 0 63 15
-0.032700 0.148132 0.369340 255 255 0 63 15
0.059642 0.114221 0.375340 255 255 0 63 15
0.044183 0.077239 0.266366 255 255 0 63 15
-0.053555 0.235691 0.316595 255 255 0 63 15
0.126183 0.118807 0.248717 255 255 0 63 15
0.012873 0.078454 0.217340 255 255 0 63 15
0.139526 0.209398 0.235340 255 255 0 63 15
0.141916 0.201354 0.219341 255 255 0 63 15
-0.026739 0.230689 0.317340 255 255 0 63 15
0.099151 0.166189 0.353340 255 255 0 63 15
0.095891 0.095394 0.213340 255 255 0 63 15
-0.043788 0.264057 0.320064 255 255 0 63 15
0.110273 0.177033 0.385341 255 255 0 63 15
-0.045153 0.253950 0.316563 255 255 0 63 15
0.095174 0.093525 0.251340 255 255 0 63 15
-0.034757 0.185852 0.387340 255 255 0 63 15
-0.073944 0.188762 0.277340 255 255 0 63 15
0.107493 0.110436 0.217340 255 255 0 63 15
0.099645 0.213740 0.407340 255 255 0 63 15
-0.022066 0.093704 0.319632 255 255 0 63 15
0.066508 0.074501 0.253340 255 255 0 63 15
-0.067681 0.128447 0.211340 255 255 0 63 15
0.060323 0.081112 0.305340 255 255 0 63 15
0.075847 0.184789 0.421340 255 255 0 63 15
-0.069813 0.160911 0.261340 255 255 0 63 15
0.035007 0.069022 0.255340 255 255 0 63 15
0.073411 0.076120 0.223340 255 255 0 63 15
-0.081348 0.175458 0.243340 255 255 0 63 15
-0.078751 0.156376 0.275340 255 255 0 63 15
-0.040618 0.107396 0.285340 255 255 0 63 15
-0.056896 0.250560 0.237341 255 255 0 63 15
0.010269 0.101608 0.319528 255 255 0 63 15
-0.002913 0.081754 0.267340 255 255 0 63 15
-0.064902 0.144413 0.249340 255 255 0 63 15
0.015427 0.079729 0.257340 255 255 0 63 15
0.015758 0.068401 0.243340 255 255 0 63 15
0.128698 0.181398 0.316660 255 255 0 63 15
-0.024319 0.154733 0.377340 255 255 0 63 15
0.084357 0.141669 0.401340 255 255 0 63 15
-0.008073 0.134340 0.331340 255 255 0 63 15
-0.019568 0.131674 0.341340 255 255 0 63 15
-0.053057 0.255569 0.215340 255 255 0 63 15
-0.078624 0.153369 0.301340 255 255 0 63 15
0.106426 0.196575 0.399340 255 255 0 63 15
0.002260 0.072206 0.311341 255 255 0 63 15
0.081321 0.125793 0.391340 255 255 0 63 15
-0.068593 0.128762 0.287340 255 255 0 63 15
0.030649 0.148510 0.437340 255 255 0 63 15
0.017090 0.121420 0.333340 255 255 0 63 15
0.041404 0.149029 0.415340 255 255 0 63 15
0.027874 0.109733 0.337340 255 255 0 63 15
0.126834 0.120697 0.266849 255 255 0 63 15
0.123475 0.132430 0.305340 255 255 0 63 15
-0.037484 0.104217 0.297340 255 255 0 63 15
-0.077631 0.210138 0.277340 255 255 0 63 15
0.110314 0.177151 0.397801 255 255 0 63 15
0.104084 0.165202 0.407340 255 255 0 63 15
-0.082047 0.188391 0.295340 255 255 0 63 15
0.104378 0.184485 0.389340 255 255 0 63 15
0.049793 0.068961 0.233636 255 255 0 63 15
0.133983 0.217653 0.309340 255 255 0 63 15
-0.082181 0.177861 0.319340 255 255 0 63 15
-0.032788 0.160854 0.314342 255 255 0 63 15
-0.065836 0.144735 0.288352 255 255 0 63 15
-0.018678 0.244835 0.396313 255 255 0 63 15
0.070715 0.233091 0.405340 255 255 0 63 15
-0.032442 0.100429 0.215340 255 255 0 63 15
-0.067620 0.127267 0.243340 255 255 0 63 15
-0.047301 0.100278 0.259106 255 255 0 63 15
-0.068228 0.232283 0.269340 255 255 0 63 15
0.073196 0.075495 0.299340 255 255 0 63 15
0.026402 0.068599 0.265341 255 255 0 63 15
0.068123 0.164182 0.425340 255 255 0 63 15
0.088799 0.145383 0.353340 255 255 0 63 15
-0.010095 0.153040 0.404792 255 255 0 63 15
0.110708 0.113559 0.285340 255 255 0 63 15
-0.019555 0.130914 0.361340 255 255 0 63 15
-0.015644 0.167642 0.404658 255 255 0 63 15
-0.019453 0.130879 0.397340 255 255 0 63 15
0.136581 0.163876 0.239340 255 255 0 63 15
-0.006515 0.185651 0.443340 255 255 0 63 15
0.021735 0.110334 0.357341 255 255 0 63 15
0.109620 0.199707 0.361340 255 255 0 63 15
-0.075484 0.143826 0.259340 255 255 0 63 15
0.100192 0.227615 0.347340 255 255 0 63 15
0.048485 0.160367 0.431341 255 255 0 63 15
-0.004811 0.082385 0.225340 255 255 0 63 15
0.069866 0.084255 0.245340 255 255 0 63 15
0.115026 0.104831 0.221340 255 255 0 63 15
-0.007920 0.245361 0.407335 255 255 0 63 15
0.071657 0.200032 0.409340 255 255 0 63 15
0.002584 0.116148 0.327340 255 255 0 63 15
0.126900 0.122790 0.309340 255 255 0 63 15
0.005870 0.168695 0.404548 255 255 0 63 15
0.000733 0.129201 0.383340 255 255 0 63 15
0.080143 0.079664 0.261340 255 255 0 63 15
0.035401 0.119308 0.387340 255 255 0 63 15
-0.016721 0.090796 0.223340 255 255 0 63 15
0.099791 0.168083 0.365340 255 255 0 63 15
-0.013603 0.087567 0.275340 255 255 0 63 15
0.131924 0.150673 0.249340 255 255 0 63 15
0.013071 0.226466 0.431341 255 255 0 63 15
0.043249 0.077560 0.217340 255 255 0 63 15
-0.001873 0.281353 0.319079 255 255 0 63 15
0.087640 0.092874 0.311341 255 255 0 63 15
0.068411 0.129173 0.383340 255 255 0 63 15
-0.039757 0.091470 0.239340 255 255 0 63 15
-0.059500 0.242997 0.219341 255 255 0 63 15
-0.008183 0.121735 0.399340 255 255 0 63 15
0.048722 0.121134 0.379340 255 255 0 63 15
-0.002973 0.118439 0.359340 255 255 0 63 15
0.106739 0.095888 0.307340 255 255 0 63 15
-0.013049 0.076888 0.219341 255 255 0 63 15
-0.029923 0.142945 0.387340 255 255 0 63 15
0.049729 0.111288 0.365340 255 255 0 63 15
0.027296 0.224775 0.450836 255 255 0 63 15
0.094117 0.138309 0.325340 255 255 0 63 15
0.042881 0.110315 0.389340 255 255 0 63 15
0.075424 0.134169 0.327340 255 255 0 63 15
-0.072586 0.202055 0.219341 255 255 0 63 15
-0.029903 0.166206 0.369340 255 255 0 63 15
0.040894 0.110100 0.343340 255 255 0 63 15
0.021923 0.110880 0.397340 255 255 0 63 15
0.053396 0.177713 0.448344 255 255 0 63 15
-0.075249 0.222009 0.305340 255 255 0 63 15
-0.023896 0.082247 0.263340 255 255 0 63 15
-0.079041 0.155531 0.233340 255 255 0 63 15
0.054495 0.128684 0.403340 255 255 0 63 15
-0.011495 0.075258 0.314757 255 255 0 63 15
0.108292 0.165135 0.343340 255 255 0 63 15
0.136513 0.138518 0.245340 255 255 0 63 15
-0.081897 0.173532 0.269340 255 255 0 63 15
-0.037800 0.215460 0.363340 255 255 0 63 15
-0.080499 0.200549 0.319340 255 255 0 63 15
0.058870 0.113750 0.353340 255 255 0 63 15
0.055377 0.122035 0.342340 255 255 0 63 15
-0.036909 0.191886 0.406729 255 255 0 63 15
0.064390 0.117496 0.329340 255 255 0 63 15
-0.042506 0.108061 0.231340 255 255 0 63 15
0.007924 0.070224 0.287340 255 255 0 63 15
0.025891 0.110118 0.377340 255 255 0 63 15
0.018421 0.094570 0.319843 255 255 0 63 15
0.013945 0.112284 0.347340 255 255 0 63 15
0.138501 0.146294 0.279340 255 255 0 63 15
-0.025542 0.083609 0.299340 255 255 0 63 15
0.009216 0.123122 0.406713 255 255 0 63 15
-0.037845 0.097022 0.320310 255 255 0 63 15
0.039187 0.068383 0.221340 255 255 0 63 15
-0.001877 0.072476 0.297340 255 255 0 63 15
0.091955 0.086975 0.217340 255 255 0 63 15
0.110289 0.195508 0.337340 255 255 0 63 15
-0.035857 0.170370 0.407018 255 255 0 63 15
0.122242 0.128624 0.293341 255 255 0 63 15
-0.021182 0.090128 0.257340 255 255 0 63 15
-0.078361 0.204044 0.285340 255 255 0 63 15
-0.073281 0.193833 0.241340 255 255 0 63 15
0.018981 0.120768 0.369340 255 255 0 63 15
-0.041016 0.205991 0.335340 255 255 0 63 15
-0.029657 0.157660 0.406900 255 255 0 63 15
0.138557 0.185459 0.265341 255 255 0 63 15
0.001153 0.167279 0.441341 255 255 0 63 15
0.132566 0.220256 0.243340 255 255 0 63 15
0.045357 0.068366 0.307340 255 255 0 63 15
0.114583 0.190488 0.405340 255 255 0 63 15
0.009530 0.124034 0.353340 255 255 0 63 15
-0.069970 0.131351 0.227340 255 255 0 63 15
0.117131 0.119808 0.233340 255 255 0 63 15
0.017217 0.152501 0.407340 255 255 0 63 15
0.084214 0.224213 0.404389 255 255 0 63 15
-0.072155 0.178639 0.255340 255 255 0 63 15
0.075743 0.076749 0.249340 255 255 0 63 15
0.051895 0.121118 0.397340 255 255 0 63 15
0.130216 0.142801 0.216350 255 255 0 63 15
-0.045666 0.098881 0.229340 255 255 0 63 15
-0.037813 0.158546 0.397340 255 255 0 63 15
-0.051052 0.258097 0.291340 255 255 0 63 15
0.074150 0.130377 0.345340 255 255 0 63 15
0.040463 0.084865 0.314348 255 255 0 63 15
0.094285 0.155173 0.354351 255 255 0 63 15
0.091412 0.149816 0.367341 255 255 0 63 15
-0.071655 0.164697 0.221340 255 255 0 63 15
-0.072265 0.136372 0.293341 255 255 0 63 15
0.039343 0.262931 0.405340 255 255 0 63 15
-0.077120 0.154965 0.208631 255 255 0 63 15
0.021256 0.161282 0.411340 255 255 0 63 15
0.137892 0.183526 0.225340 255 255 0 63 15
0.071896 0.169228 0.417340 255 255 0 63 15
0.075866 0.083251 0.208394 255 255 0 63 15
0.140302 0.152019 0.223340 255 255 0 63 15
0.077672 0.122819 0.373340 255 255 0 63 15
0.077379 0.133496 0.363340 255 255 0 63 15
0.024865 0.076423 0.217340 255 255 0 63 15
-0.036541 0.156097 0.351340 255 255 0 63 15
-0.035496 0.223128 0.351340 255 255 0 63 15
-0.063048 0.140548 0.315340 255 255 0 63 15
0.058855 0.218138 0.451959 255 255 0 63 15
0.117844 0.106872 0.278228 255 255 0 63 15
-0.061447 0.237344 0.309340 255 255 0 63 15
0.004145 0.071534 0.261340 255 255 0 63 15
-0.015691 0.245921 0.319340 255 255 0 63 15
-0.029315 0.097221 0.241340 255 255 0 63 15
-0.030637 0.219339 0.339341 255 255 0 63 15
-0.034678 0.222941 0.373340 255 255 0 63 15
-0.024402 0.151620 0.353340 255 255 0 63 15
0.005316 0.081078 0.249340 255 255 0 63 15
0.056479 0.235809 0.407340 255 255 0 63 15
-0.054383 0.122711 0.219341 255 255 0 63 15
0.030479 0.068154 0.317340 255 255 0 63 15
-0.080742 0.187450 0.253340 255 255 0 63 15
0.108693 0.111011 0.313340 255 255 0 63 15
0.137221 0.165772 0.285340 255 255 0 63 15
-0.082046 0.186275 0.309340 255 255 0 63 15
0.088851 0.133245 0.373340 255 255 0 63 15
0.040123 0.114595 0.406654 255 255 0 63 15
0.084188 0.129037 0.357341 255 255 0 63 15
0.024933 0.211767 0.449340 255 255 0 63 15
0.116417 0.188732 0.317340 255 255 0 63 15
-0.001520 0.207199 0.415340 255 255 0 63 15
0.102249 0.152431 0.341340 255 255 0 63 15
-0.069264 0.214639 0.275340 255 255 0 63 15
-0.073535 0.174884 0.297340 255 255 0 63 15
0.037826 0.236929 0.449340 255 255 0 63 15
-0.025707 0.083131 0.315340 255 255 0 63 15
-0.071661 0.164680 0.299340 255 255 0 63 15
0.142676 0.163894 0.303340 255 255 0 63 15
-0.080415 0.181483 0.281340 255 255 0 63 15
0.104302 0.208835 0.384329 255 255 0 63 15
-0.041343 0.191297 0.316372 255 255 0 63 15
0.081127 0.258249 0.317340 255 255 0 63 15
-0.032574 0.118475 0.320184 255 255 0 63 15
0.091532 0.094779 0.293341 255 255 0 63 15
0.093345 0.155497 0.327340 255 255 0 63 15
-0.072776 0.183084 0.265341 255 255 0 63 15
-0.043007 0.189755 0.339341 255 255 0 63 15
0.123235 0.113476 0.259340 255 255 0 63 15
0.142463 0.202041 0.241340 255 255 0 63 15
-0.025663 0.154169 0.327340 255 255 0 63 15
0.009965 0.171515 0.449340 255 255 0 63 15
-0.081303 0.190250 0.227340 255 255 0 63 15
0.135335 0.212957 0.282286 255 255 0 63 15
-0.039944 0.269079 0.281317 255 255 0 63 15
-0.042061 0.174622 0.323340 255 255 0 63 15
0.108568 0.205252 0.351340 255 255 0 63 15
-0.043649 0.192091 0.395341 255 255 0 63 15
0.061647 0.081802 0.261340 255 255 0 63 15
-0.034717 0.195361 0.389340 255 255 0 63 15
0.136526 0.170241 0.217340 255 255 0 63 15
-0.041589 0.208304 0.349340 255 255 0 63 15
0.079157 0.123524 0.337340 255 255 0 63 15
-0.075408 0.221369 0.215340 255 255 0 63 15
0.015788 0.068492 0.269340 255 255 0 63 15
-0.000495 0.170886 0.411340 255 255 0 63 15
-0.042101 0.195788 0.359340 255 255 0 63 15
0.030467 0.068122 0.285340 255 255 0 63 15
0.113258 0.154985 0.319803 255 255 0 63 15
0.073643 0.242660 0.404472 255 255 0 63 15
0.045672 0.099993 0.316657 255 255 0 63 15
-0.037962 0.213401 0.316470 255 255 0 63 15
-0.051864 0.120887 0.259340 255 255 0 63 15
0.076142 0.194627 0.451340 255 255 0 63 15
-0.064073 0.232968 0.293341 255 255 0 63 15
-0.009976 0.122672 0.353340 255 255 0 63 15
0.002121 0.265172 0.405340 255 255 0 63 15
0.094320 0.222848 0.407595 255 255 0 63 15
0.115059 0.209362 0.316356 255 255 0 63 15
0.122836 0.130536 0.213340 255 255 0 63 15
0.134281 0.136177 0.303340 255 255 0 63 15
0.139816 0.150071 0.289340 255 255 0 63 15
0.143996 0.176680 0.247341 255 255 0 63 15
-0.075944 0.211672 0.261340 255 255 0 63 15
0.134310 0.145622 0.319340 255 255 0 63 15
0.115426 0.118281 0.294331 255 255 0 63 15
0.131384 0.129707 0.265341 255 255 0 63 15
-0.050307 0.116120 0.319686 255 255 0 63 15
-0.039962 0.106212 0.319340 255 255 0 63 15
0.063327 0.126696 0.327340 255 255 0 63 15
-0.041048 0.165813 0.367341 255 255 0 63 15
0.043594 0.068980 0.259340 255 255 0 63 15
-0.019007 0.243879 0.365340 255 255 0 63 15
0.027421 0.077704 0.269340 255 255 0 63 15
-0.028738 0.096002 0.313340 255 255 0 63 15
-0.056042 0.111749 0.210811 255 255 0 63 15
0.066987 0.118893 0.355340 255 255 0 63 15
-0.017352 0.205682 0.407340 255 255 0 63 15
0.045312 0.068231 0.213340 255 255 0 63 15
0.054228 0.112554 0.335340 255 255 0 63 15
0.134497 0.192093 0.316539 255 255 0 63 15
0.130662 0.127841 0.225340 255 255 0 63 15
0.104934 0.206503 0.369340 255 255 0 63 15
0.049971 0.069477 0.285340 255 255 0 63 15
0.085806 0.090405 0.277340 255 255 0 63 15
0.054066 0.078066 0.313340 255 255 0 63 15
0.121161 0.122651 0.208484 255 255 0 63 15
0.039196 0.148759 0.432128 255 255 0 63 15
0.006175 0.071289 0.226351 255 255 0 63 15
0.138859 0.194821 0.213340 255 255 0 63 15
-0.013108 0.138152 0.347340 255 255 0 63 15
0.088460 0.205829 0.404707 255 255 0 63 15
-0.041528 0.172329 0.385341 255 255 0 63 15
-0.064929 0.141227 0.217340 255 255 0 63 15
0.104605 0.203571 0.325340 255 255 0 63 15
0.017825 0.068266 0.301340 255 255 0 63 15
0.085974 0.081890 0.237341 255 255 0 63 15
0.057363 0.164662 0.439340 255 255 0 63 15
-0.002559 0.211786 0.402392 255 255 0 63 15
-0.024930 0.156032 0.391340 255 255 0 63 15
0.059385 0.072244 0.239340 255 255 0 63 15
0.064093 0.073630 0.221340 255 255 0 63 15
0.056181 0.164063 0.419340 255 255 0 63 15
0.084204 0.080380 0.283341 255 255 0 63 15
-0.027395 0.084369 0.283341 255 255 0 63 15
0.027641 0.099857 0.315340 255 255 0 63 15
0.122669 0.114743 0.307340 255 255 0 63 15
-0.068793 0.232477 0.285340 255 255 0 63 15
-0.025451 0.236591 0.349340 255 255 0 63 15
0.105034 0.217107 0.361340 255 255 0 63 15
-0.034243 0.205775 0.388350 255 255 0 63 15
0.116610 0.238441 0.316516 255 255 0 63 15
-0.008891 0.082822 0.208390 255 255 0 63 15
0.040498 0.152541 0.404466 255 255 0 63 15
0.144284 0.167570 0.269340 255 255 0 63 15
0.001215 0.081457 0.218355 255 255 0 63 15
0.011551 0.295768 0.316366 255 255 0 63 15
-0.072188 0.206149 0.292341 255 255 0 63 15
-0.019025 0.145538 0.344356 255 255 0 63 15
-0.043965 0.097679 0.267340 255 255 0 63 15
-0.063349 0.243295 0.253340 255 255 0 63 15
-0.058073 0.130422 0.209341 255 255 0 63 15
-0.021283 0.237271 0.402327 255 255 0 63 15
-0.055644 0.248055 0.295340 255 255 0 63 15
-0.005878 0.196007 0.404443 255 255 0 63 15
0.074080 0.286929 0.319879 255 255 0 63 15
0.021724 0.067301 0.213340 255 255 0 63 15
-0.057184 0.251748 0.319340 255 255 0 63 15
0.051996 0.112217 0.393340 255 255 0 63 15
0.056993 0.113018 0.323340 255 255 0 63 15
0.038233 0.115247 0.316398 255 255 0 63 15
0.017708 0.086355 0.314354 255 255 0 63 15
-0.036439 0.217826 0.325340 255 255 0 63 15
0.065612 0.219335 0.405340 255 255 0 63 15
-0.060867 0.236094 0.259340 255 255 0 63 15
0.138507 0.175905 0.257340 255 255 0 63 15
-0.004263 0.231410 0.406848 255 255 0 63 15
0.050605 0.151177 0.442194 255 255 0 63 15
-0.029338 0.223122 0.385341 255 255 0 63 15
0.126474 0.119652 0.279340 255 255 0 63 15
0.083227 0.089178 0.291340 255 255 0 63 15
0.064136 0.073755 0.301340 255 255 0 63 15
0.034536 0.067650 0.295340 255 255 0 63 15
-0.079413 0.179023 0.213112 255 255 0 63 15
-0.074635 0.196415 0.251340 255 255 0 63 15
0.110993 0.117691 0.319799 255 255 0 63 15
-0.081401 0.169131 0.295340 255 255 0 63 15
0.143128 0.161622 0.259340 255 255 0 63 15
0.004326 0.268643 0.318913 255 255 0 63 15
-0.034570 0.204823 0.369340 255 255 0 63 15
0.127443 0.137410 0.241340 255 255 0 63 15
0.019233 0.176785 0.448388 255 255 0 63 15
-0.035325 0.193456 0.345340 255 255 0 63 15
0.092690 0.153607 0.397340 255 255 0 63 15
0.005005 0.209182 0.452214 255 255 0 63 15
0.000212 0.072400 0.239340 255 255 0 63 15
0.089423 0.239341 0.407843 255 255 0 63 15
0.002807 0.083025 0.315340 255 255 0 63 15
0.035417 0.119355 0.335340 255 255 0 63 15
0.094524 0.140284 0.365340 255 255 0 63 15
-0.073292 0.193837 0.297340 255 255 0 63 15
0.029307 0.077039 0.297340 255 255 0 63 15
-0.072244 0.169130 0.229340 255 255 0 63 15
0.114528 0.118589 0.277340 255 255 0 63 15
0.111294 0.115472 0.303340 255 255 0 63 15
0.006277 0.179131 0.433340 255 255 0 63 15
0.086403 0.092314 0.255340 255 255 0 63 15
0.091208 0.196421 0.407340 255 255 0 63 15
-0.049996 0.257734 0.275340 255 255 0 63 15
-0.031732 0.173181 0.399340 255 255 0 63 15
-0.032989 0.175729 0.339341 255 255 0 63 15
0.018987 0.120785 0.389340 255 255 0 63 15
0.038180 0.078235 0.299340 255 255 0 63 15
-0.077772 0.153075 0.254675 255 255 0 63 15
0.060118 0.123518 0.371340 255 255 0 63 15
-0.046745 0.260845 0.219341 255 255 0 63 15
-0.017124 0.243205 0.355340 255 255 0 63 15
0.098335 0.148504 0.407340 255 255 0 63 15
0.082599 0.188810 0.404884 255 255 0 63 15
0.103712 0.179425 0.347340 255 255 0 63 15
0.124954 0.117115 0.239340 255 255 0 63 15
-0.080446 0.166687 0.247341 255 255 0 63 15
0.143811 0.167733 0.243340 255 255 0 63 15
0.137893 0.180347 0.215340 255 255 0 63 15
0.126536 0.119831 0.295340 255 255 0 63 15
0.004478 0.219939 0.402350 255 255 0 63 15
0.139169 0.181089 0.309340 255 255 0 63 15
0.042361 0.213241 0.448394 255 255 0 63 15
0.135617 0.225552 0.251340 255 255 0 63 15
-0.024215 0.231935 0.385341 255 255 0 63 15
0.103702 0.179428 0.331340 255 255 0 63 15
0.133491 0.232174 0.317340 255 255 0 63 15
0.019047 0.256108 0.405340 255 255 0 63 15
-0.075729 0.220059 0.283341 255 255 0 63 15
0.070287 0.128482 0.353340 255 255 0 63 15
-0.055612 0.125284 0.313340 255 255 0 63 15
0.032598 0.068166 0.239340 255 255 0 63 15
-0.080490 0.175896 0.233340 255 255 0 63 15
-0.076639 0.150569 0.221340 255 255 0 63 15
0.109422 0.248277 0.317340 255 255 0 63 15
0.138020 0.196185 0.281340 255 255 0 63 15
-0.027303 0.139927 0.406385 255 255 0 63 15
-0.012763 0.139151 0.374335 255 255 0 63 15
-0.035892 0.102695 0.274343 255 255 0 63 15
0.061708 0.072848 0.315340 255 255 0 63 15
-0.036002 0.188380 0.333340 255 255 0 63 15
0.108798 0.215748 0.319532 255 255 0 63 15
0.022976 0.150114 0.425340 255 255 0 63 15
0.098351 0.246843 0.320454 255 255 0 63 15
0.089217 0.133650 0.331340 255 255 0 63 15
-0.042509 0.172661 0.347340 255 255 0 63 15
-0.071216 0.208972 0.209341 255 255 0 63 15
-0.046275 0.112616 0.223340 255 255 0 63 15
0.011756 0.155070 0.437340 255 255 0 63 15
0.063583 0.158151 0.407340 255 255 0 63 15
0.109984 0.194623 0.379340 255 255 0 63 15
0.050095 0.069836 0.299340 255 255 0 63 15
0.133459 0.131109 0.291340 255 255 0 63 15
-0.053215 0.205961 0.316549 255 255 0 63 15
0.092732 0.088020 0.261340 255 255 0 63 15
0.111572 0.180806 0.407340 255 255 0 63 15
0.071807 0.120608 0.316644 255 255 0 63 15
0.076453 0.195531 0.421340 255 255 0 63 15
-0.029297 0.084991 0.225340 255 255 0 63 15
0.069214 0.074966 0.231340 255 255 0 63 15
-0.079271 0.198011 0.303340 255 255 0 63 15
0.142660 0.178944 0.275340 255 255 0 63 15
0.056062 0.071033 0.253340 255 255 0 63 15
0.110551 0.181300 0.355340 255 255 0 63 15
0.002050 0.200601 0.435340 255 255 0 63 15
0.122456 0.113744 0.227340 255 255 0 63 15
-0.045222 0.198462 0.405340 255 255 0 63 15
0.046175 0.119885 0.347340 255 255 0 63 15
0.105694 0.157591 0.363403 255 255 0 63 15
0.081753 0.124918 0.349340 255 255 0 63 15
0.110598 0.179169 0.339341 255 255 0 63 15
0.036292 0.078896 0.259340 255 255 0 63 15
0.104417 0.187643 0.353340 255 255 0 63 15
0.013774 0.136360 0.404428 255 255 0 63 15
0.056622 0.079301 0.297340 255 255 0 63 15
0.037074 0.148738 0.451340 255 255 0 63 15
-0.079499 0.202320 0.269340 255 255 0 63 15
-0.070603 0.207717 0.255340 255 255 0 63 15
-0.005239 0.200018 0.441341 255 255 0 63 15
-0.016835 0.127325 0.383340 255 255 0 63 15
-0.037481 0.187852 0.361340 255 255 0 63 15
0.076954 0.129412 0.316418 255 255 0 63 15
0.008221 0.114088 0.399340 255 255 0 63 15
-0.003495 0.116923 0.316546 255 255 0 63 15
0.097353 0.145655 0.316415 255 255 0 63 15
-0.077100 0.212071 0.303340 255 255 0 63 15
0.095905 0.156730 0.373340 255 255 0 63 15
0.009093 0.079763 0.267340 255 255 0 63 15
0.010973 0.079081 0.299340 255 255 0 63 15
0.133903 0.156339 0.261340 255 255 0 63 15
0.129938 0.145012 0.301340 255 255 0 63 15
-0.001156 0.129857 0.351340 255 255 0 63 15
-0.035575 0.103615 0.255340 255 255 0 63 15
0.072020 0.121225 0.365340 255 255 0 63 15
0.086137 0.130480 0.321341 255 255 0 63 15
0.105030 0.186378 0.365340 255 255 0 63 15
0.040634 0.109934 0.323340 255 255 0 63 15
0.033862 0.120982 0.406777 255 255 0 63 15
-0.073079 0.164150 0.311341 255 255 0 63 15
-0.074965 0.142794 0.239340 255 255 0 63 15
-0.055480 0.168667 0.316490 255 255 0 63 15
0.078003 0.078285 0.313340 255 255 0 63 15
0.039122 0.068683 0.315340 255 255 0 63 15
0.064521 0.087157 0.316665 255 255 0 63 15
0.111890 0.114152 0.247341 255 255 0 63 15
0.028259 0.258287 0.404425 255 255 0 63 15
0.009099 0.239501 0.407879 255 255 0 63 15
-0.051671 0.101783 0.213340 255 255 0 63 15
0.045654 0.149084 0.423340 255 255 0 63 15
-0.043387 0.240651 0.316526 255 255 0 63 15
0.099092 0.193707 0.404440 255 255 0 63 15
-0.014878 0.077720 0.243340 255 255 0 63 15
-0.080766 0.183719 0.261340 255 255 0 63 15
-0.056255 0.126628 0.251340 255 255 0 63 15
-0.041316 0.129946 0.316458 255 255 0 63 15
-0.070047 0.230795 0.227610 255 255 0 63 15
-0.029998 0.095241 0.231340 255 255 0 63 15
0.034423 0.177900 0.448358 255 255 0 63 15
0.078310 0.078062 0.239340 255 255 0 63 15
-0.074516 0.162530 0.319860 255 255 0 63 15
0.140608 0.206910 0.311341 255 255 0 63 15
0.116089 0.105361 0.293341 255 255 0 63 15
-0.004446 0.200165 0.425340 255 255 0 63 15
0.043607 0.118568 0.371340 255 255 0 63 15
-0.043137 0.265948 0.247359 255 255 0 63 15
0.114650 0.103741 0.231618 255 255 0 63 15
0.019932 0.277104 0.317340 255 255 0 63 15
-0.000587 0.211371 0.439340 255 255 0 63 15
-0.004396 0.175735 0.451340 255 255 0 63 15
-0.063270 0.120583 0.239340 255 255 0 63 15
-0.073611 0.168564 0.273340 255 255 0 63 15
0.020758 0.110687 0.323340 255 255 0 63 15
0.121632 0.126719 0.261340 255 255 0 63 15
0.089695 0.084835 0.307340 255 255 0 63 15
0.083234 0.089175 0.233340 255 255 0 63 15
0.105363 0.157704 0.391340 255 255 0 63 15
0.112711 0.171826 0.319340 255 255 0 63 15
-0.073480 0.181210 0.239340 255 255 0 63 15
0.103949 0.204727 0.343340 255 255 0 63 15
0.128715 0.141203 0.231340 255 255 0 63 15
0.014750 0.077762 0.311341 255 255 0 63 15
0.068083 0.117660 0.405340 255 255 0 63 15
-0.079006 0.157730 0.309340 255 255 0 63 15
-0.080529 0.194212 0.313340 255 255 0 63 15
-0.028107 0.159241 0.335340 255 255 0 63 15
-0.003062 0.130466 0.325340 255 255 0 63 15
0.101186 0.165488 0.387340 255 255 0 63 15
0.033527 0.120009 0.357341 255 255 0 63 15
0.041920 0.076810 0.311341 255 255 0 63 15
0.076197 0.184668 0.443340 255 255 0 63 15
0.105723 0.206818 0.407340 255 255 0 63 15
-0.030698 0.213015 0.345340 255 255 0 63 15
-0.036977 0.219408 0.397340 255 255 0 63 15
0.053871 0.258954 0.405340 255 255 0 63 15
-0.066751 0.151395 0.231340 255 255 0 63 15
-0.013215 0.125551 0.343340 255 255 0 63 15
-0.069911 0.212763 0.245340 255 255 0 63 15
-0.047301 0.100278 0.285797 255 255 0 63 15
0.040054 0.077533 0.283341 255 255 0 63 15
0.035789 0.157296 0.429340 255 255 0 63 15
-0.043885 0.190058 0.377065 255 255 0 63 15
-0.010871 0.138500 0.404688 255 255 0 63 15
0.137809 0.174030 0.229340 255 255 0 63 15
0.054047 0.078073 0.259340 255 255 0 63 15
0.003730 0.144049 0.404486 255 255 0 63 15
0.115953 0.107522 0.213126 255 255 0 63 15
-0.068184 0.147658 0.297340 255 255 0 63 15
0.108388 0.110128 0.230370 255 255 0 63 15
0.023383 0.149973 0.443340 255 255 0 63 15
-0.077645 0.208731 0.237341 255 255 0 63 15
0.140700 0.208994 0.275340 255 255 0 63 15
0.055317 0.146432 0.403340 255 255 0 63 15
0.006432 0.160040 0.421340 255 255 0 63 15
-0.050633 0.102886 0.223340 255 255 0 63 15
0.126620 0.163076 0.316516 255 255 0 63 15
-0.069989 0.209622 0.311341 255 255 0 63 15
-0.039411 0.215337 0.405340 255 255 0 63 15
-0.030027 0.230304 0.325340 255 255 0 63 15
-0.040357 0.264991 0.263340 255 255 0 63 15
0.137288 0.218630 0.218203 255 255 0 63 15
-0.010964 0.075074 0.285340 255 255 0 63 15
0.106517 0.180575 0.319340 255 255 0 63 15
-0.043078 0.180115 0.363340 255 255 0 63 15
-0.014839 0.077834 0.257340 255 255 0 63 15
-0.050820 0.102342 0.295340 255 255 0 63 15
0.005441 0.253452 0.404530 255 255 0 63 15
0.095196 0.089287 0.299340 255 255 0 63 15
-0.014953 0.126644 0.403340 255 255 0 63 15
0.045997 0.159108 0.405340 255 255 0 63 15
0.005988 0.212037 0.429340 255 255 0 63 15
0.137894 0.183532 0.293341 255 255 0 63 15
0.067966 0.210771 0.417340 255 255 0 63 15
0.104252 0.107321 0.301340 255 255 0 63 15
-0.019891 0.186025 0.404497 255 255 0 63 15
0.136079 0.221264 0.265341 255 255 0 63 15
0.080397 0.157839 0.407095 255 255 0 63 15
0.017769 0.068101 0.287340 255 255 0 63 15
0.085294 0.141347 0.384324 255 255 0 63 15
0.094723 0.097911 0.313340 255 255 0 63 15
-0.050721 0.102632 0.277340 255 255 0 63 15
0.022992 0.077126 0.239340 255 255 0 63 15
0.128623 0.141234 0.287340 255 255 0 63 15
-0.014955 0.126640 0.323340 255 255 0 63 15
0.130156 0.231662 0.257340 255 255 0 63 15
-0.080167 0.164548 0.285340 255 255 0 63 15
-0.075390 0.215278 0.269340 255 255 0 63 15
-0.029315 0.097224 0.207340 255 255 0 63 15
0.072520 0.075942 0.259340 255 255 0 63 15
0.008793 0.220184 0.427340 255 255 0 63 15
-0.013606 0.087558 0.251340 255 255 0 63 15
-0.033502 0.152638 0.316734 255 255 0 63 15
-0.082014 0.188379 0.215340 255 255 0 63 15
0.025120 0.132453 0.404465 255 255 0 63 15
0.042113 0.187945 0.452224 255 255 0 63 15
-0.043761 0.202706 0.316606 255 255 0 63 15
0.097822 0.097870 0.305340 255 255 0 63 15
-0.001690 0.289752 0.317340 255 255 0 63 15
0.016413 0.211600 0.448366 255 255 0 63 15
0.111218 0.112204 0.259340 255 255 0 63 15
-0.026992 0.230776 0.333340 255 255 0 63 15
0.034401 0.208551 0.449340 255 255 0 63 15
0.047478 0.120524 0.327340 255 255 0 63 15
0.008116 0.279646 0.319340 255 255 0 63 15
0.034139 0.084927 0.320129 255 255 0 63 15
0.079219 0.135990 0.371340 255 255 0 63 15
-0.062124 0.118657 0.299340 255 255 0 63 15
0.144013 0.195162 0.295870 255 255 0 63 15
0.080280 0.274218 0.316359 255 255 0 63 15
0.105886 0.197713 0.317340 255 255 0 63 15
-0.023575 0.261328 0.316714 255 255 0 63 15
-0.071643 0.134014 0.269340 255 255 0 63 15
-0.078298 0.163832 0.208479 255 255 0 63 15
-0.075325 0.217805 0.225340 255 255 0 63 15
-0.029962 0.255066 0.320031 255 255 0 63 15
-0.072223 0.138473 0.210646 255 255 0 63 15
0.032730 0.068491 0.275340 255 255 0 63 15
-0.078859 0.205206 0.249340 255 255 0 63 15
0.103170 0.171150 0.399340 255 255 0 63 15
-0.062998 0.118375 0.273340 255 255 0 63 15
-0.072563 0.202047 0.279340 255 255 0 63 15
-0.045616 0.099026 0.303340 255 255 0 63 15
-0.016281 0.245653 0.381340 255 255 0 63 15
0.101856 0.167372 0.333340 255 255 0 63 15
-0.076409 0.216063 0.311341 255 255 0 63 15
0.051103 0.201770 0.452111 255 255 0 63 15
-0.006416 0.120725 0.389340 255 255 0 63 15
0.064116 0.073697 0.275340 255 255 0 63 15
0.095650 0.165279 0.404665 255 255 0 63 15
0.087461 0.083489 0.297340 255 255 0 63 15
0.071005 0.167419 0.443960 255 255 0 63 15
0.032235 0.110113 0.345340 255 255 0 63 15
0.106322 0.161604 0.375340 255 255 0 63 15
0.131231 0.148797 0.209341 255 255 0 63 15
-0.006501 0.132765 0.398353 255 255 0 63 15
0.137834 0.144408 0.251340 255 255 0 63 15
-0.016758 0.078403 0.233340 255 255 0 63 15
0.133233 0.154453 0.241340 255 255 0 63 15
0.010242 0.162959 0.451831 255 255 0 63 15
-0.070014 0.154634 0.247341 255 255 0 63 15
-0.080688 0.179462 0.293341 255 255 0 63 15
0.075588 0.085462 0.225340 255 255 0 63 15
-0.001734 0.072891 0.255340 255 255 0 63 15
0.099118 0.147163 0.385341 255 255 0 63 15
0.068632 0.083627 0.287340 255 255 0 63 15
-0.006092 0.238386 0.402364 255 255 0 63 15
0.064776 0.081759 0.217340 255 255 0 63 15
-0.026184 0.094029 0.263340 255 255 0 63 15
0.078008 0.135394 0.399340 255 255 0 63 15
0.140185 0.153327 0.299340 255 255 0 63 15
0.007639 0.124688 0.335340 255 255 0 63 15
0.003266 0.161130 0.407679 255 255 0 63 15
0.025494 0.170398 0.452118 255 255 0 63 15
-0.067291 0.189655 0.320165 255 255 0 63 15
-0.067446 0.149520 0.263340 255 255 0 63 15
-0.039865 0.091156 0.289340 255 255 0 63 15
0.071780 0.181959 0.452165 255 255 0 63 15
-0.001807 0.072679 0.267340 255 255 0 63 15
0.013033 0.189496 0.448351 255 255 0 63 15
0.077493 0.087974 0.313340 255 255 0 63 15
-0.015498 0.088207 0.211340 255 255 0 63 15
0.124050 0.223188 0.316532 255 255 0 63 15
-0.000359 0.083027 0.285340 255 255 0 63 15
0.007958 0.070323 0.317340 255 255 0 63 15
0.012982 0.068945 0.251340 255 255 0 63 15
-0.011701 0.086946 0.301340 255 255 0 63 15
-0.072564 0.202047 0.233340 255 255 0 63 15
0.124725 0.133001 0.271340 255 255 0 63 15
0.030679 0.068736 0.229340 255 255 0 63 15
0.094607 0.094674 0.233340 255 255 0 63 15
0.004693 0.177561 0.452025 255 255 0 63 15
0.002802 0.178212 0.404507 255 255 0 63 15
0.052680 0.077345 0.227340 255 255 0 63 15
0.144111 0.190897 0.271340 255 255 0 63 15
-0.034665 0.195344 0.355340 255 255 0 63 15
-0.046863 0.144547 0.316664 255 255 0 63 15
0.122270 0.128615 0.313340 255 255 0 63 15
0.047037 0.110100 0.316507 255 255 0 63 15
0.046885 0.158803 0.451912 255 255 0 63 15
0.132592 0.152559 0.275340 255 255 0 63 15
0.142425 0.161864 0.249340 255 255 0 63 15
0.001257 0.195666 0.445340 255 255 0 63 15
-0.046005 0.159327 0.319340 255 255 0 63 15
0.073151 0.175142 0.409340 255 255 0 63 15
-0.073579 0.174898 0.247341 255 255 0 63 15
0.131820 0.129557 0.213340 255 255 0 63 15
-0.028030 0.140178 0.359340 255 255 0 63 15
0.026411 0.068628 0.301340 255 255 0 63 15
-0.030462 0.229040 0.401340 255 255 0 63 15
-0.035430 0.183897 0.325340 255 255 0 63 15
-0.066915 0.123173 0.317340 255 255 0 63 15
0.137780 0.140197 0.311933 255 255 0 63 15
0.019979 0.068651 0.227340 255 255 0 63 15
-0.039618 0.270024 0.213340 255 255 0 63 15
0.057575 0.122276 0.363340 255 255 0 63 15
-0.069222 0.156476 0.219341 255 255 0 63 15
0.065221 0.074226 0.291340 255 255 0 63 15
-0.035318 0.199799 0.327340 255 255 0 63 15
0.138634 0.191823 0.255340 255 255 0 63 15
0.079269 0.124385 0.399340 255 255 0 63 15
0.087775 0.136263 0.406748 255 255 0 63 15
0.122125 0.156164 0.319881 255 255 0 63 15
0.029291 0.076992 0.229340 255 255 0 63 15
-0.012104 0.270070 0.319728 255 255 0 63 15
-0.069821 0.230717 0.313340 255 255 0 63 15
-0.059637 0.132024 0.232336 255 255 0 63 15
0.103697 0.105397 0.291340 255 255 0 63 15
-0.034493 0.180478 0.396326 255 255 0 63 15
0.027572 0.188720 0.450635 255 255 0 63 15
-0.004289 0.133047 0.363340 255 255 0 63 15
-0.067396 0.234111 0.239340 255 255 0 63 15
-0.080463 0.163688 0.269340 255 255 0 63 15
-0.067666 0.151710 0.280327 255 255 0 63 15
0.002242 0.072152 0.279340 255 255 0 63 15
-0.010123 0.214391 0.404772 255 255 0 63 15
-0.057274 0.110058 0.265341 255 255 0 63 15
-0.004174 0.176383 0.423575 255 255 0 63 15
-0.049474 0.101026 0.311341 255 255 0 63 15
0.069823 0.165711 0.409340 255 255 0 63 15
0.130528 0.127887 0.235340 255 255 0 63 15
0.015633 0.166333 0.435340 255 255 0 63 15
-0.073276 0.193832 0.213340 255 255 0 63 15
0.000635 0.214917 0.413101 255 255 0 63 15
0.121010 0.171354 0.319059 255 255 0 63 15
0.143752 0.184675 0.281340 255 255 0 63 15
-0.036433 0.155763 0.361340 255 255 0 63 15
-0.067973 0.221618 0.309340 255 255 0 63 15
0.074269 0.084756 0.295340 255 255 0 63 15
0.092277 0.136827 0.345340 255 255 0 63 15
0.045029 0.227129 0.448375 255 255 0 63 15
0.139467 0.206530 0.251340 255 255 0 63 15
0.055689 0.153656 0.434766 255 255 0 63 15
-0.081179 0.192323 0.235784 255 255 0 63 15
-0.077672 0.150926 0.267340 255 255 0 63 15
-0.080668 0.160418 0.225340 255 255 0 63 15
0.138466 0.144191 0.231340 255 255 0 63 15
0.071693 0.120273 0.333340 255 255 0 63 15
-0.032446 0.100417 0.225340 255 255 0 63 15
-0.020286 0.080444 0.293341 255 255 0 63 15
0.019946 0.185000 0.451184 255 255 0 63 15
0.024125 0.068129 0.257340 255 255 0 63 15
0.081918 0.088538 0.215340 255 255 0 63 15
0.057967 0.157102 0.413341 255 255 0 63 15
0.099128 0.261382 0.316453 255 255 0 63 15
0.143941 0.182495 0.241340 255 255 0 63 15
-0.008373 0.121183 0.371340 255 255 0 63 15
0.006293 0.114634 0.371340 255 255 0 63 15
0.090173 0.146013 0.333340 255 255 0 63 15
0.134554 0.164575 0.273340 255 255 0 63 15
0.066566 0.126643 0.399340 255 255 0 63 15
0.091581 0.086301 0.245340 255 255 0 63 15
0.060782 0.125448 0.335340 255 255 0 63 15
-0.055856 0.130721 0.319997 255 255 0 63 15
-0.073223 0.200159 0.309340 255 255 0 63 15
-0.043788 0.264057 0.274333 255 255 0 63 15
0.072867 0.173124 0.433340 255 255 0 63 15
0.006263 0.114547 0.385341 255 255 0 63 15
-0.041221 0.203946 0.399340 255 255 0 63 15
0.005581 0.177255 0.419340 255 255 0 63 15
0.108747 0.105026 0.247341 255 255 0 63 15
0.053762 0.086632 0.319903 255 255 0 63 15
-0.069800 0.230709 0.277340 255 255 0 63 15
0.045623 0.069135 0.251340 255 255 0 63 15
-0.024868 0.134712 0.375340 255 255 0 63 15
-0.042500 0.108077 0.267340 255 255 0 63 15
-0.012440 0.140090 0.327340 255 255 0 63 15
0.000265 0.072554 0.213340 255 255 0 63 15
0.132532 0.131427 0.253340 255 255 0 63 15
0.137352 0.191109 0.229340 255 255 0 63 15
0.006190 0.114335 0.345340 255 255 0 63 15
0.131552 0.214259 0.316571 255 255 0 63 15
-0.039745 0.091506 0.273340 255 255 0 63 15
-0.000239 0.126378 0.406922 255 255 0 63 15
0.003840 0.187368 0.447340 255 255 0 63 15
0.010179 0.156635 0.404582 255 255 0 63 15
0.142232 0.161931 0.311341 255 255 0 63 15
0.040249 0.127244 0.404549 255 255 0 63 15
-0.020507 0.092090 0.271340 255 255 0 63 15
0.136137 0.166145 0.320013 255 255 0 63 15
-0.075230 0.154314 0.319728 255 255 0 63 15
0.105874 0.213402 0.337340 255 255 0 63 15
0.006023 0.119991 0.316468 255 255 0 63 15
0.078704 0.085347 0.275340 255 255 0 63 15
-0.053742 0.216719 0.319722 255 255 0 63 15
0.068344 0.181027 0.423340 255 255 0 63 15
0.097663 0.145549 0.339341 255 255 0 63 15
0.015195 0.122060 0.377340 255 255 0 63 15
-0.000351 0.083051 0.305340 255 255 0 63 15
0.011407 0.123341 0.361340 255 255 0 63 15
0.025530 0.078358 0.251340 255 255 0 63 15
0.020873 0.120118 0.399340 255 255 0 63 15
0.005949 0.208856 0.419340 255 255 0 63 15
0.004410 0.115309 0.363340 255 255 0 63 15
-0.016733 0.078476 0.265341 255 255 0 63 15
-0.073488 0.174867 0.285340 255 255 0 63 15
-0.028089 0.094641 0.279340 255 255 0 63 15
-0.015501 0.088195 0.287340 255 255 0 63 15
-0.073432 0.181194 0.307340 255 255 0 63 15
0.124689 0.117206 0.287340 255 255 0 63 15
0.080672 0.087942 0.251340 255 255 0 63 15
0.082627 0.127458 0.378516 255 255 0 63 15
-0.033857 0.239485 0.319340 255 255 0 63 15
0.050447 0.159691 0.423340 255 255 0 63 15
-0.053085 0.123422 0.289340 255 255 0 63 15
-0.048416 0.115469 0.274338 255 255 0 63 15
0.055034 0.121038 0.387340 255 255 0 63 15
-0.036237 0.101692 0.311341 255 255 0 63 15
0.139049 0.152451 0.319340 255 255 0 63 15
0.088797 0.133090 0.363340 255 255 0 63 15
-0.053708 0.253675 0.263340 255 255 0 63 15
0.109982 0.173036 0.361340 255 255 0 63 15
-0.037873 0.158374 0.321225 255 255 0 63 15
0.103722 0.179422 0.403340 255 255 0 63 15
0.004123 0.071473 0.303340 255 255 0 63 15
-0.082673 0.190722 0.275340 255 255 0 63 15
-0.071732 0.225905 0.265341 255 255 0 63 15
0.037180 0.136761 0.406604 255 255 0 63 15
0.136347 0.140690 0.211340 255 255 0 63 15
-0.068712 0.152070 0.311341 255 255 0 63 15
0.136497 0.170252 0.249340 255 255 0 63 15
-0.069155 0.128955 0.219377 255 255 0 63 15
-0.042968 0.196087 0.323340 255 255 0 63 15
-0.001213 0.209553 0.423340 255 255 0 63 15
0.134588 0.158217 0.291340 255 255 0 63 15
0.076705 0.188724 0.433340 255 255 0 63 15
0.131088 0.231341 0.240452 255 255 0 63 15
-0.053719 0.253644 0.311341 255 255 0 63 15
0.142479 0.159731 0.231340 255 255 0 63 15
0.095266 0.254251 0.317340 255 255 0 63 15
-0.004814 0.082377 0.247341 255 255 0 63 15
-0.074248 0.138737 0.227340 255 255 0 63 15
-0.081035 0.185927 0.245340 255 255 0 63 15
-0.076481 0.150683 0.289340 255 255 0 63 15
-0.024933 0.134523 0.391340 255 255 0 63 15
-0.069193 0.128846 0.251340 255 255 0 63 15
-0.002249 0.083684 0.233340 255 255 0 63 15
0.064761 0.081713 0.269340 255 255 0 63 15
-0.033261 0.211782 0.381340 255 255 0 63 15
0.063245 0.172207 0.413341 255 255 0 63 15
0.117098 0.119819 0.265341 255 255 0 63 15
0.084949 0.266265 0.317340 255 255 0 63 15
0.065869 0.127934 0.375340 255 255 0 63 15
0.010977 0.079092 0.243340 255 255 0 63 15
-0.063700 0.138652 0.237341 255 255 0 63 15
-0.071083 0.160214 0.253340 255 255 0 63 15
0.001338 0.192390 0.421340 255 255 0 63 15
0.041426 0.118378 0.354333 255 255 0 63 15
-0.018706 0.146463 0.333340 255 255 0 63 15
0.106319 0.263838 0.319340 255 255 0 63 15
0.013213 0.079442 0.228330 255 255 0 63 15
-0.042364 0.200109 0.351340 255 255 0 63 15
0.102370 0.172509 0.383340 255 255 0 63 15
-0.044970 0.113191 0.303340 255 255 0 63 15
0.101386 0.169650 0.346343 255 255 0 63 15
0.136789 0.168036 0.258362 255 255 0 63 15
-0.030995 0.086203 0.266306 255 255 0 63 15
0.093953 0.154207 0.389340 255 255 0 63 15
-0.041819 0.171485 0.361340 255 255 0 63 15
-0.070427 0.162117 0.269340 255 255 0 63 15
0.057788 0.079892 0.277340 255 255 0 63 15
0.016370 0.119328 0.407340 255 255 0 63 15
0.068352 0.181024 0.405340 255 255 0 63 15
0.050774 0.151666 0.411340 255 255 0 63 15
0.137128 0.138306 0.293887 255 255 0 63 15
-0.035232 0.206115 0.341340 255 255 0 63 15
-0.004752 0.199851 0.413341 255 255 0 63 15
0.115073 0.117254 0.217340 255 255 0 63 15
0.083087 0.079651 0.247341 255 255 0 63 15
-0.056533 0.190182 0.319870 255 255 0 63 15
-0.072763 0.183079 0.215340 255 255 0 63 15
0.105207 0.195832 0.355340 255 255 0 63 15
-0.032099 0.147924 0.337340 255 255 0 63 15
-0.069369 0.217869 0.253340 255 255 0 63 15
0.068640 0.083624 0.309340 255 255 0 63 15
-0.001666 0.109947 0.320252 255 255 0 63 15
0.068303 0.075279 0.319340 255 255 0 63 15
-0.037559 0.217492 0.333340 255 255 0 63 15
0.035912 0.200655 0.448494 255 255 0 63 15
0.141896 0.200121 0.257340 255 255 0 63 15
-0.036542 0.100805 0.208392 255 255 0 63 15
-0.082990 0.195061 0.257340 255 255 0 63 15
-0.019053 0.243748 0.337340 255 255 0 63 15
0.143827 0.176189 0.234395 255 255 0 63 15
-0.081210 0.177526 0.311341 255 255 0 63 15
-0.044408 0.182398 0.373340 255 255 0 63 15
0.056114 0.071016 0.271340 255 255 0 63 15
0.105070 0.189534 0.329340 255 255 0 63 15
-0.039515 0.184321 0.407628 255 255 0 63 15
-0.050584 0.152174 0.316584 255 255 0 63 15
-0.060690 0.153538 0.316595 255 255 0 63 15
0.107151 0.195163 0.407340 255 255 0 63 15
-0.029898 0.231776 0.363340 255 255 0 63 15
0.091709 0.086257 0.280892 255 255 0 63 15
-0.040541 0.163522 0.337340 255 255 0 63 15
-0.026114 0.236819 0.377340 255 255 0 63 15
0.144415 0.171755 0.300080 255 255 0 63 15
0.107762 0.211874 0.377340 255 255 0 63 15
0.111472 0.100654 0.263340 255 255 0 63 15
0.013951 0.112303 0.357341 255 255 0 63 15
0.067941 0.081749 0.209341 255 255 0 63 15
-0.067287 0.223498 0.299340 255 255 0 63 15
0.037859 0.077301 0.210373 255 255 0 63 15
0.035091 0.287663 0.317340 255 255 0 63 15
-0.024698 0.147491 0.406861 255 255 0 63 15
-0.045633 0.111264 0.313340 255 255 0 63 15
0.126433 0.144104 0.319861 255 255 0 63 15
0.144479 0.169618 0.279340 255 255 0 63 15
0.107285 0.163388 0.351340 255 255 0 63 15
-0.076928 0.150669 0.239340 255 255 0 63 15
-0.037839 0.090897 0.257340 255 255 0 63 15
0.143254 0.192957 0.237341 255 255 0 63 15
0.048443 0.111731 0.383340 255 255 0 63 15
0.133247 0.131181 0.283341 255 255 0 63 15
0.129323 0.143108 0.269340 255 255 0 63 15
-0.051546 0.118662 0.208358 255 255 0 63 15
0.075680 0.184847 0.413341 255 255 0 63 15
-0.008053 0.103686 0.320124 255 255 0 63 15
-0.073101 0.135924 0.259340 255 255 0 63 15
-0.043326 0.181404 0.337340 255 255 0 63 15
-0.076236 0.145247 0.303340 255 255 0 63 15
-0.007803 0.128983 0.316468 255 255 0 63 15
0.013525 0.111063 0.316527 255 255 0 63 15
0.057790 0.079895 0.243340 255 255 0 63 15
-0.024423 0.151627 0.345340 255 255 0 63 15
-0.057480 0.129166 0.269340 255 255 0 63 15
0.017084 0.121399 0.325340 255 255 0 63 15
0.099166 0.166184 0.317340 255 255 0 63 15
0.137164 0.172137 0.269340 255 255 0 63 15
-0.025560 0.157275 0.359340 255 255 0 63 15
0.026997 0.159305 0.439340 255 255 0 63 15
0.092081 0.151702 0.347340 255 255 0 63 15
0.012865 0.078433 0.209341 255 255 0 63 15
0.020667 0.162522 0.419340 255 255 0 63 15
0.136397 0.221052 0.281340 255 255 0 63 15
0.071004 0.198134 0.445340 255 255 0 63 15
-0.038079 0.157774 0.377340 255 255 0 63 15
-0.030840 0.229985 0.389340 255 255 0 63 15
0.137618 0.218516 0.227340 255 255 0 63 15
0.063562 0.117101 0.347340 255 255 0 63 15
-0.028203 0.112739 0.316554 255 255 0 63 15
-0.015253 0.254782 0.319340 255 255 0 63 15
0.040664 0.110178 0.377340 255 255 0 63 15
0.110056 0.187816 0.371340 255 255 0 63 15
0.105196 0.106996 0.210380 255 255 0 63 15
0.132528 0.152581 0.231340 255 255 0 63 15
-0.046265 0.112613 0.287340 255 255 0 63 15
0.010151 0.217987 0.452796 255 255 0 63 15
-0.068603 0.219721 0.291340 255 255 0 63 15
0.132528 0.152581 0.311341 255 255 0 63 15
0.029099 0.266869 0.407340 255 255 0 63 15
0.126374 0.119360 0.223340 255 255 0 63 15
0.105808 0.213212 0.391340 255 255 0 63 15
-0.019025 0.145538 0.394369 255 255 0 63 15
0.110319 0.175035 0.377340 255 255 0 63 15
-0.028604 0.136145 0.316518 255 255 0 63 15
-0.031833 0.166870 0.389340 255 255 0 63 15
0.049676 0.185339 0.448404 255 255 0 63 15
-0.038177 0.255780 0.319831 255 255 0 63 15
0.138403 0.203439 0.226335 255 255 0 63 15
-0.026187 0.124737 0.319840 255 255 0 63 15
-0.078511 0.157071 0.283341 255 255 0 63 15
0.043470 0.069024 0.238396 255 255 0 63 15
-0.031174 0.165539 0.351340 255 255 0 63 15
-0.035511 0.269667 0.319910 255 255 0 63 15
0.043420 0.157881 0.437340 255 255 0 63 15
-0.033007 0.172503 0.357341 255 255 0 63 15
0.133147 0.151317 0.219341 255 255 0 63 15
0.122201 0.128639 0.229340 255 255 0 63 15
0.118357 0.123617 0.251340 255 255 0 63 15
-0.037285 0.153940 0.404191 255 255 0 63 15
0.084676 0.109831 0.319340 255 255 0 63 15
-0.047478 0.115146 0.255340 255 255 0 63 15
-0.029078 0.248416 0.315340 255 255 0 63 15
0.104391 0.153808 0.316471 255 255 0 63 15
0.061689 0.072793 0.259340 255 255 0 63 15
0.143969 0.169794 0.261340 255 255 0 63 15
0.007195 0.080394 0.235340 255 255 0 63 15
0.137497 0.142409 0.219341 255 255 0 63 15
0.139088 0.148207 0.243340 255 255 0 63 15
0.105863 0.106766 0.319340 255 255 0 63 15
-0.066681 0.225404 0.257340 255 255 0 63 15
0.061696 0.072813 0.247341 255 255 0 63 15
-0.020826 0.091162 0.216331 255 255 0 63 15
0.082627 0.127458 0.405791 255 255 0 63 15
-0.059515 0.113948 0.249340 255 255 0 63 15
0.015285 0.153034 0.445340 255 255 0 63 15
0.041352 0.078213 0.291340 255 255 0 63 15
-0.069883 0.215931 0.213340 255 255 0 63 15
0.137624 0.207321 0.215340 255 255 0 63 15
-0.072839 0.204257 0.316351 255 255 0 63 15
0.138543 0.203847 0.319340 255 255 0 63 15
0.131847 0.147539 0.283341 255 255 0 63 15
0.000193 0.072345 0.231340 255 255 0 63 15
0.098130 0.160195 0.348360 255 255 0 63 15
0.069979 0.127584 0.407719 255 255 0 63 15
-0.049995 0.117025 0.293341 255 255 0 63 15
0.091284 0.140312 0.317340 255 255 0 63 15
0.024857 0.076401 0.289340 255 255 0 63 15
-0.041209 0.199713 0.381340 255 255 0 63 15
0.069673 0.191146 0.437340 255 255 0 63 15
-0.035231 0.202906 0.357341 255 255 0 63 15
0.075740 0.193287 0.409340 255 255 0 63 15
-0.002656 0.137786 0.404564 255 255 0 63 15
0.089456 0.147290 0.377340 255 255 0 63 15
0.097794 0.159221 0.383340 255 255 0 63 15
-0.072621 0.202067 0.261340 255 255 0 63 15
0.080596 0.136619 0.345340 255 255 0 63 15
-0.006339 0.188522 0.435340 255 255 0 63 15
0.053700 0.152225 0.427340 255 255 0 63 15
0.136053 0.138676 0.277340 255 255 0 63 15
0.139285 0.212146 0.267340 255 255 0 63 15
0.036968 0.077607 0.231340 255 255 0 63 15
0.128908 0.234207 0.311341 255 255 0 63 15
-0.026741 0.196846 0.402369 255 255 0 63 15
0.050506 0.077176 0.250323 255 255 0 63 15
0.136498 0.216335 0.237341 255 255 0 63 15
-0.073802 0.141132 0.287340 255 255 0 63 15
0.087656 0.252641 0.316488 255 255 0 63 15
0.113784 0.144228 0.319456 255 255 0 63 15
0.133175 0.151399 0.267340 255 255 0 63 15
-0.040008 0.106227 0.239340 255 255 0 63 15
-0.064862 0.122992 0.279340 255 255 0 63 15
-0.066070 0.227310 0.233340 255 255 0 63 15
-0.016228 0.243991 0.407340 255 255 0 63 15
0.103000 0.232552 0.317340 255 255 0 63 15
-0.070563 0.131006 0.303340 255 255 0 63 15
0.052250 0.112954 0.357341 255 255 0 63 15
