ply
format ascii 1.0
element vertex 1142
property float x
property float y
property float z
property uchar red
property uchar green
property uchar blue
property uchar semantic_label
property uchar instance_label
end_header
0.908454 0.002075 -0.841666 62 52 38 3 4
0.810315 0.021683 -0.719106 87 61 23 3 4
0.809867 0.012908 -0.727851 88 60 28 3 4
0.808804 0.016209 -0.722417 89 63 24 3 4
0.808581 0.012340 -0.694034 87 65 40 3 4
0.701554 0.019023 -0.596448 87 60 38 3 4
0.675671 0.019547 -0.594164 87 61 39 3 4
0.688089 0.019157 -0.586285 84 62 35 3 4
0.679354 0.055480 -0.984846 34 27 19 2 1
0.673169 0.048394 -0.983343 33 27 22 2 1
0.675717 0.032742 -0.988407 32 24 20 2 1
0.689160 0.044390 -0.983492 36 28 24 2 1
0.508016 0.045990 -0.990085 61 49 43 2 1
0.771635 0.036121 -0.984745 41 33 27 2 1
0.805431 0.036105 -0.984085 39 30 29 2 1
0.799775 0.053173 -0.982546 40 31 26 2 1
0.802699 0.026093 -0.989367 40 32 24 2 1
0.754067 -0.023368 -0.994223 29 27 23 2 1
0.751859 -0.039211 -0.992708 30 26 22 2 1
0.787962 0.038228 -0.782829 89 61 40 3 4
0.799137 0.041836 -0.782887 86 62 37 3 4
0.787702 0.033520 -0.787653 89 61 37 3 4
0.812804 0.022293 -0.768496 82 60 42 3 4
0.795556 0.029865 -0.786085 86 60 38 3 4
0.795194 0.031315 -0.770319 86 61 37 3 4
0.800294 0.035437 -0.774005 89 63 36 3 4
0.622166 -0.082291 -0.985809 47 38 29 2 1
0.653451 -0.080340 -0.986961 47 37 30 2 1
0.627782 -0.068528 -0.980764 44 34 29 2 1
0.640680 -0.079848 -0.985764 45 35 29 2 1
1.220521 0.199379 -0.635437 12 8 6 1 7
1.217577 0.212241 -0.638380 12 9 7 1 7
0.621098 0.036235 -0.871581 42 34 25 3 4
0.605604 -0.087033 -0.990312 44 33 29 2 1
0.608491 -0.071890 -0.987737 44 33 26 2 1
0.651864 0.023648 -0.753533 54 44 28 3 4
0.655930 0.024412 -0.740147 65 50 39 3 4
0.621943 0.024083 -0.743611 58 47 35 3 4
0.681486 0.032315 -0.842543 47 38 26 3 4
0.694923 0.031477 -0.834702 49 43 23 3 4
0.676391 0.025625 -0.831547 46 37 28 3 4
0.693682 0.037683 -0.835438 49 40 27 3 4
0.825662 0.005966 -0.811378 93 78 56 3 4
0.821960 0.007799 -0.566066 74 51 33 3 4
0.876480 0.055712 -1.004352 44 31 22 2 1
0.878110 0.055108 -0.993541 47 37 31 2 1
0.902252 0.055027 -0.992176 46 36 30 2 1
0.888303 0.055813 -0.991453 47 37 30 2 1
0.892545 0.050170 -0.992194 46 35 24 2 1
0.487385 0.091185 -0.977085 31 25 16 2 1
0.503201 0.081798 -0.979011 35 28 19 2 1
0.456407 0.099258 -0.977267 21 15 9 2 1
0.848921 0.011078 -0.897115 48 38 32 3 4
0.849305 -0.001391 -0.871497 45 35 30 3 4
0.865574 -0.007575 -0.871824 50 40 31 3 4
0.586329 -0.043516 -0.988977 45 36 30 2 1
0.596474 -0.057829 -0.987643 47 37 32 2 1
0.606647 -0.056923 -0.976925 43 33 31 2 1
0.600612 -0.045867 -0.970842 43 34 26 2 1
1.211432 0.206124 -0.666143 45 32 17 1 7
1.216730 0.216076 -0.652675 17 12 3 1 7
1.212527 0.234547 -0.668390 19 13 3 1 7
0.824714 0.009872 -0.989945 42 33 29 2 1
0.836660 0.025507 -0.988795 38 28 23 2 1
0.852870 0.025177 -0.990186 40 29 26 2 1
0.838131 0.035275 -0.977063 46 37 32 2 1
0.700586 0.021302 -0.648120 85 61 37 3 4
0.693590 0.021103 -0.664829 85 61 30 3 4
0.701387 0.032225 -0.658924 86 60 38 3 4
0.692610 0.029882 -0.664892 85 61 34 3 4
0.707664 0.022936 -0.659465 86 61 38 3 4
0.805843 0.013159 -0.674407 86 61 40 3 4
0.818737 0.007723 -0.672769 81 61 42 3 4
0.801658 0.013868 -0.655184 83 61 38 3 4
0.795820 0.015228 -0.637734 83 62 36 3 4
0.744687 0.028060 -0.637469 86 62 37 3 4
0.483772 0.030058 -0.722463 50 40 29 3 4
1.214419 0.190549 -0.653297 18 9 2 1 7
1.216007 0.205113 -0.646975 14 7 3 1 7
1.211906 0.195855 -0.666783 59 41 28 1 7
1.222512 0.194847 -0.645876 12 10 7 1 7
0.711662 -0.000525 -0.992739 17 18 11 2 1
0.877770 0.025159 -0.919268 56 45 34 3 4
0.855334 0.046760 -0.917487 66 53 41 3 4
0.856786 0.021708 -0.901464 58 45 33 3 4
0.872056 0.010673 -0.907881 61 50 37 3 4
0.862983 0.053737 -0.924346 53 44 29 3 4
0.849558 0.048931 -0.912701 52 43 29 3 4
0.626892 0.024341 -0.825947 41 34 27 3 4
0.638043 0.023852 -0.806193 44 32 25 3 4
0.625192 0.023555 -0.811641 44 33 23 3 4
0.500681 0.093135 -0.978768 17 14 9 2 1
1.206522 0.255027 -0.694670 73 53 29 1 7
1.200020 0.277780 -0.678564 26 15 5 1 7
1.208757 0.278569 -0.676251 34 22 11 1 7
1.204405 0.261275 -0.680626 27 18 7 1 7
1.212001 0.261499 -0.671567 31 22 9 1 7
0.676893 0.030143 -0.855890 43 31 24 3 4
0.911048 0.048620 -0.989162 44 35 28 2 1
0.915102 0.044492 -0.973516 55 47 35 2 1
0.546078 0.049555 -0.855877 47 35 22 3 4
0.539322 0.036045 -0.863329 36 29 26 3 4
0.552581 0.049910 -0.863652 27 23 16 3 4
0.560797 0.046613 -0.862912 40 32 23 3 4
1.200875 0.275083 -0.684394 79 57 32 1 7
1.202600 0.282902 -0.674143 38 20 6 1 7
0.585107 0.024826 -0.677821 64 50 39 3 4
0.602489 0.024640 -0.716422 71 54 36 3 4
0.880243 0.021256 -0.989999 49 32 28 2 1
0.879158 0.030389 -0.976501 46 33 20 2 1
0.842792 0.038642 -0.975448 41 32 28 2 1
0.860173 0.031005 -0.976818 42 32 24 2 1
0.864458 0.044061 -0.976904 52 41 33 2 1
0.519796 0.026094 -0.764001 42 35 21 3 4
0.682872 0.027820 -0.820597 46 38 27 3 4
0.687285 0.029369 -0.816021 62 49 36 3 4
0.692549 0.036041 -0.823325 56 48 35 3 4
0.674718 0.021533 -0.805406 62 51 35 3 4
0.677333 0.025635 -0.814084 49 40 30 3 4
0.743993 -0.069805 -0.993250 31 24 17 2 1
0.530215 0.041080 -0.869824 39 29 26 3 4
0.540841 0.046229 -0.866774 37 30 23 3 4
0.550811 0.044983 -0.872763 34 30 22 3 4
0.704412 0.019475 -0.613970 84 62 37 3 4
0.682195 0.018887 -0.614669 86 62 38 3 4
0.874464 0.005537 -0.992414 48 39 26 2 1
0.871672 -0.003437 -0.992016 52 40 31 2 1
0.886912 0.012491 -0.990428 57 45 36 2 1
0.539651 0.061516 -0.943204 52 41 34 2 1
0.499790 0.031610 -0.825514 37 30 22 3 4
0.541223 0.063499 -0.957018 61 50 33 2 1
0.525920 0.059981 -0.941918 56 44 34 2 1
0.884499 -0.008650 -0.702135 80 59 35 3 4
0.667779 0.020867 -0.635052 87 63 39 3 4
0.647347 0.018133 -0.600392 86 64 37 3 4
0.922697 0.033603 -0.965325 62 49 35 3 4
0.928687 0.024408 -0.967626 69 55 39 3 4
0.924784 0.019809 -0.981448 58 46 35 2 1
0.945319 0.015863 -0.977313 62 45 37 3 4
0.750853 0.018603 -0.619029 85 62 36 3 4
0.761029 0.019346 -0.615800 84 61 30 3 4
0.743592 0.020797 -0.637114 88 60 38 3 4
0.772116 0.018019 -0.618787 88 63 42 3 4
0.771738 0.027428 -0.614638 85 62 38 3 4
0.760413 0.025302 -0.621007 84 62 39 3 4
0.699818 -0.020967 -0.992596 27 22 18 2 1
0.726816 -0.040712 -0.993305 32 27 19 2 1
0.729442 -0.010240 -0.992424 26 24 24 2 1
0.723050 -0.023804 -0.990764 28 24 26 2 1
0.870928 -0.007995 -0.604074 71 51 27 3 4
0.881078 -0.009215 -0.565266 72 51 32 3 4
1.196498 0.245512 -0.749255 68 52 27 1 7
1.193422 0.231357 -0.747188 69 52 25 1 7
1.198242 0.229075 -0.733597 70 54 26 1 7
1.192709 0.209446 -0.745798 63 49 24 1 7
1.194736 0.219785 -0.756151 65 50 26 1 7
1.192149 0.228782 -0.760774 44 33 20 1 7
0.575262 -0.014336 -0.992232 54 44 34 2 1
0.552501 0.000195 -0.993843 52 39 31 2 1
0.652721 -0.062652 -0.986604 38 30 27 2 1
0.648047 -0.052840 -0.989884 37 31 30 2 1
0.495107 0.030105 -0.783925 42 33 23 3 4
0.697779 0.022909 -0.670643 86 60 34 3 4
0.687893 0.022850 -0.677534 88 63 31 3 4
0.680305 0.023694 -0.689269 89 61 34 3 4
0.576402 0.022384 -0.639174 92 64 37 3 4
0.816340 0.045102 -0.861726 65 53 37 3 4
0.833681 0.040129 -0.838838 69 54 38 3 4
0.830310 0.041656 -0.847967 65 49 33 3 4
0.813584 0.037996 -0.843687 63 50 29 3 4
0.806359 0.044515 -0.846747 58 46 30 3 4
0.828138 0.050659 -0.844104 61 47 32 3 4
0.822889 0.036261 -0.831995 62 51 34 3 4
0.815614 0.047975 -0.850060 63 50 36 3 4
0.613807 0.021663 -0.661932 92 62 38 3 4
0.579986 0.023978 -0.656599 91 62 37 3 4
1.205290 0.168388 -0.675645 66 48 23 1 7
0.912967 0.015347 -0.938757 60 49 43 3 4
0.908138 0.025747 -0.942034 57 43 35 3 4
0.931543 0.020063 -0.957319 59 45 35 3 4
1.192108 0.266285 -0.740802 67 52 27 1 7
1.198215 0.250023 -0.757206 47 34 20 1 7
1.189787 0.260968 -0.750061 43 33 24 1 7
1.180333 0.266251 -0.734624 62 48 26 1 7
0.673995 0.030316 -0.802201 69 55 36 3 4
0.671283 0.040041 -0.823320 49 39 25 3 4
0.683122 0.039183 -0.819929 46 37 22 3 4
0.685157 0.039956 -0.833745 46 37 22 3 4
0.675721 0.035446 -0.806603 61 51 31 3 4
0.822061 0.032226 -0.652707 83 62 34 3 4
0.834874 0.036124 -0.647267 63 47 27 3 4
0.808397 0.032566 -0.636636 85 63 32 3 4
0.830250 0.035379 -0.663068 84 59 40 3 4
0.819165 0.030896 -0.668371 87 59 38 3 4
0.807153 0.015625 -0.693021 87 64 41 3 4
0.817630 0.008444 -0.687416 83 60 39 3 4
0.806784 0.020329 -0.670145 82 61 36 3 4
0.813183 0.021730 -0.692826 86 64 36 3 4
0.643432 0.023983 -0.820406 43 35 24 3 4
0.659347 0.040661 -0.829041 48 37 26 3 4
0.650667 0.075361 -0.977480 15 11 8 2 1
0.635064 0.066849 -0.983407 26 21 17 2 1
0.632619 0.054078 -0.983182 46 35 28 2 1
0.658977 0.067002 -0.984920 30 25 20 2 1
0.721497 0.023955 -0.656759 85 64 40 3 4
0.718709 0.031909 -0.653085 87 65 37 3 4
0.732071 0.020311 -0.641901 86 62 39 3 4
0.734317 0.027845 -0.649138 84 61 33 3 4
0.516129 0.030634 -0.992053 58 46 41 2 1
0.825890 0.040988 -0.757859 78 57 23 3 4
0.824955 0.042353 -0.740860 80 58 32 3 4
0.810991 0.036259 -0.733489 83 59 35 3 4
0.814672 0.037794 -0.747924 86 63 35 3 4
0.816123 0.040477 -0.764685 78 56 23 3 4
0.827867 0.047908 -0.749645 76 55 23 3 4
0.857364 -0.004727 -0.725513 83 60 37 3 4
0.851973 -0.002254 -0.813179 70 57 45 3 4
0.828574 0.003892 -0.798969 66 56 37 3 4
0.543565 0.024800 -0.636356 90 63 34 3 4
0.665033 0.022367 -0.784177 62 49 36 3 4
0.673208 0.023210 -0.793797 71 55 42 3 4
0.658453 0.020581 -0.800372 62 51 35 3 4
0.667320 0.028801 -0.784223 61 47 34 3 4
0.805678 0.036397 -0.872199 63 53 32 3 4
0.807214 0.032582 -0.858284 55 44 30 3 4
0.807768 0.043347 -0.865823 64 52 38 3 4
0.673682 0.022675 -0.686805 88 63 36 3 4
0.673328 0.025369 -0.691635 89 65 33 3 4
0.669831 -0.054653 -0.991866 38 30 25 2 1
0.481105 0.037130 -0.860845 43 34 22 3 4
0.512190 0.039192 -0.868207 40 33 19 3 4
0.498171 0.036264 -0.848162 35 27 20 3 4
0.518755 0.035076 -0.851121 37 30 22 3 4
0.522760 0.040356 -0.870722 34 27 20 3 4
0.880183 0.050967 -0.981827 49 37 32 2 1
0.881244 0.040906 -0.977713 43 33 24 2 1
0.905182 0.036559 -0.979591 49 39 28 2 1
0.896585 0.029017 -0.976349 46 39 23 2 1
0.896742 0.044734 -0.983396 46 36 24 2 1
0.906510 0.041884 -0.979246 49 39 27 2 1
0.903148 0.055987 -0.982703 45 36 30 2 1
0.904697 0.048860 -0.975544 48 39 29 2 1
0.913367 0.052193 -0.965311 31 28 21 2 1
0.915586 0.060653 -0.985708 41 34 24 2 1
0.571927 -0.075990 -0.994177 61 47 34 2 1
0.566686 -0.090552 -0.994244 56 45 37 2 1
1.221391 0.260802 -0.658230 16 9 7 1 7
1.213774 0.259209 -0.663272 15 10 6 1 7
1.210945 0.273887 -0.669115 15 7 4 1 7
1.220327 0.278949 -0.669201 17 11 4 1 7
1.221145 0.287734 -0.668325 18 10 2 1 7
1.225326 0.281511 -0.659145 14 10 6 1 7
0.728844 0.018982 -0.607244 84 59 37 3 4
0.732563 0.030866 -0.635886 85 63 35 3 4
0.597498 -0.072467 -0.991111 46 36 32 2 1
0.587367 -0.056390 -0.991282 46 38 25 2 1
0.610490 -0.120953 -0.995238 43 32 21 2 1
0.508802 0.027376 -0.665273 65 48 32 3 4
0.491829 0.027043 -0.641138 89 61 36 3 4
0.618577 0.023274 -0.676020 88 60 43 3 4
0.618235 0.023283 -0.686901 92 62 38 3 4
0.837016 0.031099 -0.892571 63 52 37 3 4
0.845069 0.022282 -0.891516 62 49 33 3 4
0.826624 0.015636 -0.876865 51 39 27 3 4
0.827978 0.011105 -0.872351 47 37 24 3 4
0.835876 0.012642 -0.885484 63 52 39 3 4
0.829161 0.023352 -0.876779 57 45 30 3 4
0.611500 0.033879 -0.870722 46 35 24 3 4
0.636269 0.034078 -0.868914 42 30 29 3 4
0.649133 0.019088 -0.588693 83 60 37 3 4
0.607701 0.019708 -0.591204 85 62 37 3 4
0.611821 0.020583 -0.572757 86 60 38 3 4
0.577553 -0.115709 -0.995384 51 36 34 2 1
0.906487 0.069830 -1.004917 37 29 27 2 1
0.871018 -0.007132 -0.796656 80 65 41 3 4
0.879296 -0.006886 -0.785420 94 66 34 3 4
0.885314 -0.003436 -0.792915 91 62 36 3 4
0.733891 0.012982 -0.990648 29 26 18 2 1
0.823660 0.067939 -0.979372 23 16 13 2 1
0.590538 -0.039071 -0.979685 50 38 33 2 1
0.585379 -0.020994 -0.989592 53 41 33 2 1
0.792368 0.013973 -0.604830 83 60 37 3 4
0.785392 0.034632 -0.601229 82 60 40 3 4
0.555691 0.041443 -0.989299 52 41 33 2 1
0.821877 0.029394 -0.679518 82 61 34 3 4
0.814892 0.034812 -0.692263 83 61 32 3 4
0.828345 0.039260 -0.679000 81 61 33 3 4
0.844999 0.040287 -0.679980 73 52 29 3 4
0.850769 -0.003619 -0.606847 73 51 32 3 4
0.849535 -0.003819 -0.618618 77 54 36 3 4
0.863159 -0.006186 -0.621002 75 53 33 3 4
0.837203 0.001793 -0.733994 78 55 28 3 4
0.838886 0.000291 -0.703370 85 64 38 3 4
1.175367 0.141329 -0.721903 60 44 22 1 7
1.167457 0.124260 -0.742267 48 36 20 1 7
0.524399 0.012527 -0.991955 55 44 37 2 1
0.494979 -0.005174 -0.993016 54 41 36 2 1
0.669278 -0.016135 -0.987363 20 17 10 2 1
0.728870 -0.061186 -0.989612 34 29 20 2 1
0.732183 -0.083433 -0.985599 34 25 20 2 1
0.746802 -0.050995 -0.989297 32 25 16 2 1
0.866671 -0.006259 -0.686232 79 58 34 3 4
0.755346 0.068664 -0.974964 19 15 12 2 1
0.716868 0.070776 -0.984440 30 24 21 2 1
0.727175 0.076520 -0.978348 16 12 8 2 1
0.744290 0.085383 -0.976156 15 11 8 2 1
0.757949 0.065983 -0.979699 19 14 11 2 1
0.718841 0.082082 -0.974100 13 9 6 2 1
0.886497 -0.001619 -0.848481 69 57 44 3 4
0.896873 -0.000979 -0.855464 69 56 42 3 4
0.886533 -0.002256 -0.880562 64 52 39 3 4
0.883363 -0.002571 -0.888878 55 43 30 3 4
0.900320 0.000023 -0.890248 57 44 31 3 4
0.823665 -0.014182 -0.992502 55 46 47 2 1
0.836801 -0.022694 -0.990538 36 26 23 2 1
0.639809 0.085728 -0.976803 13 9 6 2 1
0.623671 0.085080 -0.974696 14 10 7 2 1
0.619265 0.077012 -0.976837 14 10 7 2 1
0.638026 -0.103482 -0.993673 44 38 24 2 1
0.615785 -0.099325 -0.992290 43 34 24 2 1
0.654890 -0.103788 -0.993315 43 35 28 2 1
0.576263 -0.047059 -0.993884 45 38 34 2 1
0.797739 0.024969 -0.648466 87 63 39 3 4
0.798187 0.026001 -0.667232 87 60 37 3 4
0.807623 0.027011 -0.644493 84 62 30 3 4
0.800035 0.019212 -0.651280 85 61 39 3 4
0.654967 0.022108 -0.791143 66 53 37 3 4
0.635663 0.022339 -0.790502 54 44 34 3 4
0.667080 0.038431 -0.806942 71 57 36 3 4
0.662605 0.033476 -0.793524 68 54 38 3 4
0.659218 0.035067 -0.771240 68 53 38 3 4
0.653329 0.036336 -0.781672 69 52 48 3 4
0.668667 0.028161 -0.770036 59 47 35 3 4
0.594701 -0.100226 -0.994043 41 33 25 2 1
0.908585 0.013094 -0.646394 67 48 30 3 4
0.916379 0.010890 -0.663506 68 49 28 3 4
0.905564 0.015750 -0.657418 63 44 27 3 4
0.920991 0.010461 -0.636723 69 50 23 3 4
0.801769 0.014583 -0.768825 82 63 41 3 4
0.811662 0.022495 -0.739825 91 65 29 3 4
0.822724 0.008444 -0.726435 94 65 32 3 4
0.802159 0.015342 -0.751780 93 68 34 3 4
0.899975 0.002452 -0.909589 48 38 29 3 4
0.895659 0.007577 -0.918794 51 41 37 3 4
0.927675 0.009157 -0.936123 50 39 36 3 4
0.751727 0.072580 -0.965940 21 17 14 2 1
0.754740 0.037648 -0.984128 41 28 25 2 1
0.763407 0.051255 -0.983827 50 40 28 2 1
0.737887 0.030772 -0.986860 35 27 18 2 1
0.746728 0.062847 -0.981269 41 31 28 2 1
0.663260 0.005745 -0.989875 34 28 21 2 1
0.626013 -0.006329 -0.985695 51 43 33 2 1
0.643849 -0.018546 -0.982846 42 34 28 2 1
0.650078 -0.006067 -0.986441 37 29 23 2 1
0.855380 -0.006181 -0.579200 73 50 29 3 4
1.195273 0.211383 -0.733190 71 52 28 1 7
1.198751 0.227070 -0.712121 73 54 28 1 7
0.659784 0.022492 -0.693492 89 62 35 3 4
0.654022 0.021412 -0.667201 88 61 35 3 4
0.654024 0.023029 -0.701420 91 62 43 3 4
0.666402 0.037718 -0.704501 85 57 35 3 4
0.671917 0.035736 -0.689998 91 63 37 3 4
0.664825 0.033373 -0.697756 87 60 32 3 4
0.855063 0.005957 -0.990471 46 38 27 2 1
0.626426 0.044595 -0.843677 44 35 24 3 4
0.599571 0.045327 -0.858866 40 29 31 3 4
0.611809 0.042559 -0.862859 41 35 25 3 4
0.534619 0.067136 -0.970213 49 39 32 2 1
0.516487 0.087073 -0.975578 32 25 16 2 1
0.525251 0.067370 -0.977587 59 46 36 2 1
0.524509 0.079607 -0.973323 53 43 34 2 1
0.526166 0.080159 -0.966822 48 40 34 2 1
0.596922 0.020924 -0.595681 89 61 35 3 4
0.571923 0.021671 -0.564828 84 62 36 3 4
0.626131 0.023309 -0.770542 63 52 41 3 4
0.643800 0.022608 -0.774659 77 64 47 3 4
0.618180 0.023084 -0.788871 46 34 25 3 4
1.189813 0.284091 -0.685406 54 37 21 1 7
1.192046 0.286289 -0.672635 52 36 19 1 7
0.595501 0.024635 -0.739107 62 49 38 3 4
0.812898 0.040117 -0.778244 88 62 37 3 4
1.168465 0.185988 -0.765355 15 14 12 1 7
0.859656 0.059128 -0.992176 42 33 24 2 1
0.866168 0.054025 -0.992869 46 32 24 2 1
0.851492 0.067893 -0.988774 35 29 18 2 1
0.781554 0.015851 -0.592487 84 60 36 3 4
0.760912 0.018606 -0.610546 86 61 40 3 4
0.773509 0.031863 -0.595738 83 60 42 3 4
0.605368 0.021394 -0.639910 92 62 39 3 4
0.609367 0.020798 -0.621594 88 62 31 3 4
0.843283 0.038327 -0.666844 64 45 29 3 4
0.783051 -0.022217 -0.994253 19 16 12 2 1
0.897911 0.069943 -1.010859 38 30 20 2 1
0.871218 0.070688 -1.001455 34 28 19 2 1
0.879794 0.066037 -1.003123 23 19 12 2 1
0.626487 0.029579 -0.853470 41 29 27 3 4
0.638037 0.028465 -0.846837 35 29 21 3 4
0.603307 0.025476 -0.821449 41 32 27 3 4
0.627055 0.039106 -0.859711 43 35 23 3 4
0.697943 0.080238 -0.973457 14 10 9 2 1
1.198450 0.196785 -0.712471 68 50 27 1 7
0.818948 0.035428 -0.883337 59 49 33 3 4
0.825258 0.051403 -0.870869 47 36 24 3 4
0.822862 0.050894 -0.885693 45 37 24 3 4
1.206406 0.178392 -0.667457 63 45 27 1 7
1.212230 0.153619 -0.639221 20 15 8 1 7
1.205518 0.164241 -0.665125 53 36 18 1 7
1.204919 0.154958 -0.669817 66 48 26 1 7
0.554646 -0.023424 -0.994327 57 45 35 2 1
1.201667 0.281303 -0.665817 20 6 1 1 7
0.600060 0.028423 -0.990324 53 45 35 2 1
0.689320 -0.065273 -0.981256 39 32 24 2 1
0.682203 -0.070194 -0.989543 37 30 22 2 1
0.684106 -0.056645 -0.989990 37 29 19 2 1
0.713176 -0.055165 -0.988577 38 32 25 2 1
0.571922 0.024940 -0.715121 64 51 36 3 4
0.676849 0.020685 -0.663561 87 65 28 3 4
0.665365 0.020041 -0.643542 86 61 37 3 4
0.815010 0.028585 -0.862582 57 43 32 3 4
0.809659 0.030163 -0.844046 56 44 28 3 4
0.541350 0.032411 -0.844331 44 34 26 3 4
1.193425 0.152533 -0.715841 64 47 23 1 7
1.186921 0.143275 -0.718892 65 45 26 1 7
1.188753 0.128510 -0.709105 57 40 25 1 7
1.189457 0.165899 -0.726632 66 47 23 1 7
1.183361 0.290643 -0.720322 77 56 30 1 7
1.185665 0.296972 -0.705976 74 54 25 1 7
1.182534 0.275306 -0.731288 73 56 24 1 7
1.187492 0.265217 -0.713338 75 56 29 1 7
0.821269 0.039837 -0.710033 72 54 29 3 4
0.823257 0.040160 -0.722403 78 57 30 3 4
0.697887 -0.047300 -0.992275 27 23 14 2 1
0.915726 0.003514 -0.672993 68 50 30 3 4
0.678610 0.000107 -0.991345 17 14 8 2 1
0.656523 0.019778 -0.990908 26 18 16 2 1
0.696588 -0.082090 -0.988103 37 27 23 2 1
0.699254 -0.075647 -0.978148 36 27 21 2 1
0.716244 -0.087727 -0.980059 33 25 20 2 1
0.712981 -0.070520 -0.980569 34 24 21 2 1
0.706018 -0.092185 -0.985330 37 29 21 2 1
0.900573 0.063755 -1.000051 37 26 24 2 1
0.912590 0.056587 -1.019047 35 23 18 2 1
0.921745 0.063694 -1.021176 24 19 14 2 1
0.912217 0.064086 -0.994841 37 28 24 2 1
0.909124 0.060682 -1.015361 24 19 14 2 1
0.926478 0.060946 -1.018251 41 32 30 2 1
0.917249 0.071809 -1.020610 24 18 15 2 1
0.920048 0.067990 -1.014938 25 19 15 2 1
0.922173 0.062705 -0.995603 37 28 23 2 1
0.887475 -0.007480 -0.649203 77 56 30 3 4
0.861662 -0.005394 -0.642460 78 56 30 3 4
0.884887 -0.009314 -0.676820 78 56 36 3 4
0.877601 0.004455 -0.904247 50 39 35 3 4
0.857971 0.009205 -0.902149 48 38 32 3 4
0.894435 0.015155 -0.927108 58 48 39 3 4
0.576358 -0.136938 -0.997187 46 36 31 2 1
0.596193 -0.124242 -0.994812 45 36 28 2 1
0.848451 -0.002043 -0.746525 88 61 27 3 4
0.507208 0.030153 -0.717481 41 31 22 3 4
0.487001 0.029963 -0.691930 45 35 23 3 4
0.820203 0.041773 -0.980165 36 28 21 2 1
0.836259 0.055701 -0.974959 40 32 23 2 1
0.827217 0.056114 -0.974941 38 31 23 2 1
0.814259 0.063047 -0.974121 37 31 20 2 1
0.818964 0.053242 -0.981458 41 33 21 2 1
0.824510 0.033784 -0.982753 44 34 31 2 1
0.586258 -0.000511 -0.991551 56 44 40 2 1
1.180252 0.214614 -0.755232 40 29 18 1 7
1.158548 0.201039 -0.746650 41 31 19 1 7
1.169044 0.192823 -0.744910 45 32 20 1 7
0.582329 0.036228 -0.872142 37 28 27 3 4
0.598070 0.038203 -0.870934 37 27 24 3 4
0.564071 0.043605 -0.871129 37 31 26 3 4
0.577248 0.043970 -0.873959 38 30 23 3 4
0.588444 0.042447 -0.868554 43 33 30 3 4
0.570844 0.047176 -0.862817 41 31 21 3 4
1.209771 0.162188 -0.655763 57 42 28 1 7
1.214014 0.172950 -0.646066 25 17 5 1 7
1.220492 0.171575 -0.638533 13 9 4 1 7
0.675498 0.031874 -0.680767 89 66 25 3 4
0.684520 0.034182 -0.673425 88 63 31 3 4
0.577935 0.025062 -0.693541 69 53 39 3 4
1.221941 0.223306 -0.647775 14 9 8 1 7
1.219185 0.244717 -0.662742 15 9 3 1 7
1.224273 0.240208 -0.649279 14 9 11 1 7
0.682135 -0.028701 -0.994025 31 24 17 2 1
0.615259 -0.065026 -0.977421 41 32 27 2 1
0.630814 -0.043584 -0.986575 41 34 28 2 1
0.640064 -0.035236 -0.993030 43 35 30 2 1
0.611109 -0.047798 -0.974261 43 32 29 2 1
0.841345 0.000503 -0.795299 77 63 45 3 4
0.856260 -0.004018 -0.790567 74 58 29 3 4
0.585799 0.020985 -0.623992 88 63 33 3 4
1.182127 0.203157 -0.750108 51 37 19 1 7
1.195772 0.186882 -0.722674 71 53 25 1 7
1.188264 0.195503 -0.742517 65 49 23 1 7
0.784427 0.030073 -0.613220 82 60 40 3 4
0.801919 0.032947 -0.611784 81 59 39 3 4
0.781797 0.025702 -0.624524 84 62 35 3 4
0.796902 0.026834 -0.632136 85 63 37 3 4
0.785627 0.015601 -0.625116 85 61 33 3 4
0.791539 0.014365 -0.630255 84 61 38 3 4
0.802003 0.020745 -0.630659 84 62 30 3 4
0.799950 0.030566 -0.626880 85 62 36 3 4
0.810779 0.032670 -0.625174 80 59 39 3 4
0.804960 0.039811 -0.620660 71 52 32 3 4
0.637414 -0.028609 -0.988406 43 36 29 2 1
0.476849 0.048259 -0.875603 41 36 27 3 4
1.174604 0.306367 -0.718634 38 29 12 1 7
1.177086 0.300304 -0.723735 57 43 20 1 7
1.174153 0.302932 -0.706115 39 31 14 1 7
0.564102 0.022714 -0.991918 57 46 36 2 1
0.779534 0.051673 -0.983496 43 34 25 2 1
0.800750 0.059447 -0.973243 21 14 11 2 1
0.765994 0.067333 -0.966623 29 22 18 2 1
0.791013 0.056015 -0.978641 39 30 26 2 1
0.788902 0.061647 -0.968910 19 11 9 2 1
0.779267 0.064216 -0.974201 27 21 17 2 1
0.477651 0.057246 -0.989419 63 46 41 2 1
0.511223 0.067875 -0.980628 54 42 40 2 1
0.496214 0.069413 -0.980282 60 48 46 2 1
0.483896 0.079333 -0.978996 50 40 35 2 1
0.576226 0.025666 -0.733353 63 50 38 3 4
0.578536 0.025774 -0.749502 49 39 28 3 4
0.833036 0.002496 -0.599153 74 53 32 3 4
0.835376 0.001710 -0.612122 76 55 28 3 4
0.678328 0.068136 -0.983483 39 31 24 2 1
0.657040 0.087464 -0.973158 14 10 8 2 1
0.670499 0.078059 -0.977687 15 12 8 2 1
0.682123 0.081071 -0.977247 15 11 9 2 1
0.804501 0.025386 -0.679877 83 61 38 3 4
0.808596 0.030429 -0.671925 83 61 36 3 4
0.796113 0.035682 -0.693196 86 63 33 3 4
0.805210 0.035963 -0.707485 83 59 37 3 4
0.807665 0.025796 -0.695927 87 63 40 3 4
0.806579 0.030917 -0.688211 85 62 38 3 4
0.550615 0.065606 -0.953934 31 23 15 2 1
0.618087 0.024033 -0.705061 60 47 37 3 4
0.654253 0.032946 -0.989046 41 34 27 2 1
0.649633 0.051766 -0.984435 47 36 30 2 1
0.701493 0.044836 -0.983354 33 25 23 2 1
0.721951 0.027169 -0.987934 34 26 22 2 1
0.723791 0.050158 -0.983170 39 31 23 2 1
0.739485 0.045792 -0.982427 36 28 21 2 1
0.551435 0.038219 -0.866940 37 28 26 3 4
0.562731 0.037453 -0.869542 35 28 27 3 4
0.830273 0.004172 -0.664965 79 60 29 3 4
0.627507 0.020403 -0.640603 88 63 26 3 4
0.635483 0.020119 -0.630710 85 61 40 3 4
0.595305 0.020431 -0.604357 86 62 39 3 4
0.645852 0.020194 -0.621175 84 62 38 3 4
0.891329 0.036967 -0.933233 70 57 42 3 4
0.906060 0.040985 -0.944843 66 54 39 3 4
0.878127 0.040739 -0.927519 59 47 34 3 4
0.874374 0.050811 -0.935256 67 56 37 3 4
1.168024 0.182128 -0.738391 63 46 23 1 7
1.158239 0.153861 -0.759106 36 25 21 1 7
1.164291 0.174097 -0.758694 29 22 16 1 7
1.163271 0.188525 -0.759470 22 20 18 1 7
1.165009 0.165251 -0.754317 56 40 22 1 7
1.163614 0.181326 -0.743421 57 41 21 1 7
1.162687 0.144995 -0.754311 43 30 16 1 7
1.168650 0.164217 -0.742030 58 44 23 1 7
0.578357 0.023932 -0.783989 54 43 33 3 4
0.604239 0.023308 -0.795655 47 34 28 3 4
0.596569 0.023811 -0.773670 45 33 30 3 4
0.520570 0.027733 -0.744006 49 39 30 3 4
0.878434 -0.007527 -0.760007 83 57 22 3 4
0.883986 -0.008276 -0.740578 83 60 40 3 4
0.872655 -0.007750 -0.733297 79 57 31 3 4
0.632855 0.042647 -0.839845 45 36 27 3 4
0.637603 0.038157 -0.861406 36 28 22 3 4
0.649564 0.041003 -0.838965 38 30 22 3 4
0.671687 0.036138 -0.833852 50 38 32 3 4
0.647213 0.035173 -0.864998 39 32 25 3 4
0.662019 0.026512 -0.847281 40 32 24 3 4
0.661257 0.034287 -0.856993 37 32 19 3 4
0.657520 0.039102 -0.846556 42 32 21 3 4
0.667486 0.032338 -0.860631 42 34 24 3 4
0.677246 0.026819 -0.854537 43 36 27 3 4
1.190114 0.291754 -0.746076 67 54 26 1 7
1.160523 0.194138 -0.750537 26 23 19 1 7
0.630981 0.041107 -0.989584 48 39 30 2 1
0.630033 0.020551 -0.991005 52 44 34 2 1
0.607956 0.004687 -0.990980 51 42 33 2 1
0.626648 0.004849 -0.989685 49 41 30 2 1
0.805450 0.031829 -0.756534 91 63 38 3 4
0.807239 0.026082 -0.757537 88 61 37 3 4
0.558828 0.072205 -0.960716 13 9 6 2 1
0.578036 0.063246 -0.978871 52 43 33 2 1
0.548030 0.051891 -0.986122 47 38 28 2 1
0.577327 0.049523 -0.985762 50 41 34 2 1
0.563172 0.059688 -0.985702 53 41 29 2 1
0.575583 0.081627 -0.971698 17 14 10 2 1
0.564541 0.064374 -0.970017 53 43 29 2 1
0.565102 0.079724 -0.966612 14 10 7 2 1
0.864353 -0.002609 -0.889199 62 50 43 3 4
0.865484 -0.012237 -0.992707 47 34 27 2 1
0.841404 -0.005164 -0.989897 40 29 27 2 1
0.850504 -0.031111 -0.990390 42 31 26 2 1
0.681463 0.015790 -0.990110 30 22 18 2 1
0.695870 0.031150 -0.987190 29 22 17 2 1
0.697474 0.015020 -0.990432 24 19 15 2 1
1.191988 0.134040 -0.688242 64 48 23 1 7
1.197540 0.166551 -0.692183 60 44 23 1 7
0.845476 -0.002735 -0.837030 77 63 50 3 4
0.489888 0.041108 -0.880721 49 41 32 3 4
0.505299 0.044600 -0.880147 41 31 24 3 4
0.506224 0.041406 -0.878635 43 34 19 3 4
0.512785 0.046999 -0.865810 41 32 25 3 4
0.496268 0.048256 -0.873445 46 36 29 3 4
0.514390 0.042987 -0.874803 53 43 30 3 4
0.523129 0.045145 -0.867984 35 28 20 3 4
0.536070 -0.063239 -0.994799 62 47 37 2 1
0.559280 -0.042014 -0.994624 59 43 34 2 1
0.788302 0.007153 -0.991163 37 32 20 2 1
0.529480 0.045342 -0.989933 71 58 48 2 1
0.545630 0.063867 -0.970783 49 39 33 2 1
0.538520 0.060607 -0.982941 58 45 40 2 1
1.190915 0.282737 -0.713207 78 57 28 1 7
1.197891 0.284987 -0.703935 79 58 30 1 7
0.787038 0.034649 -0.805315 85 62 41 3 4
0.810210 0.021790 -0.787224 82 62 42 3 4
0.807478 0.035876 -0.822156 63 52 31 3 4
0.813335 0.023131 -0.833103 80 63 44 3 4
0.800036 0.031949 -0.817196 85 64 35 3 4
0.811982 0.022644 -0.814200 89 69 46 3 4
0.805311 0.032944 -0.831844 63 51 31 3 4
0.873594 -0.007291 -0.830319 73 57 47 3 4
0.873359 -0.006173 -0.819044 69 56 37 3 4
0.895910 -0.001712 -0.811032 72 56 27 3 4
0.769444 0.012966 -0.991249 23 19 16 2 1
0.757931 -0.003291 -0.991090 18 16 12 2 1
0.809118 0.012986 -0.821139 99 85 58 3 4
0.804104 0.014786 -0.832794 63 47 36 3 4
0.810672 0.020116 -0.828038 84 65 48 3 4
0.806679 0.015833 -0.818490 81 62 43 3 4
0.826071 0.005672 -0.824213 96 82 54 3 4
0.863404 0.054929 -0.983902 44 34 26 2 1
0.864255 0.054574 -0.973721 45 36 29 2 1
0.839527 0.066941 -0.986789 35 28 22 2 1
0.845540 0.055741 -0.979771 44 36 26 2 1
0.857949 0.048705 -0.978543 41 32 25 2 1
0.589322 0.055486 -0.984779 54 41 40 2 1
0.606866 0.047760 -0.987816 59 43 36 2 1
0.606192 0.064307 -0.983482 47 39 29 2 1
0.609252 0.071263 -0.983420 47 39 29 2 1
0.899944 0.020803 -0.983321 51 39 31 2 1
0.914452 0.028127 -0.975332 47 36 28 2 1
0.920258 0.027710 -0.973096 57 46 35 3 4
0.874667 0.057680 -0.987190 50 39 32 2 1
0.908473 0.013912 -0.827582 77 60 37 3 4
0.700588 0.060313 -0.984691 35 27 27 2 1
0.695853 0.075567 -0.980020 26 21 12 2 1
0.831986 0.043124 -0.895076 61 51 31 3 4
0.840144 0.052941 -0.901623 50 42 27 3 4
0.831702 0.053188 -0.889095 50 42 27 3 4
0.546796 0.025857 -0.703879 67 52 37 3 4
0.563287 0.026309 -0.698593 62 47 34 3 4
0.556254 0.025930 -0.679118 62 45 35 3 4
0.523242 0.027104 -0.687022 66 50 39 3 4
0.550136 0.025867 -0.659343 68 48 34 3 4
0.526933 0.069120 -0.954066 44 37 30 2 1
0.551618 0.026663 -0.720103 73 55 48 3 4
0.584404 0.023219 -0.991507 58 45 40 2 1
0.807394 0.011442 -0.637886 83 59 39 3 4
1.197517 0.201250 -0.702977 58 43 23 1 7
1.201799 0.191857 -0.687906 69 50 26 1 7
1.206969 0.198223 -0.682263 62 44 23 1 7
0.506469 0.029998 -0.811193 37 27 26 3 4
0.775970 0.028445 -0.988401 43 34 29 2 1
0.759775 -0.053045 -0.992208 28 23 19 2 1
0.763482 -0.063993 -0.994028 29 22 13 2 1
1.185949 0.270165 -0.724346 73 54 29 1 7
1.200775 0.248264 -0.737456 74 55 23 1 7
1.197163 0.268337 -0.704204 76 55 29 1 7
1.197540 0.253696 -0.710604 76 57 32 1 7
1.199281 0.239648 -0.707940 76 57 31 1 7
1.198752 0.252906 -0.722660 76 58 33 1 7
0.761668 0.033415 -0.599549 82 62 34 3 4
0.746483 0.034311 -0.629707 88 61 36 3 4
0.533791 0.027636 -0.728857 60 50 34 3 4
0.579823 0.024401 -0.760937 42 31 28 3 4
0.551384 0.025256 -0.752171 54 42 32 3 4
0.657174 0.023300 -0.811742 49 40 27 3 4
1.179189 0.274077 -0.739427 64 50 25 1 7
1.182569 0.293796 -0.734811 65 52 27 1 7
0.498961 0.027713 -0.765269 38 31 19 3 4
0.513464 0.029444 -0.794532 41 33 27 3 4
0.741065 0.023558 -0.647730 83 61 36 3 4
0.552625 0.025881 -0.801823 39 32 25 3 4
0.543613 0.025237 -0.775705 43 31 22 3 4
0.517535 0.026993 -0.639101 92 62 37 3 4
0.501564 0.026117 -0.611603 94 63 36 3 4
0.648686 0.034814 -0.733298 66 49 35 3 4
0.648384 0.024032 -0.765037 63 50 39 3 4
0.662034 0.034164 -0.758234 63 49 33 3 4
0.664414 0.025605 -0.761593 52 42 31 3 4
0.660097 0.028257 -0.749349 61 49 30 3 4
0.650465 0.025775 -0.724195 64 50 39 3 4
0.656621 0.031038 -0.738928 68 53 39 3 4
0.644458 0.023704 -0.725205 70 55 35 3 4
0.669079 0.037825 -0.717049 88 59 35 3 4
0.644408 0.035627 -0.713576 91 60 39 3 4
0.654769 0.022445 -0.712070 84 60 34 3 4
0.655753 0.029820 -0.701948 93 63 40 3 4
0.654183 0.037472 -0.706844 90 60 35 3 4
0.543033 0.029609 -0.822900 44 34 22 3 4
0.572436 0.029470 -0.832347 44 34 24 3 4
0.532826 0.029559 -0.811288 40 31 27 3 4
0.566279 0.033783 -0.856153 48 39 28 3 4
0.596141 0.032153 -0.856055 41 31 26 3 4
0.604275 0.031119 -0.850819 43 32 27 3 4
0.589748 0.026381 -0.824943 43 32 27 3 4
0.723715 0.019501 -0.596192 88 63 42 3 4
0.750386 0.017852 -0.572738 84 60 42 3 4
1.165235 0.136937 -0.753522 30 28 22 1 7
1.172543 0.141618 -0.739155 45 33 20 1 7
1.170063 0.126201 -0.756723 27 29 25 1 7
1.162544 0.134038 -0.760852 23 22 22 1 7
0.840213 -0.000325 -0.845825 58 45 32 3 4
0.826919 0.007886 -0.845125 57 44 34 3 4
1.206980 0.232482 -0.686529 74 54 28 1 7
1.210742 0.223887 -0.670269 58 43 26 1 7
1.208133 0.252578 -0.678509 38 27 15 1 7
1.203062 0.222642 -0.693559 72 53 31 1 7
1.211381 0.216599 -0.680417 72 52 26 1 7
0.668591 -0.091327 -0.991474 37 29 25 2 1
0.533120 0.025678 -0.787686 44 35 29 3 4
0.545563 0.022784 -0.612771 87 61 28 3 4
0.524954 0.023489 -0.595103 88 63 29 3 4
0.556836 0.021561 -0.603992 88 61 33 3 4
0.916003 0.043342 -0.952319 68 56 41 3 4
0.660580 -0.024967 -0.993555 42 35 28 2 1
0.668437 -0.038730 -0.994398 38 32 22 2 1
0.788286 -0.042679 -0.996889 22 16 15 2 1
0.794633 -0.051622 -0.995459 22 16 15 2 1
0.772386 -0.048388 -0.994099 23 18 13 2 1
0.807583 -0.036440 -0.990671 19 14 11 2 1
0.805076 -0.021694 -0.992019 20 14 13 2 1
0.833100 0.003495 -0.756105 92 63 29 3 4
0.845307 -0.002100 -0.682868 81 58 35 3 4
0.882694 -0.002079 -0.827405 73 61 36 3 4
0.872157 -0.007238 -0.852931 71 57 41 3 4
0.810678 0.010564 -0.766164 83 62 53 3 4
0.836355 0.001277 -0.776865 89 70 51 3 4
0.803349 0.014365 -0.788497 70 55 39 3 4
0.808444 0.012223 -0.791079 69 57 40 3 4
0.808848 0.016905 -0.798215 73 59 44 3 4
0.623386 -0.020593 -0.975394 52 42 34 2 1
0.602942 -0.014853 -0.984332 55 45 36 2 1
0.595266 -0.007110 -0.989738 55 45 36 2 1
0.596636 -0.029222 -0.977573 51 40 34 2 1
0.618758 -0.030592 -0.972375 47 38 31 2 1
0.588395 0.074461 -0.978024 44 37 25 2 1
0.605633 0.084084 -0.968952 13 9 7 2 1
0.585111 0.083338 -0.975614 14 10 7 2 1
0.601208 0.086710 -0.975646 15 11 8 2 1
0.682503 0.686642 -0.268686 251 204 129 3 4
0.693383 0.692598 -0.267602 250 203 125 3 4
0.690614 0.701025 -0.274451 251 204 133 3 4
0.707651 0.685233 -0.262755 252 202 132 3 4
0.701713 0.707769 -0.274535 251 204 132 3 4
0.689222 0.683280 -0.263565 252 203 127 3 4
1.154900 0.734436 -0.333315 165 132 89 1 5
1.221792 0.364103 -0.090232 177 143 98 1 7
1.217592 0.387046 -0.129633 174 138 93 1 7
1.219459 0.395777 -0.108528 176 140 93 1 7
1.219008 0.372326 -0.106226 174 140 95 1 7
0.719412 0.753806 -0.103853 246 216 158 1 5
1.204262 0.610240 -0.410593 158 119 80 1 7
1.205421 0.619911 -0.390316 151 114 75 1 7
1.216157 0.214521 -0.224137 141 113 75 1 7
1.213889 0.230371 -0.238305 142 113 75 1 7
0.648515 0.146832 -0.261014 250 194 113 3 4
1.292897 0.226728 -0.286991 138 106 69 1 7
1.286974 0.238512 -0.293083 140 108 73 1 7
1.299363 0.238310 -0.281141 139 107 74 1 7
0.520268 0.762023 0.323778 208 168 112 11 3
0.534910 0.756315 0.337052 200 158 101 11 3
0.512682 0.756280 0.344515 180 140 85 11 3
0.504607 0.742954 0.357013 180 140 85 11 3
0.702886 0.747759 -0.262708 247 201 126 1 5
1.218053 0.593674 -0.111121 190 154 111 1 7
1.191498 0.282602 -0.439968 252 201 118 1 7
1.186017 0.278908 -0.442922 250 199 118 1 7
1.275570 0.413031 -0.006958 186 153 102 1 7
1.278923 0.402050 -0.027680 184 149 100 1 7
0.562971 0.286692 -0.256713 252 202 118 3 4
0.587308 0.761495 -0.163103 234 199 151 1 5
0.983320 0.741764 0.206875 253 224 166 1 5
0.501121 0.258991 -0.258309 254 203 124 3 4
1.300791 0.208919 -0.171420 147 115 75 1 7
1.303561 0.218303 -0.183607 148 114 77 1 7
1.302990 0.195084 -0.177226 142 109 69 1 7
1.298122 0.207664 -0.188681 146 113 72 1 7
1.304837 0.218696 -0.168580 150 117 78 30 8
1.119087 0.732473 0.159004 224 188 134 1 5
1.213572 0.388507 -0.193145 165 131 89 1 7
0.781832 0.000395 -0.280635 93 68 41 3 4
0.754912 0.011374 -0.270090 102 74 45 3 4
0.759381 0.019008 -0.266528 175 131 82 3 4
0.795956 0.011000 -0.364716 99 72 46 3 4
1.261733 0.188262 -0.165739 147 113 74 1 7
1.263934 0.190378 -0.177065 146 112 74 1 7
1.261938 0.183949 -0.187750 131 98 59 1 7
0.361404 0.745380 -0.273872 253 206 130 3 4
0.344852 0.757170 -0.272483 253 206 132 3 4
0.339624 0.737511 -0.272743 253 205 129 3 4
0.357365 0.731713 -0.270300 254 205 128 3 4
0.603317 0.017655 -0.433783 96 69 40 3 4
1.295011 0.307042 -0.110285 174 139 90 1 7
1.296227 0.321234 -0.108785 174 140 90 1 7
1.294678 0.313519 -0.087413 174 140 90 1 7
0.255275 0.738655 0.414948 156 107 63 11 3
1.093765 0.738229 -0.140757 198 162 116 1 5
1.114154 0.735679 -0.148978 194 160 113 1 5
1.298795 0.312096 -0.194342 162 128 87 1 7
1.302506 0.304054 -0.173116 163 130 87 1 7
1.298984 0.296713 -0.182173 161 128 86 1 7
1.303778 0.293246 -0.172341 162 128 87 1 7
0.970368 0.743518 0.061485 249 220 166 1 5
0.521368 0.765141 -0.024915 244 210 160 1 5
0.516432 0.765700 -0.047853 243 212 156 1 5
0.528748 0.765495 -0.069015 244 210 157 1 5
0.724459 0.753271 0.186237 247 212 160 1 5
0.711642 0.755798 0.161806 247 214 161 1 5
0.738030 0.753082 0.181671 248 214 162 1 5
0.577686 0.664036 -0.251434 251 203 130 3 4
0.618948 0.664882 -0.251382 252 203 134 3 4
1.220817 0.263449 -0.155561 160 128 83 1 7
1.223735 0.708397 0.067809 204 166 113 1 7
1.225502 0.674050 0.039636 198 159 109 1 7
1.223425 0.216883 -0.137090 158 123 84 1 7
1.223899 0.242167 -0.131215 163 129 86 1 7
1.219073 0.717517 0.067352 206 168 115 1 5
1.224730 0.708398 0.031884 204 167 109 1 7
1.240822 0.168237 -0.246008 119 88 52 30 8
1.240955 0.183059 -0.237098 121 90 51 30 8
1.210772 0.176814 -0.242198 130 100 64 1 7
1.292217 0.299661 -0.093824 173 137 92 1 7
1.297052 0.321994 -0.071693 176 142 92 1 7
1.141051 0.735095 0.290645 220 184 130 1 5
1.298836 0.273230 -0.223283 151 121 78 1 7
1.302187 0.269849 -0.207455 153 121 77 1 7
1.297210 0.275583 -0.215537 152 120 79 1 7
0.700915 0.423487 -0.250116 245 190 112 3 4
0.873578 0.749315 0.380640 252 229 174 1 5
0.583049 0.017539 -0.392450 102 74 40 3 4
1.203808 0.447945 -0.404796 137 104 66 1 7
0.897397 0.183476 -0.281211 246 193 118 3 4
0.919201 0.194310 -0.279320 248 195 121 3 4
1.225978 0.492830 0.034262 194 158 106 1 7
1.226826 0.476133 0.054593 195 159 103 1 7
1.227774 0.461184 0.036084 191 154 101 1 7
1.226390 0.498510 0.057605 194 157 101 1 7
1.298348 0.209212 -0.097277 159 123 83 30 8
1.302247 0.214089 -0.112321 158 122 82 30 8
1.278857 0.296652 -0.275670 148 116 76 1 7
1.271432 0.278647 -0.278145 145 115 81 1 7
1.280370 0.294870 -0.258086 148 117 78 1 7
1.281407 0.281513 -0.271274 147 116 80 1 7
1.274183 0.308528 -0.269852 145 116 71 1 7
1.285213 0.289106 -0.267693 150 117 83 1 7
1.269704 0.308696 -0.274460 146 117 73 1 7
1.277348 0.302110 -0.271272 147 116 74 1 7
1.267751 0.280067 -0.284591 144 113 75 1 7
1.278931 0.308734 -0.256895 150 118 79 1 7
1.264559 0.300674 -0.259106 145 115 73 1 7
1.272261 0.283522 -0.271060 146 116 80 1 7
1.272259 0.293286 -0.270713 148 116 81 1 7
1.267470 0.277277 -0.260149 145 116 78 1 7
1.294661 0.368361 0.023397 187 150 99 1 7
1.287325 0.380595 0.025075 187 152 98 1 7
1.280938 0.388576 -0.166487 157 125 85 1 7
0.878454 0.401946 -0.277804 245 197 119 3 4
0.861007 0.377770 -0.257687 250 198 119 3 4
0.881560 0.365251 -0.259846 252 199 123 3 4
1.191404 0.359001 -0.437649 242 196 118 1 7
1.180746 0.371885 -0.437936 182 146 85 1 7
0.464127 0.765534 0.268897 246 210 156 1 5
0.499122 0.764540 0.272906 245 208 150 1 5
1.241469 0.197812 -0.307198 154 115 69 30 8
1.243769 0.217979 -0.305044 146 106 72 30 8
1.238797 0.215277 -0.287967 138 105 70 30 8
0.372068 0.336127 -0.257282 252 200 117 3 4
0.337460 0.338207 -0.258151 252 200 120 3 4
0.502963 0.755831 0.336924 191 147 91 11 3
1.225114 0.570072 0.020280 194 157 110 1 7
1.224466 0.590183 0.012255 194 157 110 1 7
1.225467 0.615686 0.012252 193 157 106 1 7
1.226106 0.584709 0.025220 194 156 108 1 7
1.082281 0.737724 0.243976 242 210 155 1 5
1.050066 0.739616 0.245783 250 218 166 1 5
1.082269 0.738643 0.235003 246 214 162 1 5
0.381080 0.735730 0.372853 243 183 124 11 3
0.394300 0.735050 0.365558 241 181 122 11 3
0.364862 0.735465 0.385991 212 146 87 11 3
0.388698 0.739142 0.358259 212 158 101 11 3
0.410859 0.731611 0.411807 182 118 67 11 3
1.240513 0.211919 0.091130 180 143 98 1 7
1.238286 0.205795 0.083739 175 137 94 1 7
1.236068 0.191798 0.064468 175 139 94 1 7
1.235375 0.225951 0.079982 179 143 93 1 7
0.644174 0.015463 -0.405728 100 76 43 3 4
0.626856 0.016086 -0.419103 101 74 42 3 4
0.777818 0.730683 -0.289133 251 203 133 1 5
0.778470 0.727133 -0.292196 253 205 137 1 5
0.799129 0.718283 -0.289290 252 203 136 1 5
0.778871 0.718934 -0.288539 243 198 127 1 5
0.441369 0.724019 -0.268751 253 204 134 3 4
0.421403 0.718352 -0.266225 252 202 133 3 4
0.455626 0.720389 -0.268996 252 203 130 3 4
0.338038 0.373846 -0.256176 252 199 120 3 4
1.227942 0.563342 0.137655 198 161 106 1 7
1.229264 0.577746 0.147650 197 159 104 1 7
1.227488 0.557428 0.132227 195 158 101 1 7
0.409783 0.610083 -0.246859 252 205 129 3 4
0.368350 0.609063 -0.246921 253 208 129 3 4
0.677046 0.755374 0.196489 247 213 159 1 5
1.245590 0.236353 0.164540 182 145 94 1 7
0.863131 0.018365 -0.271650 201 156 94 3 4
1.204605 0.718641 -0.327924 156 121 84 1 5
1.294629 0.316395 -0.161256 165 132 85 1 7
1.299099 0.309349 -0.156378 166 133 86 1 7
1.301967 0.297319 -0.153838 163 131 87 1 7
1.291210 0.318922 -0.137830 167 136 85 1 7
1.299916 0.305620 -0.143596 165 132 88 1 7
1.301732 0.309855 -0.126369 168 135 89 1 7
1.224142 0.335925 -0.062643 176 143 94 1 7
1.223150 0.321339 -0.078153 177 146 92 1 7
1.225803 0.305243 -0.061836 181 146 92 1 7
1.223818 0.305623 -0.089584 173 140 93 1 7
0.439316 0.768708 -0.096228 243 208 155 1 5
1.220557 0.349288 -0.135527 172 139 90 1 7
0.575952 0.760971 0.264186 240 205 152 1 5
0.330221 0.773256 0.019397 245 212 160 1 5
0.657680 0.639347 -0.246066 250 199 127 3 4
0.363778 0.772751 0.031210 246 212 154 1 5
0.354176 0.773354 0.066710 247 212 156 1 5
1.201673 0.432031 -0.416103 181 139 88 1 7
1.198143 0.442563 -0.428068 241 193 118 1 7
1.189902 0.438020 -0.434306 235 193 117 1 7
0.586649 0.763207 0.073009 247 212 155 1 5
0.602108 0.760750 0.246829 247 214 158 1 5
0.658012 0.749460 0.344189 230 186 130 11 3
0.654694 0.755085 0.332518 213 175 122 11 3
0.664515 0.757432 -0.048103 245 213 160 1 5
0.656156 0.757653 -0.031103 246 212 157 1 5
0.743602 0.753208 -0.140353 244 215 166 1 5
0.810266 0.181526 -0.259737 244 190 119 3 4
0.824851 0.169500 -0.260246 245 189 119 3 4
0.838059 0.190118 -0.261519 247 194 122 3 4
1.154889 0.732768 -0.257162 186 151 108 1 5
1.177581 0.731390 -0.239036 187 152 104 1 5
1.190169 0.733112 -0.230585 186 151 106 1 5
0.506300 0.522517 -0.244968 147 110 60 3 4
0.519029 0.537403 -0.246367 245 195 121 3 4
1.264926 0.216280 -0.106640 156 122 80 1 7
1.299533 0.191204 -0.122781 150 118 73 30 8
0.911280 0.014323 -0.543326 72 51 30 3 4
0.917053 0.014147 -0.556499 63 47 31 3 4
0.920056 0.011094 -0.568079 72 52 33 3 4
1.225703 0.589342 0.089198 196 155 107 1 7
0.803953 0.749948 0.208741 249 216 164 1 5
1.220659 0.555594 -0.026637 190 154 108 1 7
1.220352 0.532898 -0.004641 192 153 108 1 7
1.224443 0.563085 0.006659 192 154 109 1 7
1.220084 0.567434 -0.010951 193 155 109 1 7
0.808928 0.264135 -0.255874 251 202 123 3 4
0.797408 0.270647 -0.255675 249 198 121 3 4
0.240873 0.762128 -0.272113 254 206 131 3 4
0.242014 0.747379 -0.272492 252 204 132 3 4
0.214697 0.752506 -0.272680 253 205 130 3 4
0.210403 0.762257 -0.273442 252 204 129 3 4
1.239047 0.193389 0.096817 175 137 95 1 7
1.240824 0.181181 0.122578 173 138 87 1 7
0.263680 0.778303 0.178870 244 210 153 1 5
0.269971 0.776762 0.197897 247 211 159 1 5
1.134066 0.730299 -0.376599 216 180 122 1 5
1.126794 0.733472 -0.354082 220 186 128 1 5
1.146335 0.733027 -0.368495 243 206 139 1 5
1.144168 0.730940 -0.382192 214 180 120 1 5
1.238811 0.376569 0.138599 191 156 101 1 7
1.240816 0.386724 0.167213 192 155 105 1 7
1.239638 0.391328 0.148911 192 157 105 1 7
1.240301 0.383259 0.193103 190 154 103 1 7
1.241628 0.351510 0.202417 188 153 105 1 7
1.240588 0.374661 0.208766 190 153 105 1 7
1.243799 0.335760 0.200082 189 152 105 1 7
0.692115 0.736986 -0.275543 253 204 131 3 4
0.676157 0.732704 -0.278702 253 205 130 3 4
0.695810 0.723284 -0.286806 253 205 133 3 4
0.691053 0.715105 -0.282355 252 205 137 3 4
0.660703 0.728708 -0.283426 253 204 132 3 4
0.677982 0.716251 -0.284748 252 204 137 3 4
0.665865 0.723164 -0.282426 253 204 139 3 4
0.664591 0.719694 -0.277259 253 204 136 3 4
0.678650 0.713672 -0.279143 252 205 131 3 4
0.573673 0.167284 -0.260163 249 193 115 3 4
1.099738 0.738608 -0.024636 204 167 115 1 5
1.143000 0.733579 -0.042853 203 166 114 1 5
1.148583 0.733526 -0.032963 201 165 110 1 5
0.273052 0.774602 0.260897 246 211 161 1 5
0.250251 0.774425 0.244268 245 210 158 1 5
0.507663 0.726982 0.371095 181 125 85 11 3
0.440631 0.766914 -0.216353 197 168 126 1 5
0.466447 0.764954 -0.219165 197 168 126 1 5
0.465705 0.763835 -0.251577 226 185 128 1 5
1.183247 0.382153 -0.442642 181 144 88 1 7
1.187923 0.395068 -0.441391 241 196 118 1 7
1.200102 0.386711 -0.422486 169 132 83 1 7
1.201155 0.409583 -0.419990 210 165 105 1 7
1.195691 0.399732 -0.432500 229 182 113 1 7
1.187726 0.406796 -0.435814 227 184 109 1 7
1.195153 0.420590 -0.433349 226 183 112 1 7
0.445083 0.766142 -0.239853 194 165 124 1 5
0.806606 0.725686 -0.284654 252 204 127 1 5
0.272462 0.755146 -0.273159 254 205 134 3 4
0.294290 0.756034 -0.272780 252 205 131 3 4
0.269021 0.724791 -0.267617 252 205 134 3 4
0.289953 0.723141 -0.267874 253 204 139 3 4
0.601480 0.004448 -0.289204 102 75 51 3 4
0.592811 0.007225 -0.276608 101 76 50 3 4
0.592930 0.013313 -0.271255 112 80 54 3 4
0.778941 0.011564 -0.348983 99 73 43 3 4
0.554060 0.670263 -0.252323 252 200 136 3 4
0.544786 0.652914 -0.248445 251 201 135 3 4
1.265345 0.206707 -0.173189 148 116 76 1 7
1.299370 0.191827 -0.163531 141 107 67 1 7
1.229810 0.387690 0.040467 188 152 102 1 7
1.229916 0.387272 0.056581 195 159 106 1 7
0.355461 0.769880 0.263590 247 211 158 1 5
0.368058 0.770150 0.292397 242 204 150 1 5
0.339758 0.770815 0.265022 246 209 156 1 5
0.748091 0.541601 -0.247703 248 195 119 3 4
0.773888 0.526231 -0.247365 249 198 112 3 4
0.627572 0.311617 -0.256134 251 197 127 3 4
1.034612 0.737795 -0.283664 250 201 125 1 5
0.578285 0.495589 -0.223098 199 153 100 0 0
0.570998 0.480081 -0.225884 246 196 121 0 0
0.905055 0.746847 0.249272 253 224 171 1 5
0.860889 0.747873 0.259962 251 223 169 1 5
0.883842 0.748531 0.247614 253 224 170 1 5
0.708322 0.017918 -0.493665 84 62 40 3 4
0.346890 0.772625 0.088897 246 212 152 1 5
0.249355 0.778453 0.160998 245 210 155 1 5
0.848298 -0.006066 -0.355009 94 70 47 3 4
1.023915 0.740416 -0.078103 232 203 152 1 5
1.303087 0.207832 -0.240985 138 105 71 1 7
1.301434 0.200609 -0.237131 137 104 70 1 7
1.303887 0.187678 -0.232610 132 100 63 1 7
0.608833 0.015816 -0.377288 97 70 44 3 4
0.635453 0.015291 -0.365644 102 74 43 3 4
0.801160 0.749348 -0.192103 241 212 165 1 5
0.826106 0.747626 -0.195103 239 210 164 1 5
0.595372 0.614640 -0.245292 248 196 121 3 4
0.292547 0.776006 0.181897 245 212 159 1 5
0.719172 0.748454 -0.256691 245 200 135 1 5
0.729837 0.729255 -0.278665 253 205 130 3 4
0.718356 0.730611 -0.285680 252 205 128 3 4
0.699413 0.732190 -0.282276 254 205 137 3 4
0.700492 0.721992 -0.283266 252 205 129 3 4
0.704121 0.743870 -0.268666 254 205 133 3 4
0.740947 0.742652 -0.267953 254 205 133 3 4
0.712772 0.730050 -0.275747 253 206 130 3 4
1.238308 0.487036 0.192670 197 161 107 1 7
1.237374 0.497841 0.215467 197 159 107 1 7
1.170155 0.732076 0.056536 207 169 115 1 5
1.232350 0.559527 0.208021 201 161 105 1 7
1.283022 0.348294 -0.139795 171 137 92 1 7
1.293264 0.321765 -0.149496 168 134 88 1 7
1.289963 0.336398 -0.143202 169 135 90 1 7
1.290333 0.332415 -0.157840 168 131 91 1 7
1.106234 0.736310 -0.087074 205 171 124 1 5
1.100470 0.738070 -0.107794 206 173 120 1 5
0.782932 0.234023 -0.257255 251 196 112 3 4
0.760444 0.221090 -0.258838 250 195 118 3 4
0.226523 0.715034 -0.264718 252 201 132 3 4
0.197389 0.729022 -0.267635 252 202 132 3 4
0.903173 0.451278 -0.269928 251 196 118 3 4
0.922806 0.440176 -0.267556 251 198 116 3 4
0.910995 0.438224 -0.258712 252 200 120 3 4
0.920982 0.448365 -0.263072 250 199 122 3 4
0.907306 0.432745 -0.272131 248 194 118 3 4
0.900890 0.457790 -0.255637 250 199 115 3 4
0.257641 0.550730 -0.250135 254 210 133 3 4
0.892287 0.709368 -0.283418 247 197 130 3 4
1.258212 0.269104 -0.264113 143 112 73 1 7
1.263064 0.272057 -0.283425 144 113 75 1 7
1.242815 0.245011 -0.289052 141 111 71 1 7
1.252908 0.246135 -0.281936 143 112 76 1 7
1.260747 0.251152 -0.279294 143 111 78 1 7
0.900481 0.716959 -0.284940 251 200 129 3 4
0.896342 0.714808 -0.278608 249 198 132 3 4
0.870782 0.715757 -0.280589 251 201 125 3 4
0.886227 0.720642 -0.276164 251 202 125 3 4
0.896876 0.734703 -0.271036 250 204 123 3 4
0.905371 0.727119 -0.274477 252 201 128 3 4
1.258425 0.255316 -0.257047 144 112 77 1 7
1.075835 0.735734 0.093051 239 207 149 1 5
1.233815 0.167976 0.022761 174 143 104 1 7
1.232645 0.193971 0.032266 175 139 94 1 7
1.231923 0.177102 0.012555 174 138 92 1 7
1.233597 0.172798 0.038284 175 140 97 1 7
1.230941 0.160397 0.003456 195 167 140 1 7
0.587168 0.677237 -0.255476 251 203 131 3 4
1.235877 0.480265 0.160243 195 158 108 1 7
1.264668 0.218968 -0.133089 157 122 79 1 7
1.265229 0.235933 -0.117336 161 126 86 1 7
1.266436 0.224554 -0.092775 159 125 82 1 7
1.264872 0.200368 -0.112516 158 122 81 1 7
0.840778 -0.001263 -0.511547 80 57 36 3 4
0.854787 -0.005228 -0.510760 78 53 37 3 4
1.025326 0.740168 0.218594 250 218 166 1 5
0.995741 0.740811 0.223110 252 220 167 1 5
1.021741 0.740603 0.253684 250 218 168 1 5
1.047840 0.739270 0.267501 250 219 166 1 5
1.045015 0.739289 0.218885 249 218 163 1 5
1.208336 0.576133 -0.360549 141 110 70 1 7
1.207485 0.595100 -0.371628 145 114 73 1 7
1.209531 0.586693 -0.354493 145 111 73 1 7
0.889360 0.746195 -0.131603 244 215 168 1 5
1.267486 0.259474 -0.019477 177 141 93 1 7
1.269491 0.251291 -0.008022 175 139 92 1 7
1.204741 0.393499 -0.341281 135 105 70 1 7
1.204503 0.430031 -0.353503 138 105 67 1 7
1.207428 0.414541 -0.295570 142 110 71 1 7
1.214054 0.249810 -0.254475 151 121 82 1 7
1.215387 0.270064 -0.225572 148 117 80 1 7
1.266313 0.265660 -0.201111 155 121 82 1 7
1.265370 0.252059 -0.215609 148 117 76 1 7
1.001082 0.740173 0.147456 248 217 166 1 5
1.037955 0.739340 0.162897 248 218 166 1 5
1.006100 0.740872 0.184758 248 218 163 1 5
1.291417 0.329002 -0.094267 175 143 92 1 7
1.285592 0.343072 -0.088756 176 141 96 1 7
1.270777 0.343098 -0.092196 176 140 95 1 7
1.286550 0.350199 -0.075426 177 143 95 1 7
1.287012 0.343776 -0.062719 177 143 96 1 7
1.296830 0.331232 -0.073232 177 144 95 1 7
0.904617 0.745647 0.166375 252 224 169 1 5
