ply
format ascii 1.0
element vertex 1130
property float x
property float y
property float z
property uchar red
property uchar green
property uchar blue
property uchar semantic_label
property uchar instance_label
end_header
0.046347 0.451107 -0.794876 39 37 29 2 1
0.027422 0.447664 -0.796236 40 39 30 2 1
0.303203 0.371062 -0.789556 60 52 43 2 1
0.271888 0.368337 -0.789951 62 57 49 2 1
0.305693 0.385132 -0.789664 42 38 34 2 1
0.017732 0.635917 -0.660669 69 65 51 1 2
-0.552247 -0.144321 -0.373841 88 83 59 14 4
-0.112989 -0.255534 -0.328065 136 129 151 5 5
-0.107701 -0.246810 -0.327891 87 75 75 5 5
0.040209 0.595565 -0.793028 42 41 30 2 1
0.048610 0.606662 -0.792227 51 48 39 2 1
0.059547 0.598327 -0.792489 41 38 31 2 1
-0.325258 -0.169189 -0.777380 49 46 38 2 1
0.016291 0.058187 -0.778371 69 60 46 2 1
0.006229 0.038393 -0.777302 75 63 51 2 1
-0.332732 -0.188346 -0.776509 51 47 39 2 1
-0.279719 -0.127911 -0.780088 53 47 38 2 1
-0.278770 -0.144476 -0.777619 51 48 38 2 1
-0.265704 -0.149434 -0.777492 50 46 39 2 1
-0.154082 -0.318560 -0.334611 73 66 72 5 5
-0.253582 0.151208 -0.788305 55 45 30 2 1
-0.278310 0.147861 -0.790299 54 50 29 2 1
-0.258640 0.175711 -0.791982 54 42 30 2 1
-0.262795 0.152370 -0.789263 56 44 28 2 1
-0.281466 0.155030 -0.788188 58 48 27 2 1
-0.040305 0.235085 -0.784386 40 40 31 2 1
-0.061760 0.248748 -0.789979 45 45 37 2 1
-0.051778 0.268028 -0.795874 46 42 32 2 1
-0.045415 0.252653 -0.790243 47 46 38 2 1
-0.055935 0.242936 -0.785658 40 42 33 2 1
-0.068748 0.272010 -0.792102 41 41 28 2 1
0.241033 0.573622 -0.788031 41 44 41 2 1
0.270953 0.584907 -0.789399 29 33 23 2 1
0.239297 0.546251 -0.787009 31 35 24 2 1
0.275814 0.561108 -0.789016 33 29 22 2 1
0.249636 0.536065 -0.787611 31 28 21 2 1
-0.405767 0.069867 -0.778487 52 48 34 2 1
-0.410680 0.058191 -0.778234 53 47 37 2 1
-0.439004 0.059816 -0.776017 56 53 39 2 1
0.339545 -0.050931 -0.385220 43 46 46 14 4
0.337741 -0.039970 -0.401536 44 48 48 14 4
0.337510 -0.018211 -0.422250 46 46 43 14 4
-0.119612 0.234049 -0.789561 42 37 28 2 1
-0.102992 0.235892 -0.782727 40 34 30 2 1
-0.125581 0.249546 -0.789903 38 39 29 2 1
0.339176 -0.026518 -0.433581 46 46 43 14 4
0.135143 0.593452 -0.508946 34 28 21 14 4
0.114856 0.595647 -0.490075 34 31 31 14 4
0.032338 0.581943 -0.793358 43 41 33 2 1
0.002185 0.558458 -0.797523 41 41 29 2 1
0.032886 0.547306 -0.795035 44 38 32 2 1
0.019372 0.577149 -0.794917 39 38 29 2 1
-0.419238 0.045730 -0.778525 50 51 41 2 1
-0.438018 0.023018 -0.776438 51 44 39 2 1
-0.273142 -0.307773 -0.328045 133 114 98 5 5
-0.267374 -0.294588 -0.329366 92 82 67 5 5
0.220699 0.600135 -0.539217 33 31 26 14 4
0.235162 0.601048 -0.545990 38 36 31 14 4
-0.674711 0.601353 -0.781170 43 41 38 2 1
-0.157092 -0.189890 -0.334408 62 50 53 5 5
-0.135355 -0.166885 -0.340860 72 63 67 5 5
0.340006 -0.113819 -0.495448 41 36 37 14 4
-0.267131 0.628778 -0.767838 35 32 27 1 2
-0.110367 0.532607 -0.797477 55 52 42 2 1
-0.651527 -0.138377 -0.778451 84 77 56 2 1
-0.306811 -0.211124 -0.738090 48 46 40 2 1
-0.320741 -0.212018 -0.736397 48 47 40 2 1
-0.289513 -0.191263 -0.765358 47 45 39 2 1
-0.313222 -0.189427 -0.765818 45 46 41 2 1
-0.310699 -0.195964 -0.753450 47 44 39 2 1
-0.290005 -0.214691 -0.767814 47 42 34 2 1
-0.309161 -0.222123 -0.754943 54 49 44 2 1
-0.304983 -0.215187 -0.744151 50 46 39 2 1
-0.317084 -0.221932 -0.735222 57 52 43 2 1
-0.295785 -0.202181 -0.750769 52 47 39 2 1
-0.246771 -0.220980 -0.780628 48 47 36 2 1
-0.230001 -0.156494 -0.359216 33 33 26 5 5
-0.215893 -0.160656 -0.352158 33 31 29 5 5
-0.239263 -0.162362 -0.351962 50 48 51 5 5
-0.193417 -0.158832 -0.349715 104 96 98 5 5
-0.206271 -0.168044 -0.343560 53 48 45 5 5
-0.234784 -0.171673 -0.344689 40 36 34 5 5
0.280172 0.066327 -0.785579 56 53 44 2 1
0.264284 0.068184 -0.785527 55 54 42 2 1
0.251522 0.075618 -0.784385 57 53 42 2 1
0.270678 0.084781 -0.786298 51 48 44 2 1
0.336274 -0.037587 -0.353060 45 45 41 14 4
0.337162 -0.030287 -0.338235 43 46 40 14 4
0.341395 -0.041384 -0.315591 48 47 48 14 4
0.338522 -0.051477 -0.348577 53 48 47 14 4
-0.571272 -0.011700 -0.779593 60 53 43 2 1
-0.227948 0.555921 -0.796964 36 35 25 2 1
0.311060 0.202990 -0.783388 36 36 34 2 1
0.320169 0.189962 -0.785296 33 33 29 2 1
0.347885 0.054035 -0.555984 46 43 39 14 4
0.341809 0.058736 -0.552637 43 42 37 14 4
-0.345691 0.478239 -0.787603 43 43 35 2 1
-0.345237 0.450398 -0.784049 57 56 50 2 1
0.107801 0.132100 -0.778848 58 53 41 2 1
0.089278 0.147272 -0.779417 55 51 39 2 1
0.091082 0.123281 -0.779789 57 54 40 2 1
0.088487 0.159859 -0.778452 60 55 39 2 1
0.343764 0.137363 -0.555969 49 40 38 14 4
-0.139502 0.147101 -0.790541 48 48 30 2 1
-0.149906 0.155354 -0.790763 43 44 31 2 1
-0.141636 0.139544 -0.789172 50 48 34 2 1
-0.133627 0.133482 -0.781994 56 50 31 2 1
-0.114388 0.137763 -0.778913 55 48 29 2 1
-0.747194 0.489829 -0.486892 48 40 30 14 4
-0.748061 0.501446 -0.493416 41 37 29 14 4
-0.749582 0.485962 -0.496449 46 39 28 14 4
-0.747199 0.511909 -0.511708 43 36 28 14 4
-0.283943 0.599302 -0.515661 29 30 25 14 4
-0.261397 0.600390 -0.488541 30 30 24 14 4
-0.269304 0.599109 -0.493503 30 31 25 14 4
-0.421958 -0.127554 -0.557777 55 47 33 14 4
-0.395473 -0.124304 -0.561873 59 53 41 14 4
-0.433848 -0.118616 -0.562565 55 48 35 14 4
-0.406653 -0.136108 -0.551777 56 52 39 14 4
-0.393665 -0.115904 -0.564769 56 45 25 14 4
-0.412280 -0.119073 -0.561701 57 50 31 14 4
0.123779 0.296974 -0.789631 62 63 45 2 1
0.134320 0.314499 -0.792405 48 43 32 2 1
0.113029 0.314484 -0.787198 62 56 40 2 1
-0.338588 -0.340934 -0.385263 43 37 37 5 5
-0.330879 -0.346156 -0.406353 34 32 28 5 5
-0.067358 0.637557 -0.686835 88 84 61 1 2
-0.083526 0.639715 -0.658734 84 81 64 1 2
-0.017529 0.426672 -0.795091 46 40 32 2 1
-0.017928 0.402685 -0.797809 44 40 29 2 1
-0.014280 0.447505 -0.797972 45 40 32 2 1
-0.004589 0.426676 -0.796428 41 38 27 2 1
0.099329 -0.210123 -0.337970 113 106 133 5 5
0.086686 -0.225423 -0.335793 119 115 150 5 5
0.088167 -0.201159 -0.334773 97 88 109 5 5
0.071310 -0.213569 -0.331914 99 91 113 5 5
-0.346702 -0.019760 -0.777243 53 47 38 2 1
-0.334434 -0.007795 -0.778225 53 48 41 2 1
-0.258119 -0.061084 -0.779239 54 48 39 2 1
0.071488 0.242397 -0.784384 60 55 36 2 1
0.060255 0.235054 -0.783914 60 56 39 2 1
0.085549 0.249038 -0.782817 63 60 37 2 1
-0.049914 0.200207 -0.778134 58 51 33 2 1
-0.063188 0.196454 -0.777293 53 47 27 2 1
-0.036950 0.203224 -0.779609 55 52 37 2 1
-0.063537 0.179967 -0.781907 56 50 30 2 1
-0.048055 0.181998 -0.778695 53 48 32 2 1
-0.606742 -0.142248 -0.337341 94 88 67 14 4
0.326883 0.146423 -0.438091 40 39 36 14 4
-0.490407 0.019884 -0.777856 54 53 45 2 1
-0.458370 0.017526 -0.775420 55 54 42 2 1
0.046221 -0.247801 -0.328651 136 138 182 5 5
0.062748 -0.260795 -0.332403 139 140 185 5 5
-0.373421 -0.235585 -0.777302 58 58 47 2 1
-0.577103 -0.205574 -0.779275 91 82 60 2 1
-0.553338 -0.226189 -0.776284 78 71 52 2 1
-0.574045 -0.235041 -0.779330 81 75 57 2 1
-0.288234 0.570005 -0.793471 34 33 25 2 1
-0.313683 0.542951 -0.792670 32 30 24 2 1
-0.308213 0.575014 -0.791122 33 33 25 2 1
0.132793 0.051329 -0.783706 63 59 47 2 1
0.130136 0.032446 -0.782206 65 60 46 2 1
0.126946 0.060691 -0.784309 59 55 41 2 1
0.154851 0.066589 -0.783325 59 58 49 2 1
0.125946 0.068449 -0.780250 57 54 43 2 1
0.161628 0.058951 -0.782313 63 58 47 2 1
-0.361874 -0.115964 -0.505003 61 58 42 14 4
-0.353868 -0.121965 -0.505968 62 53 41 14 4
-0.368595 -0.139011 -0.502235 66 56 45 14 4
-0.355772 -0.127443 -0.504120 69 57 45 14 4
-0.350795 -0.122624 -0.490290 64 56 45 14 4
-0.358564 -0.112963 -0.489302 45 43 30 14 4
-0.360815 -0.113265 -0.526203 42 40 22 14 4
-0.760082 0.572032 -0.510365 22 28 27 14 4
-0.754158 0.561894 -0.493495 29 35 33 14 4
-0.031765 0.615627 -0.790747 42 40 29 2 1
-0.049309 0.600832 -0.797178 40 38 31 2 1
-0.052644 0.623811 -0.782011 40 39 26 1 2
-0.061355 0.624659 -0.785018 41 41 28 2 1
-0.036455 0.622442 -0.783189 46 41 34 1 2
-0.047074 0.614798 -0.790197 41 40 31 2 1
-0.341293 0.386266 -0.786374 35 32 27 2 1
-0.325850 0.364228 -0.792311 33 28 23 2 1
-0.332598 0.374052 -0.793076 36 36 30 2 1
-0.340798 0.381397 -0.791126 49 51 44 2 1
-0.316792 0.372365 -0.794214 37 35 26 2 1
-0.312101 0.366945 -0.803509 34 29 24 2 1
0.350561 -0.094137 -0.380064 66 65 63 14 4
0.353909 -0.107674 -0.363363 32 31 36 14 4
0.014152 -0.141075 -0.358868 100 90 93 5 5
0.098803 0.597612 -0.480646 32 30 25 14 4
0.098571 0.595853 -0.500817 39 28 24 14 4
-0.586648 0.182289 -0.785754 46 45 36 2 1
-0.584301 0.149418 -0.780996 50 47 39 2 1
-0.600702 0.149356 -0.781875 36 35 28 2 1
-0.308907 -0.203084 -0.743019 49 46 40 2 1
-0.318219 -0.221799 -0.712665 38 37 31 5 5
-0.316233 -0.217555 -0.722350 49 47 39 2 1
-0.337926 0.597384 -0.498341 72 79 65 14 4
-0.347202 0.592890 -0.506036 51 51 47 14 4
0.341199 0.010130 -0.500703 47 44 42 14 4
0.340549 -0.006689 -0.515902 34 33 33 14 4
0.343404 -0.007054 -0.495261 45 43 39 14 4
0.145315 -0.096895 -0.779371 72 66 37 2 1
0.131218 -0.105146 -0.779176 67 62 31 2 1
0.115651 -0.116072 -0.776336 105 94 66 2 1
0.123596 -0.122001 -0.780257 88 79 57 2 1
-0.522815 0.497870 -0.775965 28 28 22 2 1
-0.036799 -0.231670 -0.779373 97 85 63 2 1
-0.035883 -0.249190 -0.780320 107 90 65 2 1
0.272017 0.635124 -0.606155 64 55 43 1 2
-0.439108 0.149219 -0.779952 58 48 24 2 1
-0.430692 0.143241 -0.783111 62 53 30 2 1
-0.399550 0.148071 -0.784937 50 42 23 2 1
-0.420483 0.150760 -0.778059 46 46 23 2 1
-0.432571 0.155546 -0.778898 64 55 27 2 1
-0.510636 0.266647 -0.780061 35 33 25 2 1
-0.517043 0.283641 -0.781292 36 29 23 2 1
-0.732717 0.385095 -0.555400 40 37 30 14 4
-0.303016 -0.233466 -0.776329 49 44 35 2 1
0.329972 0.119461 -0.348020 40 39 41 14 4
0.328084 -0.002314 -0.790487 49 45 34 2 1
0.354635 -0.009146 -0.792187 44 40 30 2 1
0.353342 -0.018842 -0.788111 46 42 31 2 1
0.341512 -0.003810 -0.787704 46 44 33 2 1
0.196193 0.099154 -0.785885 49 48 38 2 1
0.176216 0.090371 -0.780199 50 50 36 2 1
0.214770 0.125647 -0.782500 49 47 35 2 1
0.181312 0.107312 -0.782789 51 48 37 2 1
-0.482888 -0.170410 -0.777378 67 64 48 2 1
-0.019595 0.617649 -0.787535 43 39 30 2 1
-0.115695 0.154478 -0.782275 43 40 32 2 1
-0.087452 0.149861 -0.781827 54 50 35 2 1
-0.097355 0.153523 -0.777870 54 49 36 2 1
-0.100513 0.137939 -0.781029 56 49 37 2 1
-0.098013 0.128564 -0.778189 56 49 34 2 1
-0.120066 0.159671 -0.787890 44 44 31 2 1
-0.235910 0.384852 -0.795605 40 37 26 2 1
-0.252368 0.368789 -0.792908 37 37 25 2 1
-0.229271 0.403148 -0.796351 40 38 29 2 1
-0.252927 0.397193 -0.795134 42 43 29 2 1
-0.228090 0.630986 -0.693398 35 33 25 1 2
-0.203094 0.634351 -0.699082 41 37 29 1 2
-0.148740 -0.263676 -0.329612 126 122 144 5 5
-0.165720 -0.274274 -0.331123 94 90 104 5 5
-0.162228 -0.298567 -0.332840 63 58 64 5 5
-0.470108 -0.146734 -0.446841 80 67 51 14 4
-0.211362 0.623594 -0.583870 77 72 52 14 4
-0.135935 0.033307 -0.779077 70 60 44 2 1
-0.115948 0.057566 -0.778799 58 53 36 2 1
-0.284148 -0.101480 -0.778742 48 49 39 2 1
-0.373525 0.004088 -0.776322 53 49 39 2 1
-0.353858 0.021615 -0.777005 56 50 39 2 1
0.158570 0.453779 -0.790221 35 36 31 2 1
0.134931 0.460936 -0.790714 37 34 31 2 1
0.139449 0.443486 -0.788924 38 35 32 2 1
-0.114433 -0.159682 -0.344635 30 28 32 5 5
-0.123296 -0.152425 -0.354211 47 40 37 5 5
-0.466934 -0.134642 -0.551244 59 55 42 14 4
-0.467529 -0.152064 -0.523382 55 53 41 14 4
-0.483864 -0.149313 -0.529659 52 50 37 14 4
-0.456718 -0.150811 -0.528079 55 52 38 14 4
-0.474560 -0.151563 -0.521862 61 57 44 14 4
-0.144450 0.631836 -0.755542 53 57 42 1 2
-0.138702 0.632961 -0.742249 37 35 23 1 2
0.325145 0.205362 -0.458591 40 32 38 14 4
0.184303 0.491176 -0.787837 37 36 30 2 1
0.186316 0.477744 -0.788668 37 33 27 2 1
0.205492 0.485087 -0.787460 40 37 26 2 1
0.227713 0.485340 -0.788046 35 36 21 2 1
-0.679016 0.336927 -0.784548 33 41 32 2 1
0.027889 0.616421 -0.575311 57 51 37 14 4
0.002737 0.598529 -0.548658 51 46 35 14 4
-0.372250 -0.349112 -0.778872 80 73 58 2 1
-0.608076 0.528811 -0.782933 43 42 35 2 1
-0.250012 0.633296 -0.704394 37 32 27 1 2
-0.247343 0.633284 -0.696017 34 35 28 1 2
-0.259839 0.633913 -0.676292 43 40 30 1 2
-0.140034 0.087334 -0.779261 58 49 39 2 1
-0.159385 0.085850 -0.779727 58 53 38 2 1
-0.150196 0.066905 -0.778437 56 48 34 2 1
-0.170681 0.591765 -0.427774 31 31 26 14 4
-0.167455 0.598973 -0.445087 31 29 25 14 4
-0.183751 0.596939 -0.448938 30 29 25 14 4
-0.189760 0.594437 -0.437349 29 29 24 14 4
-0.182952 0.591997 -0.425805 31 30 25 14 4
-0.161201 0.591714 -0.422208 31 32 27 14 4
-0.200875 0.383205 -0.796787 38 37 31 2 1
-0.214161 0.384185 -0.797557 39 37 24 2 1
-0.191280 0.411155 -0.796205 39 39 26 2 1
-0.215236 0.393225 -0.796243 40 36 28 2 1
-0.466163 0.063220 -0.774466 58 49 40 2 1
-0.477018 0.045426 -0.777026 51 47 38 2 1
-0.735158 0.572687 -0.542601 41 42 29 14 4
0.181608 0.612475 -0.568809 52 41 33 14 4
0.205849 0.602556 -0.548953 39 38 31 14 4
0.205983 0.609091 -0.560809 55 40 34 14 4
0.222065 0.413758 -0.791258 58 53 43 2 1
0.223012 0.445098 -0.790337 44 39 34 2 1
0.193640 0.636594 -0.608612 60 58 46 1 2
0.203509 0.637292 -0.622642 61 58 46 1 2
0.014034 0.523869 -0.797300 40 41 30 2 1
-0.021879 0.503256 -0.794260 45 41 31 2 1
-0.122963 -0.065332 -0.784489 56 52 41 2 1
-0.161801 -0.083930 -0.784761 52 48 36 2 1
-0.115962 -0.084021 -0.780251 56 52 38 2 1
-0.140292 0.483796 -0.795680 37 34 25 2 1
-0.128442 0.452228 -0.798308 38 37 25 2 1
-0.141095 0.462173 -0.797172 42 38 28 2 1
-0.107537 0.477338 -0.794934 39 37 26 2 1
0.058311 0.174154 -0.776595 61 57 43 2 1
0.053317 0.158657 -0.775708 59 54 42 2 1
-0.030101 0.606394 -0.560868 77 70 53 14 4
0.012202 0.604827 -0.559530 80 73 56 14 4
-0.023500 0.611657 -0.567945 82 77 58 14 4
-0.702343 0.303670 -0.784847 42 42 38 2 1
-0.716080 0.317787 -0.784341 46 42 39 2 1
0.344468 -0.074211 -0.373138 55 50 49 14 4
0.348652 -0.085310 -0.366246 49 51 52 14 4
0.068795 0.525957 -0.792893 37 37 28 2 1
0.049095 0.513868 -0.795148 88 86 74 2 1
0.343579 0.090520 -0.555661 51 51 45 14 4
0.153455 0.636153 -0.643490 74 68 53 1 2
0.138424 0.637684 -0.639341 69 68 52 1 2
0.141057 0.636402 -0.619894 72 71 54 1 2
-0.273458 -0.161105 -0.356169 36 32 30 5 5
-0.295153 -0.161619 -0.358919 91 87 85 5 5
-0.280172 -0.171097 -0.346180 88 82 80 5 5
-0.285815 -0.186292 -0.339220 62 58 58 5 5
0.195861 -0.144400 -0.777431 79 68 47 2 1
-0.289685 0.597272 -0.531179 29 29 22 14 4
-0.282305 0.598390 -0.542086 28 27 22 14 4
-0.315694 0.596943 -0.540774 48 49 38 14 4
-0.304973 0.596286 -0.539366 42 43 33 14 4
-0.507355 -0.145689 -0.428341 76 69 50 14 4
0.186002 -0.158692 -0.767145 75 68 45 2 1
0.174527 -0.155005 -0.776846 77 70 46 2 1
0.200118 0.600373 -0.435901 30 29 24 14 4
0.206542 0.596833 -0.458312 28 28 25 14 4
0.208246 0.597769 -0.425349 29 27 26 14 4
0.223919 0.596694 -0.423815 31 28 25 14 4
0.184596 -0.174810 -0.761476 85 77 58 2 1
0.191823 -0.180228 -0.766536 88 78 58 2 1
0.261110 0.628596 -0.725196 31 31 29 1 2
0.259313 0.626153 -0.746893 31 32 28 1 2
0.230210 0.156590 -0.783642 50 47 39 2 1
0.223278 0.138884 -0.781642 46 42 35 2 1
0.232072 0.132411 -0.784443 45 43 31 2 1
0.253587 0.131225 -0.786920 49 45 36 2 1
0.127553 0.404940 -0.793892 48 41 26 2 1
0.099732 0.389742 -0.790877 42 40 33 2 1
0.116426 0.428699 -0.790647 57 58 45 2 1
0.117761 0.410164 -0.791547 63 62 52 2 1
0.041885 0.036643 -0.777564 69 60 48 2 1
0.061799 0.041928 -0.773454 66 58 45 2 1
0.036938 0.052311 -0.780269 60 53 41 2 1
0.018237 0.031892 -0.778684 64 63 43 2 1
-0.126227 0.318611 -0.793299 44 40 32 2 1
-0.130658 0.299716 -0.787292 47 41 34 2 1
-0.109277 0.296180 -0.791422 41 38 30 2 1
0.099990 -0.083767 -0.774951 99 87 66 2 1
-0.628132 -0.142247 -0.335085 94 83 68 14 4
-0.752601 0.490095 -0.423405 49 53 52 14 4
-0.092178 -0.207639 -0.781409 75 69 53 2 1
-0.082986 -0.185177 -0.781327 72 64 48 2 1
-0.056265 -0.193832 -0.778923 76 68 51 2 1
-0.284337 0.431987 -0.794757 37 35 24 2 1
-0.294099 0.438143 -0.795186 37 37 25 2 1
-0.268899 0.441808 -0.791180 36 37 24 2 1
-0.279961 0.445933 -0.792412 37 37 26 2 1
-0.297507 0.450217 -0.791910 33 33 26 2 1
0.136143 -0.188940 -0.359258 85 79 91 5 5
-0.376117 0.115734 -0.776956 55 48 31 2 1
-0.385884 0.102104 -0.778915 54 48 32 2 1
-0.370640 0.090196 -0.777568 50 49 36 2 1
-0.174319 -0.208723 -0.330426 62 49 52 5 5
-0.169231 -0.179141 -0.338552 58 48 54 5 5
-0.195491 -0.207329 -0.331944 63 55 56 5 5
-0.251106 0.329505 -0.795093 35 35 22 2 1
-0.269865 0.322316 -0.794214 30 29 23 2 1
-0.269692 0.313977 -0.794272 39 37 27 2 1
-0.250998 0.315473 -0.798843 37 40 29 2 1
-0.253886 0.305174 -0.801003 35 33 25 2 1
-0.263373 0.314050 -0.801145 22 23 14 2 1
-0.263069 0.297544 -0.795807 34 31 24 2 1
-0.237974 0.299902 -0.790779 44 42 31 2 1
-0.275033 0.301393 -0.788856 36 38 25 2 1
0.112472 0.593574 -0.517850 31 30 25 14 4
0.123617 0.592957 -0.531422 41 40 34 14 4
-0.355248 -0.132233 -0.349224 74 71 61 14 4
-0.047215 0.593761 -0.425272 33 31 27 14 4
0.000709 0.512186 -0.797045 43 40 30 2 1
-0.042861 0.489883 -0.796397 47 42 36 2 1
-0.035198 0.466731 -0.796785 45 43 32 2 1
-0.021849 0.481318 -0.797255 43 42 32 2 1
-0.053901 0.225541 -0.776464 46 40 27 2 1
-0.059032 0.214303 -0.776903 44 41 33 2 1
-0.043455 0.231664 -0.779579 45 40 35 2 1
-0.044163 0.221799 -0.779816 48 48 28 2 1
-0.066890 -0.227325 -0.782030 88 79 57 2 1
-0.051635 -0.207918 -0.779167 89 77 56 2 1
0.159188 -0.125244 -0.783584 77 66 43 2 1
0.176584 -0.124687 -0.782555 79 67 44 2 1
0.173586 -0.137873 -0.784188 83 71 46 2 1
0.157979 -0.143395 -0.783381 84 73 52 2 1
0.305140 0.049906 -0.784748 57 51 42 2 1
0.299441 0.040100 -0.787699 56 50 42 2 1
0.297724 0.029978 -0.788854 59 54 42 2 1
-0.344625 0.625843 -0.736129 50 52 43 1 2
-0.340130 0.627459 -0.746415 48 51 42 1 2
-0.343506 0.620026 -0.746518 42 45 36 1 2
0.172137 0.632309 -0.672995 65 63 47 1 2
0.173574 0.635910 -0.640517 67 66 51 1 2
0.195847 0.635526 -0.655143 45 43 32 1 2
0.106906 -0.135334 -0.357884 34 30 33 5 5
-0.246735 -0.309693 -0.780916 63 57 43 2 1
-0.262270 -0.332240 -0.779675 64 62 43 2 1
-0.225414 -0.325201 -0.781305 59 57 41 2 1
0.337817 -0.025198 -0.323280 48 45 48 14 4
0.338490 -0.016770 -0.312386 43 47 41 14 4
-0.492472 -0.072196 -0.775969 58 56 43 2 1
-0.475818 -0.082261 -0.776224 64 58 47 2 1
-0.497347 -0.119313 -0.561582 61 53 41 14 4
-0.524267 -0.112138 -0.563111 67 59 44 14 4
-0.495452 -0.107730 -0.566840 59 45 31 14 4
-0.506980 -0.105780 -0.569988 59 51 33 14 4
0.013014 0.227542 -0.781727 56 51 33 2 1
0.004265 0.238344 -0.779564 54 45 31 2 1
0.022409 0.238449 -0.784894 61 54 41 2 1
-0.543077 0.590104 -0.773198 16 16 13 2 1
0.167818 0.223119 -0.783017 58 52 45 2 1
0.170285 0.211479 -0.781710 58 54 47 2 1
-0.544006 0.600289 -0.778224 16 16 13 2 1
-0.466133 -0.147494 -0.502656 59 55 40 14 4
-0.607019 -0.137938 -0.546346 56 49 39 14 4
-0.637040 0.511530 -0.781009 44 37 37 2 1
-0.645571 0.516289 -0.781857 42 41 38 2 1
-0.662490 0.490902 -0.782739 41 42 36 2 1
0.098483 0.563992 -0.791378 33 33 25 2 1
-0.080915 0.031690 -0.777506 68 60 52 2 1
-0.070980 0.010552 -0.777781 72 63 49 2 1
-0.108106 -0.005996 -0.777089 74 64 48 2 1
-0.090683 -0.007392 -0.778251 70 61 44 2 1
0.155016 -0.255991 -0.368601 78 69 60 5 5
0.132388 -0.258609 -0.352142 103 102 127 5 5
0.157575 -0.266216 -0.366956 84 77 83 5 5
-0.647660 -0.092468 -0.779996 68 63 49 2 1
-0.641822 -0.107236 -0.779581 73 67 51 2 1
0.026589 0.462424 -0.796161 42 42 27 2 1
0.009455 0.431393 -0.796599 43 42 30 2 1
0.001197 0.452574 -0.798658 43 41 31 2 1
-0.316541 -0.224664 -0.618603 57 52 39 5 5
-0.255261 -0.313610 -0.321627 125 104 94 5 5
-0.610941 -0.144499 -0.391341 90 82 60 14 4
-0.279668 -0.223735 -0.477522 52 46 36 5 5
-0.519200 0.139719 -0.781337 49 41 25 2 1
-0.540661 0.147606 -0.781859 57 54 32 2 1
-0.518518 0.155704 -0.781590 47 43 25 2 1
-0.543330 0.118731 -0.778893 52 42 31 2 1
-0.246393 -0.151531 -0.782724 56 46 34 2 1
-0.263723 -0.165619 -0.782020 50 43 33 2 1
-0.255013 -0.176610 -0.776111 48 44 34 2 1
-0.156765 0.517371 -0.797783 41 35 27 2 1
-0.166222 0.498067 -0.796467 38 35 26 2 1
0.002229 -0.167018 -0.778384 77 66 49 2 1
-0.036708 -0.166320 -0.779697 71 59 44 2 1
-0.165135 -0.021882 -0.778362 62 57 41 2 1
-0.181397 -0.042096 -0.779941 60 51 39 2 1
-0.612914 0.255820 -0.782017 40 45 36 2 1
-0.464488 -0.364138 -0.778108 71 66 52 2 1
-0.488137 -0.360755 -0.779571 79 75 58 2 1
0.035088 0.261502 -0.790699 52 50 33 2 1
0.045724 0.269765 -0.791018 53 43 32 2 1
-0.513345 -0.303928 -0.775092 84 83 58 2 1
-0.539215 -0.303630 -0.778571 79 78 54 2 1
-0.290002 0.598115 -0.430013 28 30 25 14 4
-0.314289 0.593548 -0.428639 29 29 21 14 4
-0.286983 0.601273 -0.440299 28 28 24 14 4
-0.300770 0.602266 -0.449806 28 29 24 14 4
-0.297840 0.598532 -0.428975 27 27 23 14 4
-0.183878 0.150913 -0.790712 46 41 33 2 1
-0.163535 0.168599 -0.790927 42 40 31 2 1
-0.184825 0.184100 -0.788877 52 46 36 2 1
-0.187202 0.168060 -0.790075 50 47 36 2 1
-0.340102 0.628204 -0.704336 62 63 53 1 2
-0.341819 0.627578 -0.719502 51 53 47 1 2
-0.331085 0.631536 -0.737816 57 57 50 1 2
0.334695 -0.013115 -0.446538 45 38 40 14 4
0.332558 0.001634 -0.440168 44 38 40 14 4
0.339199 -0.026942 -0.447705 47 47 45 14 4
-0.482667 -0.146890 -0.417971 87 74 57 14 4
-0.525844 -0.144820 -0.393341 84 77 62 14 4
-0.329322 -0.223464 -0.672570 60 51 47 5 5
-0.325405 -0.222706 -0.700733 54 49 43 5 5
-0.552491 0.090470 -0.776537 53 46 40 2 1
-0.540711 0.065371 -0.775680 68 61 44 2 1
0.038877 0.524369 -0.796515 53 51 40 2 1
0.020998 0.541673 -0.796862 41 39 29 2 1
-0.557799 0.540683 -0.776721 41 40 37 2 1
-0.543822 0.530530 -0.777238 35 34 33 2 1
-0.568044 0.520207 -0.778974 44 42 42 2 1
0.150979 -0.241906 -0.364938 95 90 92 5 5
0.141743 -0.248346 -0.357806 112 112 134 5 5
0.146359 -0.220929 -0.362539 88 83 95 5 5
-0.169817 0.584508 -0.797448 56 54 41 2 1
-0.171074 0.601588 -0.797211 35 35 22 2 1
-0.187127 0.591055 -0.794108 48 47 36 2 1
-0.170070 0.569747 -0.797092 36 35 23 2 1
0.120295 0.596557 -0.543653 49 40 35 14 4
0.121539 0.608300 -0.562160 43 38 30 14 4
-0.265693 -0.181846 -0.341685 112 102 95 5 5
-0.558453 -0.051537 -0.776001 58 55 42 2 1
0.327011 0.105561 -0.430956 45 46 43 14 4
0.332581 0.061310 -0.533088 33 35 31 14 4
0.331745 0.050556 -0.541318 73 71 66 14 4
0.336596 0.039685 -0.530506 34 32 31 14 4
0.337335 0.049449 -0.523850 34 32 31 14 4
0.337020 0.041817 -0.546011 34 36 33 14 4
0.083221 0.009856 -0.771923 63 61 42 2 1
0.092741 0.028592 -0.774402 69 62 45 2 1
0.067670 0.007002 -0.773862 62 57 43 2 1
-0.209816 0.310223 -0.790324 37 39 27 2 1
-0.225944 0.312800 -0.789250 33 31 23 2 1
-0.210532 0.331127 -0.795539 38 36 27 2 1
-0.233436 0.330148 -0.790253 37 36 26 2 1
-0.240917 0.325653 -0.790374 34 33 22 2 1
-0.503636 -0.148658 -0.503465 76 67 51 14 4
-0.513076 -0.148725 -0.482841 72 65 48 14 4
-0.763150 0.585533 -0.524924 28 32 32 14 4
-0.756719 0.552425 -0.513984 22 37 31 14 4
-0.745546 0.548421 -0.528009 37 33 30 14 4
-0.745728 0.563439 -0.540072 25 33 22 14 4
-0.759645 0.563599 -0.528215 48 47 47 14 4
-0.148213 0.637395 -0.649516 80 75 53 1 2
-0.141110 0.638082 -0.617621 78 74 51 1 2
0.335252 -0.021143 -0.366800 45 42 41 14 4
0.334299 -0.006059 -0.356341 45 49 44 14 4
-0.258537 0.448122 -0.793913 37 35 26 2 1
-0.245934 0.455204 -0.796305 50 48 36 2 1
-0.252094 0.440601 -0.796226 40 40 28 2 1
0.325634 0.165805 -0.511770 34 36 35 14 4
0.325042 0.184708 -0.499841 37 38 36 14 4
0.323915 0.201876 -0.509341 34 40 36 14 4
-0.135734 0.505929 -0.795989 39 39 27 2 1
-0.123310 0.474672 -0.796503 42 41 31 2 1
-0.112019 0.494068 -0.795510 39 37 27 2 1
-0.337269 0.491293 -0.788096 55 55 43 2 1
-0.337903 0.508798 -0.787827 51 52 42 2 1
0.160734 0.600819 -0.550850 39 37 31 14 4
0.184969 0.599511 -0.518953 30 29 26 14 4
0.172407 0.598215 -0.540646 37 36 29 14 4
-0.581992 0.117365 -0.778598 45 45 35 2 1
-0.567140 0.140990 -0.780623 47 44 37 2 1
0.253595 0.517476 -0.786638 36 30 23 2 1
0.267135 0.479443 -0.788402 42 41 31 2 1
0.253143 0.479900 -0.787062 40 39 29 2 1
0.285221 0.493552 -0.790267 54 50 36 2 1
-0.333373 -0.287262 -0.427286 72 69 60 5 5
-0.310854 -0.305242 -0.451740 79 76 62 5 5
-0.316758 -0.313890 -0.445041 82 75 62 5 5
-0.567153 0.428343 -0.779637 42 39 33 2 1
-0.577837 0.443273 -0.779378 45 38 37 2 1
-0.582175 0.375071 -0.783670 37 38 28 2 1
-0.276252 0.576782 -0.793404 33 32 27 2 1
-0.059981 0.122805 -0.779938 53 50 40 2 1
-0.060112 0.137881 -0.781885 67 53 43 2 1
-0.082643 0.117028 -0.781401 61 53 39 2 1
0.130264 0.169447 -0.776438 60 54 43 2 1
0.112510 0.178756 -0.777891 55 51 41 2 1
0.127800 0.195117 -0.779872 62 58 45 2 1
-0.158665 0.600904 -0.517313 31 30 23 14 4
-0.183985 0.602104 -0.482488 28 28 23 14 4
-0.157437 0.599368 -0.486922 30 31 23 14 4
-0.174524 0.600102 -0.497646 33 32 26 14 4
0.262596 0.225903 -0.786979 39 41 35 2 1
0.282151 0.230330 -0.786520 36 39 32 2 1
0.265417 0.245909 -0.788852 39 38 32 2 1
-0.100855 -0.219521 -0.782313 68 64 45 2 1
0.341672 0.085949 -0.785947 46 43 37 2 1
0.325326 0.075648 -0.786461 54 51 44 2 1
0.305615 0.083143 -0.783919 51 50 43 2 1
0.327092 0.093255 -0.784366 49 44 36 2 1
0.143711 0.572420 -0.789992 33 31 30 2 1
0.344267 -0.083644 -0.781166 141 139 141 2 1
0.352781 -0.062951 -0.790717 86 81 69 2 1
0.336259 -0.064417 -0.791856 131 127 117 2 1
0.343489 -0.066590 -0.785345 120 115 115 2 1
0.365770 -0.077586 -0.786659 131 127 129 2 1
0.349355 -0.074190 -0.787157 119 114 116 2 1
-0.360438 -0.112296 -0.389168 71 64 48 14 4
-0.352730 -0.130291 -0.373087 73 67 57 14 4
-0.350859 -0.117876 -0.393957 76 71 53 14 4
-0.362422 -0.104702 -0.374912 48 46 39 14 4
-0.351556 -0.124460 -0.374091 73 67 54 14 4
-0.350887 -0.124305 -0.357195 75 70 58 14 4
-0.327548 -0.222371 -0.736788 52 47 42 2 1
-0.319922 -0.222660 -0.721685 51 45 39 2 1
-0.323730 -0.221746 -0.723913 54 53 45 2 1
-0.085737 0.440042 -0.798410 42 39 27 2 1
-0.105566 0.434378 -0.797478 48 46 31 2 1
0.075771 0.224979 -0.782129 57 49 35 2 1
0.051562 0.215385 -0.783283 58 47 36 2 1
0.069141 0.197876 -0.779796 57 53 37 2 1
0.031796 0.188714 -0.776245 55 52 36 2 1
0.048292 0.186139 -0.778126 57 53 41 2 1
-0.207139 0.481374 -0.796538 43 41 30 2 1
-0.224286 0.473434 -0.794900 39 36 25 2 1
-0.425894 -0.150845 -0.527838 54 53 37 14 4
-0.417531 -0.143895 -0.541717 58 53 38 14 4
-0.402228 -0.150006 -0.525502 55 50 37 14 4
-0.062470 -0.209379 -0.323165 29 29 39 5 5
-0.081849 -0.221616 -0.322481 66 56 74 5 5
-0.437360 -0.147241 -0.381077 77 73 55 14 4
-0.475870 -0.143912 -0.371341 81 78 58 14 4
-0.559117 0.123326 -0.777523 49 42 35 2 1
-0.564403 0.102571 -0.777477 51 47 33 2 1
0.065040 0.594807 -0.514257 33 32 25 14 4
0.058232 0.595713 -0.539024 29 27 20 14 4
-0.345482 -0.088303 -0.777004 50 48 31 2 1
-0.322968 -0.069745 -0.776390 52 47 37 2 1
-0.130693 -0.220566 -0.781071 75 64 50 2 1
0.061486 -0.281053 -0.780333 118 104 73 2 1
-0.339811 0.453070 -0.788609 47 49 38 2 1
-0.327462 0.436894 -0.792048 51 51 42 2 1
-0.344488 0.427104 -0.785076 35 37 28 2 1
-0.090217 0.638360 -0.636938 88 82 61 1 2
-0.087393 0.639621 -0.615848 82 77 59 1 2
-0.079276 0.640733 -0.621488 89 84 68 1 2
-0.184954 0.636894 -0.632495 81 79 60 1 2
-0.170235 0.641097 -0.623762 79 75 56 1 2
-0.186543 0.638449 -0.612342 82 80 59 1 2
-0.183771 0.317716 -0.793195 37 35 26 2 1
-0.201377 0.322130 -0.790965 38 42 23 2 1
-0.201155 0.350395 -0.797571 47 47 34 2 1
-0.184232 0.336094 -0.793005 37 38 21 2 1
-0.741989 0.570069 -0.540907 33 35 27 1 2
-0.230593 0.204109 -0.793740 46 42 35 2 1
-0.243083 0.202066 -0.787599 39 39 34 2 1
-0.232045 0.193556 -0.792922 43 42 32 2 1
-0.248907 0.191493 -0.786607 43 43 33 2 1
-0.246123 0.180093 -0.787609 37 41 36 2 1
-0.226658 0.169090 -0.789857 44 42 35 2 1
-0.093968 0.625464 -0.786583 57 54 41 2 1
-0.073902 0.621509 -0.788466 40 35 24 2 1
0.216773 -0.096273 -0.780412 69 62 52 2 1
0.243603 -0.085561 -0.793133 70 62 45 2 1
0.222900 -0.073973 -0.792835 54 48 31 2 1
0.236376 -0.077140 -0.792812 59 50 43 2 1
0.239508 -0.096254 -0.776881 66 64 53 2 1
0.233528 -0.094836 -0.773789 68 65 54 2 1
0.219101 -0.083019 -0.784292 59 53 46 2 1
0.222414 -0.088230 -0.787369 53 47 35 2 1
0.232663 -0.093327 -0.780381 72 67 53 2 1
-0.311609 0.124015 -0.780732 57 50 33 2 1
-0.333065 0.128068 -0.780251 54 47 33 2 1
-0.322279 0.112926 -0.778387 58 49 33 2 1
-0.320705 0.092977 -0.778589 58 49 37 2 1
-0.282784 -0.044401 -0.777284 54 51 36 2 1
-0.288140 -0.294189 -0.780701 70 69 52 2 1
-0.307594 -0.292246 -0.780237 63 58 43 2 1
-0.296266 -0.309436 -0.780934 63 60 45 2 1
-0.218686 0.215474 -0.791036 45 38 28 2 1
-0.216372 0.236273 -0.790892 45 42 32 2 1
-0.198983 0.243403 -0.791104 43 41 30 2 1
-0.225755 0.227766 -0.789406 44 38 26 2 1
-0.092131 0.347646 -0.795574 44 42 30 2 1
-0.119911 0.350467 -0.791256 48 43 33 2 1
-0.110921 0.351280 -0.791609 43 42 29 2 1
-0.087519 0.324674 -0.794323 48 45 34 2 1
-0.111750 0.323088 -0.796014 46 42 32 2 1
0.048411 0.387200 -0.793255 41 41 34 2 1
0.049849 0.371234 -0.794699 43 42 34 2 1
0.069196 0.370048 -0.792582 47 42 32 2 1
0.071321 0.351845 -0.795817 45 42 30 2 1
-0.557169 0.567014 -0.763471 30 29 27 2 1
-0.556397 0.578355 -0.766376 28 25 20 2 1
-0.019688 0.055160 -0.776406 60 55 43 2 1
-0.623883 -0.031724 -0.778876 63 58 46 2 1
-0.613697 -0.055342 -0.779239 62 59 43 2 1
-0.681804 0.172023 -0.786321 51 53 45 2 1
-0.694396 0.146136 -0.783959 47 52 41 2 1
-0.481837 -0.108513 -0.563860 60 51 32 14 4
-0.476943 -0.116065 -0.562516 63 54 39 14 4
-0.265059 0.135979 -0.786827 54 48 32 2 1
-0.273811 0.124384 -0.781988 54 49 31 2 1
-0.268329 0.118360 -0.780200 54 46 35 2 1
-0.243573 0.120289 -0.781075 58 49 36 2 1
-0.247573 0.105817 -0.781964 58 50 34 2 1
-0.224050 0.030583 -0.779098 55 47 36 2 1
-0.246798 0.020612 -0.779285 58 50 39 2 1
-0.259623 -0.001208 -0.781245 59 52 44 2 1
-0.099959 0.218718 -0.779562 47 44 37 2 1
-0.126496 0.213652 -0.790715 45 44 31 2 1
-0.110635 0.221588 -0.785289 39 42 30 2 1
-0.113073 0.215505 -0.787370 38 37 23 2 1
-0.102142 0.202668 -0.786501 41 39 28 2 1
-0.129436 0.403911 -0.792733 42 41 29 2 1
-0.143472 0.385251 -0.794052 45 44 33 2 1
-0.168454 0.408793 -0.795711 39 35 28 2 1
-0.152291 0.398823 -0.795786 38 35 27 2 1
-0.234128 0.237333 -0.792551 42 43 30 2 1
-0.261924 0.237756 -0.794730 41 39 25 2 1
-0.238461 0.244982 -0.787791 43 39 26 2 1
-0.257904 0.221338 -0.787974 24 25 19 2 1
-0.244930 0.229622 -0.789187 38 39 29 2 1
-0.235272 0.218786 -0.791698 41 40 31 2 1
-0.257146 0.207610 -0.784618 39 36 27 2 1
-0.634401 0.231284 -0.784288 40 41 32 2 1
0.228169 0.306263 -0.788684 47 41 36 2 1
0.248637 0.298379 -0.789956 53 46 41 2 1
0.233835 0.281226 -0.789233 49 42 38 2 1
0.217597 0.294563 -0.790175 63 57 46 2 1
-0.665358 0.297753 -0.783418 39 39 32 2 1
-0.649311 0.343809 -0.784313 40 44 42 2 1
0.347317 -0.057003 -0.549164 99 91 97 14 4
0.349170 -0.062738 -0.525538 43 47 38 14 4
0.343799 -0.070280 -0.533891 58 52 52 14 4
0.347176 -0.072873 -0.524000 56 51 52 14 4
0.347911 -0.063918 -0.544803 112 103 108 14 4
0.343963 -0.075709 -0.543803 42 41 35 14 4
0.349705 -0.086045 -0.530003 53 49 42 14 4
0.337830 -0.080658 -0.533361 54 51 44 14 4
0.328238 0.073157 -0.538868 47 48 34 14 4
0.336891 0.073831 -0.548092 47 44 41 14 4
0.326337 0.072379 -0.525901 43 43 39 14 4
0.325651 0.090889 -0.539937 45 45 38 14 4
0.322070 0.094663 -0.531222 39 42 38 14 4
0.324672 0.080144 -0.512870 43 44 41 14 4
0.139078 0.622877 -0.760247 34 33 24 1 2
0.108964 0.625522 -0.746341 37 36 30 1 2
-0.076675 0.302566 -0.795710 46 44 35 2 1
-0.058368 0.287718 -0.795405 39 40 31 2 1
-0.070977 0.286928 -0.794197 41 41 31 2 1
-0.041088 0.292976 -0.792447 43 38 28 2 1
-0.127023 0.008847 -0.777990 61 57 43 2 1
0.199658 0.629001 -0.591660 54 46 35 14 4
0.151123 -0.215951 -0.780326 110 102 77 2 1
0.115036 -0.233416 -0.778974 113 104 72 2 1
0.118550 -0.261476 -0.776076 120 104 75 2 1
-0.243667 -0.199935 -0.336101 83 75 71 5 5
-0.246534 -0.184451 -0.339615 81 73 72 5 5
-0.265502 -0.200345 -0.335155 73 63 62 5 5
0.053361 0.259887 -0.788649 66 59 42 2 1
0.076517 0.260363 -0.786962 55 51 33 2 1
0.066856 0.276890 -0.787072 64 57 39 2 1
0.080728 0.288320 -0.788086 59 54 36 2 1
-0.330250 -0.230337 -0.767255 51 48 40 2 1
-0.333068 -0.235917 -0.772040 51 45 35 2 1
-0.320720 -0.228567 -0.758529 55 50 44 2 1
0.330578 0.170346 -0.359866 36 42 37 14 4
0.331406 0.173774 -0.336869 33 40 33 14 4
-0.279072 0.103384 -0.780813 62 52 42 2 1
-0.294515 0.106841 -0.781378 61 51 40 2 1
-0.300460 0.083621 -0.780192 55 48 37 2 1
-0.280444 0.081616 -0.779225 54 49 38 2 1
-0.303325 -0.122626 -0.779637 46 45 33 2 1
-0.331456 -0.112080 -0.778032 51 43 36 2 1
-0.093315 0.120800 -0.781038 56 50 33 2 1
-0.102617 -0.027626 -0.780147 61 55 39 2 1
-0.576477 -0.142699 -0.367560 96 81 63 14 4
-0.257579 -0.217042 -0.331457 63 52 52 5 5
-0.236621 -0.248825 -0.326059 67 54 50 5 5
-0.574064 -0.115750 -0.561995 61 57 32 14 4
-0.577674 -0.128815 -0.554109 56 49 37 14 4
-0.569787 -0.132038 -0.552468 65 55 40 14 4
-0.580914 -0.109854 -0.566453 60 53 33 14 4
0.327338 0.074342 -0.469091 45 46 43 14 4
0.328632 0.079415 -0.441570 38 41 38 14 4
-0.193689 0.514345 -0.796240 36 33 22 2 1
-0.180848 0.534974 -0.797689 37 36 26 2 1
-0.183799 0.507215 -0.795638 35 35 20 2 1
-0.202045 0.529650 -0.795419 37 36 24 2 1
-0.143749 0.546031 -0.798151 39 34 25 2 1
-0.033311 0.508554 -0.793349 44 43 30 2 1
-0.747672 0.506204 -0.479148 51 47 38 14 4
-0.747619 0.485670 -0.471437 51 55 54 14 4
-0.750699 0.498409 -0.463280 54 48 45 14 4
0.143975 0.595272 -0.490252 27 31 22 14 4
0.159941 0.597094 -0.518506 30 29 22 14 4
0.161275 0.134449 -0.778290 49 45 36 2 1
0.171976 0.124194 -0.774677 43 42 32 2 1
0.149237 0.118298 -0.777932 49 49 40 2 1
-0.617482 -0.151894 -0.522532 69 65 46 14 4
-0.472997 -0.124757 -0.559149 58 50 39 14 4
-0.487160 -0.136521 -0.549036 59 50 42 14 4
-0.141679 -0.084000 -0.783832 53 49 40 2 1
0.020210 -0.204942 -0.327854 43 42 46 5 5
0.022284 -0.185548 -0.327124 35 35 45 5 5
-0.625720 0.341539 -0.782725 38 38 33 2 1
-0.608354 0.326890 -0.783989 43 41 39 2 1
-0.343731 -0.231175 -0.413017 40 37 35 5 5
-0.341037 -0.264788 -0.411390 39 37 31 5 5
-0.342232 -0.243964 -0.394951 43 42 38 5 5
0.317911 0.156596 -0.787817 41 38 32 2 1
0.290641 0.147901 -0.785275 42 40 36 2 1
0.331665 0.140426 -0.786110 36 38 34 2 1
0.311782 0.136529 -0.785323 42 41 36 2 1
-0.522514 -0.073606 -0.775089 66 59 47 2 1
-0.171396 0.056416 -0.778458 58 55 40 2 1
-0.165530 0.036169 -0.780119 60 50 41 2 1
-0.047123 0.595578 -0.445505 33 29 20 14 4
-0.044616 0.597368 -0.474169 31 31 24 14 4
-0.035951 0.597267 -0.474564 32 29 22 14 4
-0.002629 0.621576 -0.787287 39 39 32 2 1
-0.009610 0.609254 -0.792552 43 44 33 2 1
0.020539 0.611957 -0.791786 43 42 29 2 1
0.009802 0.627378 -0.776359 50 49 40 1 2
-0.243546 0.635836 -0.671415 74 69 50 1 2
-0.236910 0.635617 -0.644298 79 74 59 1 2
-0.256819 0.636286 -0.653236 78 73 55 1 2
-0.230234 0.636732 -0.668662 81 72 58 1 2
-0.010143 0.532205 -0.795394 39 41 33 2 1
-0.002675 0.543211 -0.796807 40 38 30 2 1
0.001594 0.582347 -0.797603 41 39 30 2 1
-0.013595 0.567232 -0.798621 36 34 25 2 1
-0.618133 -0.069481 -0.779609 72 63 53 2 1
-0.635930 -0.055210 -0.778876 63 62 44 2 1
0.164071 -0.173800 -0.747382 55 51 45 2 1
0.171170 -0.175388 -0.752509 72 64 54 2 1
0.175980 -0.163317 -0.767314 43 45 33 2 1
0.187841 -0.168655 -0.767016 63 60 47 2 1
0.184865 -0.168152 -0.772303 62 59 44 2 1
0.165702 -0.168508 -0.768020 50 46 35 2 1
0.158593 -0.170978 -0.770003 53 47 36 2 1
0.177584 -0.175989 -0.771718 61 56 43 2 1
0.174898 -0.166440 -0.756832 37 37 33 2 1
0.151544 0.357347 -0.789012 65 55 41 2 1
0.130355 0.336026 -0.788964 70 60 45 2 1
0.119679 0.334721 -0.788608 62 55 40 2 1
0.109399 0.342229 -0.791866 47 44 31 2 1
0.123472 0.352708 -0.791137 51 48 37 2 1
0.158884 0.627677 -0.720230 33 33 27 1 2
-0.239445 0.588588 -0.795760 33 34 24 2 1
-0.221893 0.583836 -0.796137 35 34 24 2 1
-0.241706 0.563850 -0.796191 32 33 22 2 1
-0.242830 0.599978 -0.464766 29 30 22 14 4
-0.253095 0.605337 -0.440243 28 31 24 14 4
-0.231047 0.600927 -0.443950 31 28 24 14 4
-0.254482 0.603847 -0.428708 30 28 24 14 4
-0.241055 0.605705 -0.432756 29 30 25 14 4
-0.227986 0.604526 -0.431994 29 30 25 14 4
-0.597652 0.434911 -0.780279 47 40 39 2 1
-0.616647 0.443446 -0.781029 43 40 41 2 1
-0.604473 0.466828 -0.782660 46 40 39 2 1
-0.590785 0.472672 -0.781994 47 45 41 2 1
-0.684575 0.097097 -0.781216 54 50 42 2 1
0.131442 -0.238848 -0.779773 100 87 56 2 1
0.157186 -0.230092 -0.781534 100 86 54 2 1
0.161588 -0.249754 -0.781756 100 84 55 2 1
-0.536900 0.347525 -0.785650 37 38 35 2 1
-0.522984 0.350544 -0.783907 37 33 24 2 1
-0.523293 0.326691 -0.785047 32 31 21 2 1
-0.535264 0.327475 -0.785925 32 34 24 2 1
-0.513133 0.323757 -0.778888 35 31 25 2 1
-0.513816 0.346566 -0.780466 31 30 24 2 1
-0.156283 0.358135 -0.792178 41 37 27 2 1
-0.163630 0.374525 -0.795157 39 37 26 2 1
-0.176408 0.372399 -0.794019 43 37 28 2 1
-0.175058 0.351876 -0.794119 39 35 26 2 1
-0.124161 0.632957 -0.734168 40 36 27 1 2
-0.095785 0.635498 -0.721702 41 35 27 1 2
-0.124051 0.631385 -0.711304 44 38 28 1 2
-0.108690 0.633109 -0.730178 40 36 26 1 2
-0.288514 0.638983 -0.665287 78 78 58 1 2
-0.267704 0.636636 -0.666973 53 45 35 1 2
-0.118135 0.560956 -0.798078 39 35 26 2 1
-0.096803 0.522128 -0.798320 38 37 25 2 1
0.251611 0.357158 -0.788991 48 39 32 2 1
0.015316 -0.080880 -0.778244 80 65 59 2 1
-0.001858 -0.100948 -0.778659 78 72 55 2 1
0.018910 -0.100159 -0.778218 81 70 52 2 1
-0.559510 0.606754 -0.770827 26 26 20 2 1
-0.088743 -0.291963 -0.781363 88 80 61 2 1
0.125864 -0.183884 -0.350924 85 81 90 5 5
0.127127 -0.203429 -0.350340 90 86 93 5 5
0.120737 -0.226641 -0.346404 105 99 122 5 5
0.110204 -0.196178 -0.341588 87 84 95 5 5
0.123381 -0.216657 -0.347357 91 86 100 5 5
-0.257671 0.514571 -0.793380 36 34 23 2 1
-0.272541 0.498143 -0.793272 37 33 26 2 1
-0.278236 0.055782 -0.777081 57 51 35 2 1
-0.325531 -0.341713 -0.353719 34 31 35 5 5
-0.325901 -0.330600 -0.348645 40 38 41 5 5
-0.320979 -0.335218 -0.342953 30 33 32 5 5
-0.337945 -0.332643 -0.360060 31 32 32 5 5
-0.311351 -0.352183 -0.331413 30 32 31 5 5
-0.315365 -0.346722 -0.332014 32 33 32 5 5
-0.747803 0.521470 -0.309278 54 55 42 14 4
-0.035031 0.417765 -0.796775 46 45 31 2 1
-0.077182 0.420984 -0.794798 64 58 49 2 1
0.202712 0.027782 -0.784287 60 58 42 2 1
0.054136 0.118522 -0.777965 60 56 42 2 1
0.067228 0.094724 -0.779415 58 55 39 2 1
-0.591039 0.044178 -0.779634 51 46 41 2 1
-0.576562 0.046118 -0.777813 80 74 62 2 1
-0.588252 0.015505 -0.780548 75 70 55 2 1
-0.300871 0.624029 -0.785982 32 32 24 1 2
0.175303 0.598033 -0.447607 30 27 26 14 4
0.170840 0.599278 -0.423653 30 29 28 14 4
0.182734 0.600312 -0.426012 30 30 27 14 4
0.041233 0.012917 -0.776356 66 60 44 2 1
0.057599 0.019136 -0.772922 64 54 43 2 1
0.060541 0.306400 -0.792952 50 44 29 2 1
0.057068 0.287205 -0.790786 51 42 27 2 1
0.039253 0.326544 -0.793771 48 43 29 2 1
-0.257774 0.046346 -0.777850 57 49 39 2 1
-0.296047 -0.174381 -0.768721 48 42 37 2 1
-0.293723 -0.181973 -0.766029 46 40 36 2 1
-0.276466 -0.182740 -0.776366 49 47 32 2 1
-0.284767 -0.208363 -0.491671 61 55 45 5 5
0.124732 0.636181 -0.670790 77 75 58 1 2
0.093089 0.635238 -0.670798 80 77 58 1 2
0.119541 0.637015 -0.654689 72 69 55 1 2
0.074747 -0.177035 -0.773383 74 69 50 2 1
0.087798 -0.172939 -0.776020 55 54 47 2 1
0.064655 -0.191768 -0.776525 66 62 43 2 1
-0.717132 0.512743 -0.785514 41 46 38 2 1
-0.711456 0.498606 -0.785388 44 44 37 2 1
0.075203 0.597531 -0.496381 33 31 25 14 4
0.184922 0.171956 -0.784942 46 46 38 2 1
0.173370 0.166082 -0.783205 45 45 38 2 1
0.209059 0.620374 -0.772609 29 29 27 1 2
0.179043 0.615701 -0.777925 32 30 25 1 2
0.225315 0.611804 -0.780472 31 31 31 2 1
0.204766 0.608013 -0.783426 32 32 29 2 1
0.205350 0.616333 -0.778367 29 28 26 1 2
-0.133230 0.635962 -0.679747 73 69 52 1 2
-0.147280 0.631760 -0.684818 70 63 48 1 2
-0.138505 0.631991 -0.698967 39 34 22 1 2
0.273828 -0.079487 -0.782230 68 67 56 2 1
0.263887 -0.094261 -0.773759 55 52 43 2 1
0.259459 -0.090653 -0.778030 27 25 19 2 1
0.257754 -0.094299 -0.780984 59 56 45 2 1
0.244746 -0.075483 -0.790587 54 47 31 2 1
0.260239 -0.083338 -0.779180 90 88 78 2 1
0.254759 -0.102121 -0.775620 68 62 50 2 1
-0.404216 -0.059761 -0.775055 52 52 41 2 1
-0.401063 -0.073264 -0.775859 53 52 41 2 1
0.336304 0.017460 -0.310551 37 43 39 14 4
0.337487 0.034067 -0.315213 47 43 40 14 4
-0.371500 -0.128217 -0.557767 61 56 43 14 4
-0.357724 -0.122366 -0.552574 62 53 40 14 4
0.174456 0.628415 -0.691557 33 34 29 1 2
0.343192 -0.059577 -0.308966 48 48 46 14 4
-0.529960 -0.148509 -0.530616 62 57 40 14 4
-0.525758 -0.134407 -0.551177 58 51 41 14 4
0.231491 -0.209704 -0.786008 77 68 44 2 1
0.216740 -0.223517 -0.787432 96 88 60 2 1
-0.556126 -0.144874 -0.538395 53 51 38 14 4
0.225852 -0.231259 -0.788207 96 84 60 2 1
0.241834 0.617910 -0.773884 33 29 31 2 1
0.233369 0.631265 -0.735104 34 33 29 1 2
0.248062 0.626024 -0.755677 35 31 32 1 2
-0.346300 0.095266 -0.777226 54 53 38 2 1
-0.363152 0.082887 -0.777979 54 52 39 2 1
-0.362556 0.073870 -0.776822 59 49 38 2 1
-0.337214 0.084702 -0.777571 53 51 36 2 1
-0.349941 0.059710 -0.777610 56 52 38 2 1
-0.064458 0.635615 -0.702174 40 35 24 1 2
-0.050656 0.633205 -0.720280 60 56 43 1 2
-0.237808 0.601056 -0.491813 30 30 23 14 4
0.239316 0.093083 -0.782873 51 46 38 2 1
0.235547 0.114039 -0.783113 47 44 37 2 1
0.218694 0.100395 -0.784772 49 47 39 2 1
0.222302 0.117209 -0.786029 49 48 38 2 1
-0.243260 0.634690 -0.631138 78 73 55 1 2
-0.224410 0.635204 -0.627213 77 75 57 1 2
-0.238049 0.637169 -0.614134 76 71 55 1 2
-0.182986 0.485826 -0.794250 38 37 26 2 1
-0.055162 -0.020714 -0.783082 73 63 52 2 1
-0.060167 0.004440 -0.780487 70 65 50 2 1
-0.041987 -0.009997 -0.782311 77 70 56 2 1
-0.042941 0.004057 -0.779079 68 62 44 2 1
-0.598648 -0.181770 -0.776944 78 75 55 2 1
-0.619580 -0.195481 -0.779681 87 79 59 2 1
0.309872 -0.038263 -0.776957 50 48 32 2 1
0.320228 -0.042762 -0.776719 61 56 40 2 1
0.323276 -0.030780 -0.779507 47 46 33 2 1
-0.563424 -0.147297 -0.467278 74 66 50 14 4
-0.530122 -0.149085 -0.474656 81 76 55 14 4
-0.118192 0.634675 -0.600429 77 71 49 14 4
-0.132337 0.637875 -0.606478 77 73 52 1 2
-0.114400 0.640485 -0.614255 79 73 50 1 2
-0.650068 -0.145171 -0.433540 84 76 55 14 4
-0.749043 0.479826 -0.334841 51 51 42 14 4
-0.551680 -0.112533 -0.562367 55 50 35 14 4
-0.545413 -0.118740 -0.560420 57 54 42 14 4
-0.561731 -0.107665 -0.564875 47 40 26 14 4
-0.545742 -0.135322 -0.549451 55 52 38 14 4
-0.559842 -0.122455 -0.559684 57 52 39 14 4
-0.580228 0.418204 -0.781153 42 42 35 2 1
-0.555345 0.405570 -0.782909 45 41 39 2 1
-0.565013 0.383682 -0.785357 40 36 40 2 1
0.310757 0.271377 -0.790154 47 47 42 2 1
-0.505973 -0.006937 -0.776513 59 51 41 2 1
-0.102052 -0.050502 -0.782877 60 56 43 2 1
0.321008 0.101494 -0.537134 39 42 37 14 4
0.319110 0.130143 -0.531917 46 39 44 14 4
0.324729 0.119635 -0.542509 42 43 39 14 4
-0.295060 0.260782 -0.790059 34 34 24 2 1
-0.287662 0.239372 -0.784290 41 38 28 2 1
-0.272389 0.245411 -0.787165 41 35 25 2 1
-0.275751 0.226552 -0.781387 30 29 20 2 1
-0.270674 0.257024 -0.790515 34 36 24 2 1
-0.289017 0.254046 -0.790500 34 35 23 2 1
-0.284489 0.245833 -0.783154 33 30 21 2 1
-0.281938 0.256026 -0.788009 43 40 28 2 1
0.193930 0.226735 -0.785412 50 48 41 2 1
0.215454 0.227898 -0.785883 45 44 38 2 1
0.222638 0.221925 -0.786699 41 41 36 2 1
0.199497 0.210418 -0.784855 44 44 37 2 1
0.212982 0.241483 -0.784229 57 49 43 2 1
0.183037 0.234395 -0.783755 60 54 44 2 1
-0.003635 0.637178 -0.678160 78 71 59 1 2
-0.638007 0.030451 -0.780090 80 73 54 2 1
-0.234794 0.626102 -0.778625 34 34 22 1 2
-0.118404 -0.276051 -0.783250 78 71 54 2 1
-0.419990 -0.358049 -0.776266 72 69 51 2 1
-0.401732 -0.359956 -0.777571 69 64 45 2 1
-0.619543 -0.147107 -0.461466 81 73 54 14 4
-0.680010 0.484176 -0.782244 49 44 35 2 1
-0.673457 0.464999 -0.781281 43 43 33 2 1
-0.636432 0.403140 -0.782452 42 40 35 2 1
-0.605843 0.428698 -0.781148 46 42 42 2 1
0.231757 0.460747 -0.786894 41 40 31 2 1
-0.506026 -0.059199 -0.775215 62 58 45 2 1
-0.516112 -0.033773 -0.775221 57 53 43 2 1
-0.488939 -0.034683 -0.773647 66 60 53 2 1
-0.329291 -0.227056 -0.496136 58 57 44 5 5
-0.336633 -0.225221 -0.502076 59 58 45 5 5
-0.324308 -0.209375 -0.507052 55 54 39 5 5
-0.335390 -0.219353 -0.496512 53 54 39 5 5
-0.330394 -0.211635 -0.487886 50 48 36 5 5
-0.281768 -0.219267 -0.777297 51 46 38 2 1
-0.269995 -0.218736 -0.780044 54 50 40 2 1
-0.274138 -0.204094 -0.770722 49 48 39 2 1
0.035383 -0.195437 -0.780810 99 88 66 2 1
0.048208 -0.177479 -0.779214 42 45 31 2 1
0.159894 0.232876 -0.787487 57 48 37 2 1
0.139998 0.242760 -0.787322 60 52 41 2 1
0.122653 0.214308 -0.784336 61 54 39 2 1
0.138730 0.207718 -0.783350 64 57 40 2 1
-0.045581 0.154308 -0.782077 59 51 40 2 1
-0.031996 0.170793 -0.780387 62 50 38 2 1
-0.122372 -0.039247 -0.780628 61 57 40 2 1
-0.151778 -0.066921 -0.781290 63 59 47 2 1
-0.140035 -0.044963 -0.778473 63 55 43 2 1
-0.751165 0.495056 -0.408841 50 46 40 14 4
-0.752088 0.519969 -0.395841 41 45 37 14 4
0.025419 -0.184929 -0.780435 78 71 57 2 1
0.280810 0.201852 -0.783171 39 39 31 2 1
0.256509 0.190051 -0.781951 39 38 31 2 1
0.290873 0.224039 -0.784592 37 39 34 2 1
0.302735 0.214541 -0.783336 38 38 34 2 1
-0.327333 0.634353 -0.600277 74 72 54 14 4
-0.309443 0.637091 -0.610811 71 70 53 14 4
-0.297607 0.634509 -0.600842 74 69 54 14 4
-0.313220 0.630343 -0.592761 70 67 51 14 4
-0.400377 -0.265455 -0.775514 72 65 47 2 1
-0.410367 -0.286712 -0.776001 77 71 53 2 1
-0.433466 -0.308315 -0.776243 78 72 53 2 1
-0.259670 0.490395 -0.792075 33 34 23 2 1
-0.247450 0.486155 -0.793899 39 39 26 2 1
-0.264026 0.475079 -0.792947 38 33 23 2 1
-0.308128 -0.148674 -0.777669 49 47 38 2 1
0.181865 0.326528 -0.788877 51 49 37 2 1
0.200735 0.308779 -0.792667 48 43 35 2 1
0.199498 0.332650 -0.786973 52 50 39 2 1
-0.622813 0.019197 -0.778951 62 55 42 2 1
-0.615684 0.004130 -0.777100 75 69 54 2 1
-0.582286 0.002524 -0.779640 54 54 39 2 1
0.032487 0.630709 -0.689732 70 65 52 1 2
0.045548 0.628963 -0.691718 55 49 39 1 2
0.058328 0.630640 -0.688520 65 56 46 1 2
-0.164971 -0.299997 -0.782352 77 67 52 2 1
-0.198298 -0.321998 -0.779939 76 69 56 2 1
-0.160365 -0.322944 -0.782148 76 69 53 2 1
-0.418284 -0.321619 -0.775478 76 71 58 2 1
-0.406753 -0.304015 -0.776813 80 70 56 2 1
0.176439 0.621300 -0.768799 33 32 27 1 2
0.192470 0.626489 -0.758069 33 32 26 1 2
-0.605970 0.505266 -0.783215 40 41 35 2 1
-0.582304 0.532145 -0.779184 42 40 37 2 1
-0.004900 0.293501 -0.795401 41 42 33 2 1
-0.165045 -0.053356 -0.777444 61 58 47 2 1
-0.157092 -0.038564 -0.777435 63 59 52 2 1
-0.003716 0.589668 -0.418796 33 29 27 14 4
-0.038317 0.596899 -0.797796 41 39 27 2 1
-0.038052 0.570407 -0.797812 59 59 46 2 1
-0.268082 0.417268 -0.796032 31 35 23 2 1
-0.271415 0.385673 -0.796674 35 35 24 2 1
-0.291191 0.423091 -0.794233 40 40 28 2 1
-0.445650 -0.240740 -0.777416 81 72 60 2 1
-0.464954 -0.246601 -0.778818 86 80 66 2 1
-0.477503 -0.236906 -0.779177 72 66 50 2 1
-0.311090 -0.326166 -0.336717 97 84 74 5 5
-0.271840 -0.316572 -0.323323 129 111 101 5 5
-0.293901 -0.318687 -0.330014 124 111 101 5 5
-0.490012 -0.144119 -0.386341 84 77 59 14 4
-0.490362 -0.143651 -0.349841 84 79 59 14 4
-0.199611 0.593939 -0.440311 29 30 24 14 4
-0.192387 0.597342 -0.425739 29 31 25 14 4
-0.215179 0.600191 -0.428847 29 29 26 14 4
0.143186 0.157813 -0.779638 60 56 45 2 1
0.122959 0.152197 -0.776261 65 57 44 2 1
0.110148 0.151238 -0.777769 64 58 43 2 1
-0.049447 0.631475 -0.600519 83 73 55 14 4
-0.035597 0.635557 -0.611171 93 91 71 1 2
-0.441241 -0.196258 -0.777438 64 57 47 2 1
-0.503278 -0.329774 -0.778508 76 76 55 2 1
-0.520539 -0.332277 -0.779534 69 64 48 2 1
-0.499419 -0.344738 -0.778020 80 76 58 2 1
-0.541809 -0.143100 -0.351060 94 86 65 14 4
-0.562244 -0.141930 -0.341341 89 79 61 14 4
-0.686881 0.393541 -0.783027 44 40 37 2 1
-0.696808 0.372015 -0.786533 43 43 37 2 1
-0.679336 0.365902 -0.787100 42 39 35 2 1
-0.709583 0.409396 -0.781320 42 43 36 2 1
-0.712836 0.375492 -0.785019 42 45 39 2 1
-0.534412 -0.148253 -0.494091 68 64 45 14 4
-0.412324 -0.145391 -0.365817 79 70 57 14 4
0.337948 -0.123974 -0.489230 72 57 57 14 4
-0.749364 0.480790 -0.360143 49 47 38 14 4
0.059562 -0.178284 -0.328603 40 41 49 5 5
0.043291 -0.182356 -0.325552 43 42 55 5 5
0.059178 -0.200468 -0.328618 98 89 107 5 5
0.086507 0.075926 -0.774374 66 59 47 2 1
0.072507 0.072655 -0.773657 65 57 45 2 1
0.088359 0.094550 -0.776272 66 59 47 2 1
0.133691 -0.265126 -0.778416 108 98 73 2 1
