ply
format ascii 1.0
element vertex 1101
property float x
property float y
property float z
property uchar red
property uchar green
property uchar blue
property uchar semantic_label
property uchar instance_label
end_header
0.012464 0.060386 0.123324 255 125 0 62 8
0.080009 0.087642 0.122797 255 125 0 62 8
0.034800 0.027431 0.107324 255 125 0 62 8
0.129034 0.011182 0.123324 255 125 0 62 8
0.052133 0.095871 0.123324 255 125 0 62 8
0.091684 0.079491 0.123324 255 125 0 62 8
0.134801 -0.032488 0.121324 255 125 0 62 8
0.182677 0.024719 0.122954 255 125 0 62 8
0.145930 0.023435 0.123765 255 125 0 62 8
0.177993 0.037291 0.123845 255 125 0 62 8
0.182692 0.002828 0.107324 255 125 0 62 8
0.023774 0.033201 0.109324 255 125 0 62 8
0.019228 0.034191 0.117324 255 125 0 62 8
-0.095614 0.254148 0.200457 0 255 255 64 9
-0.198239 0.217409 0.195324 0 255 255 64 9
-0.121139 0.357255 0.201324 0 255 255 64 9
-0.127314 0.179792 0.201324 0 255 255 64 9
-0.052558 0.317915 0.194405 0 255 255 64 9
-0.164639 0.285699 0.204000 0 255 255 64 9
-0.145804 0.232585 0.206001 0 255 255 64 9
-0.114351 0.304437 0.204586 0 255 255 64 9
-0.165803 0.193542 0.203324 0 255 255 64 9
-0.110583 0.216148 0.193324 0 255 255 64 9
-0.086771 0.336944 0.203324 0 255 255 64 9
-0.077012 0.288760 0.204709 0 255 255 64 9
-0.184705 0.252452 0.204067 0 255 255 64 9
-0.130127 0.269924 0.198365 0 255 255 64 9
-0.139217 0.327625 0.198353 0 255 255 64 9
-0.172312 0.221753 0.206299 0 255 255 64 9
-0.137799 0.205978 0.198347 0 255 255 64 9
-0.155869 0.258379 0.199324 0 255 255 64 9
-0.141056 0.299259 0.198334 0 255 255 64 9
-0.119197 0.240589 0.206231 0 255 255 64 9
-0.104982 0.279292 0.204621 0 255 255 64 9
-0.113184 0.332082 0.199324 0 255 255 64 9
-0.089108 0.310978 0.198333 0 255 255 64 9
-0.060249 0.295005 0.188364 0 255 255 64 9
-0.097627 0.231414 0.205324 0 255 255 64 9
-0.077684 0.267510 0.194605 0 255 255 64 9
-0.071080 0.321513 0.203679 0 255 255 64 9
-0.117716 0.198189 0.204169 0 255 255 64 9
-0.147050 0.187259 0.196635 0 255 255 64 9
-0.167974 0.241068 0.199324 0 255 255 64 9
-0.180875 0.205127 0.195324 0 255 255 64 9
-0.136552 0.251303 0.204916 0 255 255 64 9
-0.128449 0.221870 0.205855 0 255 255 64 9
-0.195418 0.235097 0.203988 0 255 255 64 9
-0.146019 0.279274 0.205395 0 255 255 64 9
-0.114731 0.260040 0.205324 0 255 255 64 9
-0.173089 0.267840 0.201324 0 255 255 64 9
-0.123702 0.288544 0.198363 0 255 255 64 9
-0.154408 0.215997 0.199324 0 255 255 64 9
-0.062008 0.304849 0.204528 0 255 255 64 9
-0.101697 0.347331 0.198344 0 255 255 64 9
-0.095632 0.295185 0.204830 0 255 255 64 9
-0.124787 0.319638 0.204791 0 255 255 64 9
-0.128304 0.339326 0.205124 0 255 255 64 9
-0.073988 0.283205 0.188438 0 255 255 64 9
-0.099445 0.323353 0.204620 0 255 255 64 9
-0.089931 0.270726 0.205324 0 255 255 64 9
-0.149089 0.312219 0.203324 0 255 255 64 9
-0.100774 0.239818 0.192335 0 255 255 64 9
-0.133115 0.193406 0.206471 0 255 255 64 9
-0.151735 0.199830 0.205541 0 255 255 64 9
-0.187810 0.219797 0.206266 0 255 255 64 9
-0.111587 0.225289 0.206524 0 255 255 64 9
-0.169207 0.254408 0.206730 0 255 255 64 9
-0.181187 0.232764 0.200386 0 255 255 64 9
-0.155799 0.296599 0.199324 0 255 255 64 9
-0.131768 0.235904 0.200429 0 255 255 64 9
-0.144063 0.263777 0.206145 0 255 255 64 9
-0.127849 0.306086 0.199324 0 255 255 64 9
-0.158492 0.271764 0.205695 0 255 255 64 9
-0.153315 0.245058 0.206187 0 255 255 64 9
-0.076141 0.304356 0.198376 0 255 255 64 9
-0.166165 0.207817 0.205859 0 255 255 64 9
-0.105162 0.243909 0.205809 0 255 255 64 9
-0.159839 0.229264 0.205658 0 255 255 64 9
-0.109667 0.291865 0.198327 0 255 255 64 9
-0.157290 0.196806 0.192342 0 255 255 64 9
-0.119017 0.275972 0.204722 0 255 255 64 9
-0.114369 0.345473 0.205059 0 255 255 64 9
-0.142483 0.218550 0.206263 0 255 255 64 9
-0.118210 0.212322 0.205733 0 255 255 64 9
-0.125999 0.192239 0.194478 0 255 255 64 9
-0.090281 0.283327 0.199324 0 255 255 64 9
-0.083042 0.258832 0.204464 0 255 255 64 9
-0.063905 0.290211 0.201324 0 255 255 64 9
-0.112017 0.318669 0.200437 0 255 255 64 9
-0.070640 0.277350 0.201324 0 255 255 64 9
-0.085312 0.323847 0.200483 0 255 255 64 9
-0.103125 0.266621 0.200496 0 255 255 64 9
-0.101778 0.309121 0.204459 0 255 255 64 9
-0.125344 0.254525 0.198407 0 255 255 64 9
-0.061405 0.308428 0.191324 0 255 255 64 9
-0.184243 0.217757 0.193324 0 255 255 64 9
-0.120839 0.206570 0.194389 0 255 255 64 9
-0.091418 0.242031 0.201324 0 255 255 64 9
-0.135008 0.288149 0.204456 0 255 255 64 9
-0.106032 0.228313 0.194497 0 255 255 64 9
-0.101304 0.336024 0.204803 0 255 255 64 9
-0.168256 0.205575 0.193324 0 255 255 64 9
-0.050846 0.310952 0.205324 0 255 255 64 9
-0.137360 0.314954 0.200523 0 255 255 64 9
-0.127856 0.204910 0.205793 0 255 255 64 9
-0.072284 0.295290 0.191324 0 255 255 64 9
-0.179033 0.211613 0.205442 0 255 255 64 9
-0.135645 0.184826 0.194497 0 255 255 64 9
-0.085689 0.294117 0.198373 0 255 255 64 9
-0.088102 0.262204 0.193324 0 255 255 64 9
-0.121045 0.231374 0.199324 0 255 255 64 9
-0.108285 0.252291 0.198414 0 255 255 64 9
-0.188599 0.242410 0.198332 0 255 255 64 9
-0.175812 0.200405 0.204424 0 255 255 64 9
-0.124429 0.330243 0.199324 0 255 255 64 9
-0.177916 0.243388 0.205324 0 255 255 64 9
-0.146413 0.290581 0.204683 0 255 255 64 9
-0.153019 0.236578 0.198344 0 255 255 64 9
-0.075666 0.331259 0.200470 0 255 255 64 9
-0.149914 0.269233 0.198344 0 255 255 64 9
-0.141909 0.242626 0.200373 0 255 255 64 9
-0.189205 0.209502 0.201324 0 255 255 64 9
-0.139836 0.183265 0.204652 0 255 255 64 9
-0.139952 0.227129 0.198329 0 255 255 64 9
-0.198288 0.223222 0.205324 0 255 255 64 9
-0.165707 0.275757 0.198344 0 255 255 64 9
-0.060602 0.318087 0.203324 0 255 255 64 9
-0.080726 0.314102 0.204707 0 255 255 64 9
-0.129831 0.261444 0.205635 0 255 255 64 9
-0.081533 0.276568 0.199324 0 255 255 64 9
-0.155387 0.282541 0.199324 0 255 255 64 9
-0.126824 0.296925 0.204975 0 255 255 64 9
-0.155630 0.189789 0.204725 0 255 255 64 9
-0.146494 0.252372 0.200404 0 255 255 64 9
-0.133904 0.216019 0.198356 0 255 255 64 9
-0.169781 0.230332 0.200412 0 255 255 64 9
-0.124311 0.346541 0.198356 0 255 255 64 9
-0.050274 0.307581 0.193324 0 255 255 64 9
-0.136281 0.275054 0.205324 0 255 255 64 9
-0.194502 0.227284 0.195324 0 255 255 64 9
-0.100280 0.287268 0.199324 0 255 255 64 9
-0.174959 0.257037 0.198402 0 255 255 64 9
-0.107630 0.216129 0.203324 0 255 255 64 9
-0.085985 0.302597 0.204433 0 255 255 64 9
-0.111802 0.271978 0.198332 0 255 255 64 9
-0.068654 0.312386 0.199324 0 255 255 64 9
-0.167825 0.214834 0.198366 0 255 255 64 9
-0.159049 0.206650 0.198433 0 255 255 64 9
-0.141693 0.195936 0.198342 0 255 255 64 9
-0.119869 0.219340 0.198343 0 255 255 64 9
-0.095452 0.330568 0.198341 0 255 255 64 9
-0.101483 0.300641 0.198373 0 255 255 64 9
-0.136848 0.259784 0.198329 0 255 255 64 9
-0.148437 0.300672 0.205324 0 255 255 64 9
-0.148444 0.207700 0.199324 0 255 255 64 9
-0.127874 0.245946 0.205599 0 255 255 64 9
-0.163850 0.263086 0.206295 0 255 255 64 9
-0.123073 0.189511 0.204328 0 255 255 64 9
-0.071654 0.297437 0.204610 0 255 255 64 9
-0.118344 0.297222 0.198368 0 255 255 64 9
-0.151160 0.223907 0.206052 0 255 255 64 9
-0.115123 0.286013 0.204569 0 255 255 64 9
-0.077684 0.267510 0.204746 0 255 255 64 9
-0.161992 0.250415 0.200574 0 255 255 64 9
-0.110519 0.235232 0.200352 0 255 255 64 9
-0.129762 0.280522 0.199324 0 255 255 64 9
-0.086184 0.250824 0.199324 0 255 255 64 9
-0.118129 0.250531 0.206416 0 255 255 64 9
-0.057620 0.300758 0.196184 0 255 255 64 9
-0.132100 0.326458 0.204982 0 255 255 64 9
-0.103633 0.257279 0.205324 0 255 255 64 9
-0.112482 0.353361 0.199324 0 255 255 64 9
-0.160906 0.219322 0.205679 0 255 255 64 9
-0.161597 0.239109 0.206232 0 255 255 64 9
-0.065507 0.283501 0.192881 0 255 255 64 9
-0.095572 0.262990 0.205324 0 255 255 64 9
-0.097785 0.316336 0.198335 0 255 255 64 9
-0.112693 0.207177 0.199324 0 255 255 64 9
-0.178757 0.223639 0.199324 0 255 255 64 9
-0.140465 0.282299 0.198344 0 255 255 64 9
-0.141891 0.201589 0.205924 0 255 255 64 9
-0.119539 0.310603 0.199324 0 255 255 64 9
-0.120085 0.266030 0.200337 0 255 255 64 9
-0.135600 0.305110 0.204598 0 255 255 64 9
-0.116505 0.325588 0.205285 0 255 255 64 9
-0.108518 0.340017 0.198356 0 255 255 64 9
-0.090768 0.317996 0.205131 0 255 255 64 9
-0.094941 0.275397 0.198326 0 255 255 64 9
-0.066769 0.301085 0.197324 0 255 255 64 9
-0.146117 0.191857 0.205324 0 255 255 64 9
-0.112914 0.244393 0.199324 0 255 255 64 9
-0.173809 0.198538 0.195324 0 255 255 64 9
-0.108895 0.310288 0.198373 0 255 255 64 9
-0.143742 0.320906 0.203324 0 255 255 64 9
-0.095071 0.339774 0.199324 0 255 255 64 9
-0.107038 0.297617 0.204911 0 255 255 64 9
-0.154858 0.208212 0.206309 0 255 255 64 9
-0.104586 0.329571 0.199324 0 255 255 64 9
-0.119726 0.336796 0.205087 0 255 255 64 9
-0.076103 0.283868 0.197324 0 255 255 64 9
-0.135170 0.211730 0.205952 0 255 255 64 9
-0.135223 0.334840 0.202075 0 255 255 64 9
-0.128879 0.315250 0.198356 0 255 255 64 9
-0.129749 0.198472 0.199324 0 255 255 64 9
-0.125918 0.230449 0.206507 0 255 255 64 9
-0.153263 0.264152 0.205324 0 255 255 64 9
-0.102081 0.224629 0.201324 0 255 255 64 9
-0.132478 0.296728 0.198387 0 255 255 64 9
-0.135762 0.228689 0.205771 0 255 255 64 9
-0.110734 0.281922 0.198326 0 255 255 64 9
-0.156257 0.288822 0.205145 0 255 255 64 9
-0.145212 0.215624 0.198409 0 255 255 64 9
-0.128646 0.227524 0.198329 0 255 255 64 9
-0.171836 0.248656 0.200367 0 255 255 64 9
-0.188105 0.228277 0.205176 0 255 255 64 9
-0.072327 0.276187 0.193022 0 255 255 64 9
-0.155549 0.227999 0.198386 0 255 255 64 9
-0.172805 0.235887 0.206138 0 255 255 64 9
-0.119968 0.222167 0.206698 0 255 255 64 9
-0.096781 0.247033 0.205668 0 255 255 64 9
-0.141434 0.269529 0.200438 0 255 255 64 9
-0.132163 0.247212 0.198375 0 255 255 64 9
-0.126689 0.212026 0.200382 0 255 255 64 9
-0.152247 0.255001 0.206216 0 255 255 64 9
-0.096781 0.247033 0.194341 0 255 255 64 9
-0.093002 0.300937 0.198338 0 255 255 64 9
-0.141353 0.307739 0.198327 0 255 255 64 9
-0.085491 0.288464 0.204770 0 255 255 64 9
-0.077209 0.294413 0.198324 0 255 255 64 9
-0.099113 0.232800 0.196794 0 255 255 64 9
-0.160215 0.199535 0.205401 0 255 255 64 9
-0.194871 0.215444 0.203324 0 255 255 64 9
-0.112951 0.223826 0.196334 0 255 255 64 9
-0.150174 0.195640 0.198387 0 255 255 64 9
-0.085451 0.269284 0.197324 0 255 255 64 9
-0.165144 0.197182 0.195324 0 255 255 64 9
-0.160206 0.190748 0.197324 0 255 255 64 9
-0.122024 0.240490 0.198373 0 255 255 64 9
-0.058885 0.296468 0.203545 0 255 255 64 9
-0.108581 0.260770 0.198363 0 255 255 64 9
-0.138885 0.237071 0.206706 0 255 255 64 9
-0.068451 0.327266 0.198344 0 255 255 64 9
-0.116074 0.232208 0.205922 0 255 255 64 9
-0.076635 0.318489 0.198363 0 255 255 64 9
-0.123504 0.282891 0.204429 0 255 255 64 9
-0.093200 0.306590 0.204493 0 255 255 64 9
-0.174743 0.210348 0.198378 0 255 255 64 9
-0.098069 0.272043 0.205324 0 255 255 64 9
-0.179347 0.261130 0.204026 0 255 255 64 9
-0.125936 0.271485 0.205264 0 255 255 64 9
-0.187038 0.238220 0.205217 0 255 255 64 9
-0.148334 0.224005 0.198345 0 255 255 64 9
-0.096602 0.282415 0.204807 0 255 255 64 9
-0.154499 0.278979 0.206648 0 255 255 64 9
-0.069797 0.284767 0.204668 0 255 255 64 9
-0.104999 0.317398 0.205324 0 255 255 64 9
-0.150012 0.272059 0.205983 0 255 255 64 9
-0.104865 0.235429 0.206209 0 255 255 64 9
-0.065424 0.301185 0.189324 0 255 255 64 9
-0.149734 0.304617 0.198356 0 255 255 64 9
-0.091163 0.329302 0.205094 0 255 255 64 9
-0.119907 0.197497 0.195324 0 255 255 64 9
-0.176798 0.228672 0.205810 0 255 255 64 9
-0.166972 0.271467 0.205167 0 255 255 64 9
-0.082590 0.329698 0.205324 0 255 255 64 9
-0.058681 0.311350 0.199324 0 255 255 64 9
-0.056256 0.302220 0.188385 0 255 255 64 9
-0.153019 0.236578 0.206387 0 255 255 64 9
-0.163202 0.225656 0.199324 0 255 255 64 9
-0.094645 0.266918 0.198391 0 255 255 64 9
-0.092070 0.255017 0.193324 0 255 255 64 9
-0.135682 0.266900 0.205918 0 255 255 64 9
-0.146476 0.211335 0.206159 0 255 255 64 9
-0.127790 0.184453 0.193324 0 255 255 64 9
-0.166084 0.246027 0.205791 0 255 255 64 9
-0.115418 0.294494 0.205218 0 255 255 64 9
-0.064242 0.287791 0.186350 0 255 255 64 9
-0.114647 0.312917 0.205142 0 255 255 64 9
-0.140924 0.234885 0.199324 0 255 255 64 9
-0.186544 0.224087 0.198344 0 255 255 64 9
-0.120498 0.318373 0.198327 0 255 255 64 9
-0.140059 0.291530 0.199324 0 255 255 64 9
-0.153315 0.245058 0.198334 0 255 255 64 9
-0.113068 0.267689 0.204912 0 255 255 64 9
-0.081499 0.295678 0.204767 0 255 255 64 9
-0.070586 0.307380 0.204953 0 255 255 64 9
-0.147976 0.294772 0.198334 0 255 255 64 9
-0.132259 0.189873 0.199324 0 255 255 64 9
-0.131607 0.312324 0.205021 0 255 255 64 9
-0.052558 0.317915 0.202128 0 255 255 64 9
-0.188945 0.233242 0.199324 0 255 255 64 9
-0.182445 0.205022 0.203324 0 255 255 64 9
-0.144646 0.260218 0.199324 0 255 255 64 9
-0.109963 0.300344 0.198333 0 255 255 64 9
-0.103421 0.275102 0.198376 0 255 255 64 9
-0.054573 0.303386 0.203324 0 255 255 64 9
-0.138131 0.296531 0.204846 0 255 255 64 9
-0.120114 0.350831 0.205324 0 255 255 64 9
-0.076715 0.280280 0.204886 0 255 255 64 9
-0.166097 0.265181 0.199324 0 255 255 64 9
-0.081677 0.260295 0.196929 0 255 255 64 9
-0.093333 0.290306 0.199324 0 255 255 64 9
-0.145920 0.276448 0.198365 0 255 255 64 9
-0.097490 0.307855 0.198363 0 255 255 64 9
-0.179580 0.247674 0.199324 0 255 255 64 9
-0.122616 0.257451 0.204804 0 255 255 64 9
-0.119215 0.281626 0.198376 0 255 255 64 9
-0.092330 0.322187 0.198363 0 255 255 64 9
-0.122831 0.304140 0.204554 0 255 255 64 9
-0.105000 0.320329 0.198358 0 255 255 64 9
-0.166479 0.257334 0.200382 0 255 255 64 9
-0.116863 0.254822 0.200381 0 255 255 64 9
-0.141451 0.310565 0.205269 0 255 255 64 9
-0.110791 0.249603 0.205324 0 255 255 64 9
-0.082782 0.332425 0.198369 0 255 255 64 9
-0.106741 0.289136 0.204615 0 255 255 64 9
-0.124915 0.196698 0.205324 0 255 255 64 9
-0.176224 0.252748 0.204769 0 255 255 64 9
-0.101592 0.243314 0.199324 0 255 255 64 9
-0.111245 0.337092 0.204577 0 255 255 64 9
-0.080135 0.321754 0.205324 0 255 255 64 9
-0.170867 0.261426 0.204707 0 255 255 64 9
-0.086559 0.278520 0.204367 0 255 255 64 9
-0.139396 0.191059 0.193324 0 255 255 64 9
-0.179033 0.211613 0.192372 0 255 255 64 9
-0.128206 0.336500 0.198336 0 255 255 64 9
-0.160036 0.234918 0.200395 0 255 255 64 9
-0.134071 0.321413 0.199324 0 255 255 64 9
-0.117509 0.213073 0.195324 0 255 255 64 9
-0.149116 0.185044 0.203324 0 255 255 64 9
-0.107352 0.347134 0.203809 0 255 255 64 9
-0.158295 0.266110 0.200390 0 255 255 64 9
-0.104273 0.218469 0.197268 0 255 255 64 9
-0.129534 0.252963 0.206686 0 255 255 64 9
-0.172016 0.213274 0.206520 0 255 255 64 9
-0.162979 0.278682 0.204972 0 255 255 64 9
-0.134892 0.244286 0.206480 0 255 255 64 9
-0.062029 0.293930 0.195324 0 255 255 64 9
-0.097947 0.239916 0.204874 0 255 255 64 9
-0.120857 0.247607 0.200373 0 255 255 64 9
-0.109388 0.324421 0.204600 0 255 255 64 9
-0.119376 0.205206 0.205039 0 255 255 64 9
-0.179329 0.220093 0.205605 0 255 255 64 9
-0.111999 0.277632 0.205242 0 255 255 64 9
-0.142402 0.256760 0.205720 0 255 255 64 9
-0.106149 0.272176 0.205018 0 255 255 64 9
-0.167331 0.200701 0.205035 0 255 255 64 9
-0.072247 0.314398 0.205287 0 255 255 64 9
-0.134775 0.200423 0.205578 0 255 255 64 9
-0.079067 0.307084 0.204440 0 255 255 64 9
-0.127579 0.237466 0.206279 0 255 255 64 9
-0.146297 0.246718 0.206402 0 255 255 64 9
-0.160332 0.243398 0.200381 0 255 255 64 9
-0.132818 0.184925 0.204770 0 255 255 64 9
-0.124491 0.311158 0.205159 0 255 255 64 9
-0.070093 0.293246 0.198254 0 255 255 64 9
-0.083257 0.305523 0.198330 0 255 255 64 9
-0.162189 0.256068 0.206304 0 255 255 64 9
-0.144143 0.225567 0.205971 0 255 255 64 9
-0.135466 0.220210 0.206211 0 255 255 64 9
-0.116684 0.290204 0.198387 0 255 255 64 9
-0.090059 0.257172 0.204487 0 255 255 64 9
-0.077801 0.311373 0.198361 0 255 255 64 9
-0.127991 0.289810 0.204941 0 255 255 64 9
-0.132199 0.329285 0.198369 0 255 255 64 9
-0.112080 0.239423 0.205977 0 255 255 64 9
-0.084679 0.265828 0.205324 0 255 255 64 9
-0.121386 0.343813 0.204552 0 255 255 64 9
-0.190537 0.216872 0.196649 0 255 255 64 9
-0.174951 0.236518 0.199324 0 255 255 64 9
-0.186051 0.209953 0.194357 0 255 255 64 9
-0.141355 0.181635 0.197324 0 255 255 64 9
-0.063668 0.311867 0.204962 0 255 255 64 9
-0.152327 0.216791 0.206076 0 255 255 64 9
-0.147248 0.192912 0.192378 0 255 255 64 9
-0.083211 0.283602 0.199324 0 255 255 64 9
-0.055089 0.309337 0.188338 0 255 255 64 9
-0.159849 0.290836 0.199324 0 255 255 64 9
-0.119331 0.325489 0.198348 0 255 255 64 9
-0.178545 0.216628 0.199324 0 255 255 64 9
-0.181976 0.255378 0.198325 0 255 255 64 9
-0.121189 0.338160 0.198382 0 255 255 64 9
-0.134794 0.179875 0.199324 0 255 255 64 9
-0.118919 0.273145 0.198360 0 255 255 64 9
-0.125460 0.298388 0.198327 0 255 255 64 9
-0.066790 0.320248 0.198374 0 255 255 64 9
-0.153974 0.201919 0.199324 0 255 255 64 9
-0.185871 0.245336 0.203933 0 255 255 64 9
-0.155288 0.301592 0.204018 0 255 255 64 9
-0.152718 0.289686 0.199324 0 255 255 64 9
-0.125685 0.204306 0.199324 0 255 255 64 9
-0.100119 0.302104 0.204915 0 255 255 64 9
-0.157227 0.276053 0.200359 0 255 255 64 9
-0.093200 0.335916 0.205324 0 255 255 64 9
-0.160708 0.213668 0.200414 0 255 255 64 9
-0.153581 0.190613 0.195324 0 255 255 64 9
-0.103348 0.294177 0.199324 0 255 255 64 9
-0.084346 0.316084 0.199324 0 255 255 64 9
-0.166856 0.227604 0.205885 0 255 255 64 9
-0.144038 0.202219 0.199324 0 255 255 64 9
-0.074185 0.288858 0.192270 0 255 255 64 9
-0.182190 0.240485 0.199324 0 255 255 64 9
-0.135772 0.258004 0.205324 0 255 255 64 9
-0.199412 0.227882 0.200568 0 255 255 64 9
-0.179922 0.237053 0.206464 0 255 255 64 9
-0.093752 0.236005 0.199324 0 255 255 64 9
-0.147580 0.283465 0.200396 0 255 255 64 9
-0.089763 0.248692 0.204573 0 255 255 64 9
-0.078723 0.278126 0.193324 0 255 255 64 9
-0.134336 0.309399 0.198367 0 255 255 64 9
-0.113774 0.219124 0.205324 0 255 255 64 9
-0.134201 0.224499 0.200359 0 255 255 64 9
-0.139459 0.212995 0.200435 0 255 255 64 9
-0.122894 0.224894 0.200368 0 255 255 64 9
-0.149995 0.231023 0.200380 0 255 255 64 9
-0.131095 0.257155 0.200395 0 255 255 64 9
-0.127102 0.264370 0.200328 0 255 255 64 9
-0.092280 0.260655 0.199324 0 255 255 64 9
-0.124558 0.185427 0.199324 0 255 255 64 9
-0.169485 0.221852 0.200377 0 255 255 64 9
-0.110851 0.325785 0.198350 0 255 255 64 9
-0.143717 0.314001 0.199324 0 255 255 64 9
-0.133348 0.281132 0.204742 0 255 255 64 9
-0.171279 0.196468 0.201324 0 255 255 64 9
-0.124671 0.275774 0.200515 0 255 255 64 9
-0.169506 0.277549 0.203324 0 255 255 64 9
-0.074736 0.324923 0.199324 0 255 255 64 9
-0.106032 0.228313 0.205016 0 255 255 64 9
-0.102532 0.249661 0.200371 0 255 255 64 9
-0.140231 0.194572 0.205751 0 255 255 64 9
-0.133058 0.319146 0.205324 0 255 255 64 9
-0.104216 0.237558 0.197324 0 255 255 64 9
-0.142618 0.303450 0.204942 0 255 255 64 9
-0.085770 0.255907 0.194414 0 255 255 64 9
-0.120004 0.304239 0.198357 0 255 255 64 9
-0.154975 0.252075 0.200346 0 255 255 64 9
-0.126644 0.332309 0.205013 0 255 255 64 9
-0.129633 0.302712 0.205324 0 255 255 64 9
-0.133644 0.289612 0.198334 0 255 255 64 9
-0.168277 0.208485 0.199324 0 255 255 64 9
-0.143546 0.273128 0.205324 0 255 255 64 9
-0.161714 0.282972 0.198364 0 255 255 64 9
-0.128921 0.215498 0.205324 0 255 255 64 9
-0.064581 0.323657 0.203324 0 255 255 64 9
-0.148926 0.240966 0.200545 0 255 255 64 9
-0.115634 0.341184 0.200502 0 255 255 64 9
-0.142582 0.221377 0.200545 0 255 255 64 9
-0.144637 0.239700 0.205939 0 255 255 64 9
-0.120973 0.291470 0.204496 0 255 255 64 9
-0.088516 0.294018 0.204068 0 255 255 64 9
-0.140465 0.282299 0.204801 0 255 255 64 9
-0.116219 0.202261 0.197324 0 255 255 64 9
-0.097785 0.316336 0.204678 0 255 255 64 9
-0.127139 0.346442 0.204032 0 255 255 64 9
-0.083535 0.272966 0.204830 0 255 255 64 9
-0.184784 0.214242 0.204979 0 255 255 64 9
-0.098261 0.289433 0.205270 0 255 255 64 9
-0.108796 0.307461 0.204902 0 255 255 64 9
-0.182353 0.225647 0.206106 0 255 255 64 9
-0.117671 0.318471 0.204844 0 255 255 64 9
-0.166461 0.216298 0.205922 0 255 255 64 9
-0.098280 0.330469 0.204581 0 255 255 64 9
-0.149106 0.205582 0.205952 0 255 255 64 9
-0.087744 0.312441 0.204934 0 255 255 64 9
-0.075055 0.273262 0.204577 0 255 255 64 9
-0.134793 0.241460 0.200538 0 255 255 64 9
-0.173183 0.206157 0.204311 0 255 255 64 9
-0.093576 0.276861 0.204717 0 255 255 64 9
-0.113149 0.229480 0.200461 0 255 255 64 9
-0.135306 0.195449 0.199324 0 255 255 64 9
-0.098638 0.259703 0.200563 0 255 255 64 9
-0.171639 0.243003 0.205999 0 255 255 64 9
-0.064637 0.299097 0.204549 0 255 255 64 9
-0.116271 0.237861 0.198369 0 255 255 64 9
-0.140743 0.249742 0.200431 0 255 255 64 9
-0.140724 0.208706 0.206046 0 255 255 64 9
-0.104328 0.341579 0.203831 0 255 255 64 9
-0.132244 0.209002 0.200339 0 255 255 64 9
-0.103340 0.313312 0.198353 0 255 255 64 9
-0.108222 0.331537 0.204604 0 255 255 64 9
-0.120938 0.209397 0.200466 0 255 255 64 9
-0.127095 0.324525 0.199324 0 255 255 64 9
-0.137655 0.323434 0.204839 0 255 255 64 9
-0.160611 0.210841 0.206047 0 255 255 64 9
-0.120636 0.192708 0.199324 0 255 255 64 9
-0.103995 0.251026 0.206307 0 255 255 64 9
-0.159557 0.247161 0.205324 0 255 255 64 9
-0.174546 0.204694 0.194600 0 255 255 64 9
-0.052132 0.312048 0.199324 0 255 255 64 9
-0.065603 0.306859 0.199324 0 255 255 64 9
-0.056650 0.313527 0.204823 0 255 255 64 9
-0.158178 0.222246 0.200520 0 255 255 64 9
-0.080233 0.299968 0.200500 0 255 255 64 9
-0.159572 0.200225 0.197324 0 255 255 64 9
-0.176098 0.229423 0.199324 0 255 255 64 9
-0.057376 0.314204 0.193324 0 255 255 64 9
-0.120570 0.259643 0.199324 0 255 255 64 9
-0.123621 0.326754 0.204351 0 255 255 64 9
-0.126294 0.200719 0.194338 0 255 255 64 9
-0.080552 0.289326 0.199324 0 255 255 64 9
-0.096602 0.282415 0.198357 0 255 255 64 9
-0.164604 0.203626 0.198342 0 255 255 64 9
-0.110178 0.347034 0.198342 0 255 255 64 9
-0.105202 0.305451 0.199324 0 255 255 64 9
-0.124276 0.264468 0.205759 0 255 255 64 9
-0.107217 0.262234 0.205090 0 255 255 64 9
-0.111093 0.211156 0.204171 0 255 255 64 9
-0.067266 0.293345 0.188423 0 255 255 64 9
-0.240315 0.301321 0.191324 255 255 0 57 10
-0.309097 0.289146 0.274298 255 255 0 57 10
-0.214631 0.258483 0.264435 255 255 0 57 10
-0.244812 0.333115 0.263324 255 255 0 57 10
-0.270485 0.260171 0.231324 255 255 0 57 10
-0.293442 0.307363 0.213324 255 255 0 57 10
-0.231536 0.293389 0.237324 255 255 0 57 10
-0.261223 0.255441 0.276736 255 255 0 57 10
-0.290139 0.334364 0.273324 255 255 0 57 10
-0.275240 0.272666 0.187324 255 255 0 57 10
-0.227222 0.294835 0.276143 255 255 0 57 10
-0.217557 0.261210 0.227902 255 255 0 57 10
-0.284942 0.304906 0.253324 255 255 0 57 10
-0.246219 0.271530 0.208832 255 255 0 57 10
-0.291161 0.264390 0.259324 255 255 0 57 10
-0.243195 0.265975 0.251171 255 255 0 57 10
-0.292217 0.276139 0.215324 255 255 0 57 10
-0.271687 0.333564 0.249324 255 255 0 57 10
-0.255383 0.308624 0.253324 255 255 0 57 10
-0.297455 0.283758 0.241324 255 255 0 57 10
-0.229277 0.313159 0.256325 255 255 0 57 10
-0.236276 0.270462 0.275674 255 255 0 57 10
-0.303502 0.314010 0.267324 255 255 0 57 10
-0.265855 0.329652 0.275324 255 255 0 57 10
-0.252168 0.279813 0.186396 255 255 0 57 10
-0.267873 0.262970 0.255324 255 255 0 57 10
-0.236433 0.293754 0.213324 255 255 0 57 10
-0.248461 0.276356 0.231324 255 255 0 57 10
-0.269545 0.271405 0.209324 255 255 0 57 10
-0.204468 0.266449 0.245324 255 255 0 57 10
-0.292664 0.325780 0.249324 255 255 0 57 10
-0.219689 0.279451 0.261324 255 255 0 57 10
-0.236392 0.314325 0.276282 255 255 0 57 10
-0.304374 0.297142 0.255324 255 255 0 57 10
-0.297757 0.310105 0.237324 255 255 0 57 10
-0.281108 0.257576 0.275603 255 255 0 57 10
-0.227994 0.276412 0.220264 255 255 0 57 10
-0.235603 0.291712 0.258326 255 255 0 57 10
-0.287686 0.268118 0.235324 255 255 0 57 10
-0.297198 0.272580 0.275747 255 255 0 57 10
-0.239318 0.317053 0.240338 255 255 0 57 10
-0.297889 0.292367 0.224347 255 255 0 57 10
-0.253847 0.327867 0.248363 255 255 0 57 10
-0.260117 0.265425 0.195324 255 255 0 57 10
-0.257466 0.262401 0.219324 255 255 0 57 10
-0.294031 0.281842 0.259324 255 255 0 57 10
-0.279603 0.324538 0.263324 255 255 0 57 10
-0.253842 0.266287 0.265324 255 255 0 57 10
-0.239489 0.284397 0.197324 255 255 0 57 10
-0.255202 0.260764 0.239324 255 255 0 57 10
-0.288181 0.277844 0.197324 255 255 0 57 10
-0.291365 0.308160 0.196421 255 255 0 57 10
-0.234826 0.277314 0.241324 255 255 0 57 10
-0.249746 0.326400 0.277324 255 255 0 57 10
-0.260502 0.336808 0.261324 255 255 0 57 10
-0.279981 0.264650 0.219324 255 255 0 57 10
-0.267883 0.318679 0.253324 255 255 0 57 10
-0.240763 0.277381 0.262383 255 255 0 57 10
-0.210277 0.274881 0.229324 255 255 0 57 10
-0.291234 0.318976 0.275324 255 255 0 57 10
-0.243607 0.318319 0.256602 255 255 0 57 10
-0.205918 0.272234 0.259324 255 255 0 57 10
-0.278858 0.259989 0.245324 255 255 0 57 10
-0.294656 0.292903 0.209324 255 255 0 57 10
-0.242454 0.306304 0.205324 255 255 0 57 10
-0.228927 0.266344 0.263324 255 255 0 57 10
-0.302128 0.312728 0.251324 255 255 0 57 10
-0.299780 0.299600 0.269324 255 255 0 57 10
-0.276188 0.339098 0.271324 255 255 0 57 10
-0.240364 0.287948 0.227324 255 255 0 57 10
-0.295489 0.325679 0.263324 255 255 0 57 10
-0.235229 0.303843 0.247324 255 255 0 57 10
-0.225591 0.308313 0.269324 255 255 0 57 10
-0.246870 0.259101 0.275324 255 255 0 57 10
-0.207663 0.254225 0.251324 255 255 0 57 10
-0.255038 0.257877 0.253324 255 255 0 57 10
-0.293370 0.271744 0.247324 255 255 0 57 10
-0.297385 0.297367 0.243324 255 255 0 57 10
-0.271874 0.254435 0.265324 255 255 0 57 10
-0.234695 0.324944 0.267324 255 255 0 57 10
-0.232334 0.283193 0.271324 255 255 0 57 10
-0.255626 0.277569 0.199324 255 255 0 57 10
-0.280453 0.319862 0.248514 255 255 0 57 10
-0.283431 0.269748 0.207324 255 255 0 57 10
-0.254977 0.338385 0.273324 255 255 0 57 10
-0.296229 0.285350 0.271581 255 255 0 57 10
-0.243028 0.282227 0.215324 255 255 0 57 10
-0.212936 0.257368 0.239324 255 255 0 57 10
-0.246110 0.268694 0.221324 255 255 0 57 10
-0.291852 0.314084 0.259324 255 255 0 57 10
-0.260939 0.268848 0.231324 255 255 0 57 10
-0.232293 0.280421 0.253324 255 255 0 57 10
-0.249873 0.274938 0.245324 255 255 0 57 10
-0.255210 0.326404 0.265776 255 255 0 57 10
-0.240948 0.263881 0.265324 255 255 0 57 10
-0.266505 0.265836 0.243324 255 255 0 57 10
-0.246135 0.290595 0.187324 255 255 0 57 10
-0.216910 0.263342 0.253324 255 255 0 57 10
-0.278996 0.327291 0.275324 255 255 0 57 10
-0.271839 0.264584 0.199324 255 255 0 57 10
-0.268090 0.268604 0.221324 255 255 0 57 10
-0.283027 0.333201 0.255324 255 255 0 57 10
-0.256555 0.264761 0.207324 255 255 0 57 10
-0.279154 0.263957 0.263324 255 255 0 57 10
-0.310314 0.303953 0.273324 255 255 0 57 10
-0.267895 0.327294 0.263324 255 255 0 57 10
-0.242228 0.267809 0.239324 255 255 0 57 10
-0.243458 0.295018 0.201324 255 255 0 57 10
-0.241881 0.328968 0.251324 255 255 0 57 10
-0.228659 0.301644 0.259324 255 255 0 57 10
-0.255528 0.274741 0.217324 255 255 0 57 10
-0.227783 0.264907 0.223324 255 255 0 57 10
-0.289101 0.265029 0.271324 255 255 0 57 10
-0.270693 0.262881 0.273324 255 255 0 57 10
-0.258446 0.255585 0.265324 255 255 0 57 10
-0.262622 0.275888 0.189324 255 255 0 57 10
-0.299132 0.271650 0.263324 255 255 0 57 10
-0.303774 0.288989 0.263324 255 255 0 57 10
-0.237284 0.276871 0.229324 255 255 0 57 10
-0.246839 0.310394 0.189324 255 255 0 57 10
-0.237509 0.288020 0.245324 255 255 0 57 10
-0.236012 0.311800 0.265324 255 255 0 57 10
-0.295457 0.303773 0.228327 255 255 0 57 10
-0.295149 0.276138 0.233324 255 255 0 57 10
-0.226914 0.292232 0.265324 255 255 0 57 10
-0.297111 0.288907 0.251324 255 255 0 57 10
-0.245979 0.274041 0.195324 255 255 0 57 10
-0.247287 0.283465 0.205324 255 255 0 57 10
-0.286574 0.272243 0.225324 255 255 0 57 10
-0.217853 0.269691 0.265722 255 255 0 57 10
-0.276452 0.266907 0.237324 255 255 0 57 10
-0.296322 0.304579 0.255324 255 255 0 57 10
-0.273284 0.336349 0.261324 255 255 0 57 10
-0.257741 0.317825 0.248358 255 255 0 57 10
-0.249752 0.272091 0.257324 255 255 0 57 10
-0.208521 0.265035 0.233324 255 255 0 57 10
-0.236352 0.270380 0.217324 255 255 0 57 10
-0.256635 0.267570 0.249324 255 255 0 57 10
-0.244146 0.320675 0.269324 255 255 0 57 10
-0.298698 0.309095 0.275324 255 255 0 57 10
-0.219316 0.271055 0.224380 255 255 0 57 10
-0.278139 0.273950 0.197324 255 255 0 57 10
-0.205932 0.261309 0.259324 255 255 0 57 10
-0.252000 0.335712 0.255324 255 255 0 57 10
-0.306121 0.305513 0.261324 255 255 0 57 10
-0.264911 0.340919 0.271324 255 255 0 57 10
-0.230048 0.294736 0.248155 255 255 0 57 10
-0.290100 0.312450 0.248333 255 255 0 57 10
-0.277883 0.257303 0.255324 255 255 0 57 10
-0.285012 0.266686 0.251324 255 255 0 57 10
-0.248243 0.265213 0.231324 255 255 0 57 10
-0.261949 0.336773 0.249324 255 255 0 57 10
-0.232480 0.283330 0.214220 255 255 0 57 10
-0.242946 0.279417 0.251324 255 255 0 57 10
-0.234561 0.322155 0.253324 255 255 0 57 10
-0.245438 0.270802 0.271324 255 255 0 57 10
-0.283105 0.334613 0.265324 255 255 0 57 10
-0.291852 0.300410 0.203324 255 255 0 57 10
-0.241608 0.283639 0.237324 255 255 0 57 10
-0.240555 0.330389 0.273324 255 255 0 57 10
-0.261222 0.325822 0.255324 255 255 0 57 10
-0.295847 0.291625 0.235324 255 255 0 57 10
-0.229456 0.277776 0.262499 255 255 0 57 10
-0.281095 0.263455 0.229324 255 255 0 57 10
-0.228778 0.318163 0.271324 255 255 0 57 10
-0.269047 0.257267 0.247324 255 255 0 57 10
-0.238414 0.313477 0.249324 255 255 0 57 10
-0.263969 0.273023 0.201324 255 255 0 57 10
-0.236276 0.270462 0.256263 255 255 0 57 10
-0.295974 0.300287 0.219324 255 255 0 57 10
-0.248788 0.284865 0.195324 255 255 0 57 10
-0.284527 0.274438 0.188437 255 255 0 57 10
-0.300921 0.318441 0.259324 255 255 0 57 10
-0.233388 0.302885 0.269324 255 255 0 57 10
-0.260778 0.263230 0.271324 255 255 0 57 10
-0.296728 0.307693 0.265324 255 255 0 57 10
-0.272736 0.263442 0.213324 255 255 0 57 10
-0.242324 0.281571 0.188802 255 255 0 57 10
-0.293106 0.276968 0.268508 255 255 0 57 10
-0.253930 0.270517 0.237324 255 255 0 57 10
-0.251893 0.324097 0.257324 255 255 0 57 10
-0.301122 0.318226 0.275324 255 255 0 57 10
-0.251774 0.268506 0.200248 255 255 0 57 10
-0.247897 0.319584 0.248434 255 255 0 57 10
-0.231054 0.302455 0.235324 255 255 0 57 10
-0.253236 0.269870 0.190993 255 255 0 57 10
-0.290280 0.277067 0.206294 255 255 0 57 10
-0.238133 0.283133 0.206928 255 255 0 57 10
-0.248337 0.259832 0.259324 255 255 0 57 10
-0.262248 0.260206 0.227324 255 255 0 57 10
-0.274194 0.324964 0.255324 255 255 0 57 10
-0.287213 0.320696 0.267324 255 255 0 57 10
-0.233449 0.284234 0.233324 255 255 0 57 10
-0.259698 0.273161 0.209324 255 255 0 57 10
-0.296246 0.326386 0.272303 255 255 0 57 10
-0.300808 0.280439 0.265324 255 255 0 57 10
-0.298669 0.279800 0.249324 255 255 0 57 10
-0.302852 0.280587 0.275324 255 255 0 57 10
-0.245687 0.279238 0.223324 255 255 0 57 10
-0.259366 0.264647 0.257324 255 255 0 57 10
-0.307226 0.297017 0.265324 255 255 0 57 10
-0.278983 0.312641 0.253324 255 255 0 57 10
-0.263951 0.263453 0.213324 255 255 0 57 10
-0.267903 0.265873 0.191324 255 255 0 57 10
-0.217655 0.264037 0.236216 255 255 0 57 10
-0.264050 0.255341 0.258629 255 255 0 57 10
-0.270413 0.254384 0.275324 255 255 0 57 10
-0.238998 0.292143 0.193324 255 255 0 57 10
-0.299747 0.305038 0.246762 255 255 0 57 10
-0.296267 0.285310 0.229324 255 255 0 57 10
-0.237590 0.327704 0.259324 255 255 0 57 10
-0.266518 0.326009 0.248427 255 255 0 57 10
-0.263694 0.258655 0.239324 255 255 0 57 10
-0.249778 0.261848 0.247324 255 255 0 57 10
-0.265710 0.262359 0.264275 255 255 0 57 10
-0.241938 0.290784 0.219324 255 255 0 57 10
-0.229316 0.285849 0.259324 255 255 0 57 10
-0.264143 0.264039 0.203324 255 255 0 57 10
-0.290692 0.308884 0.205324 255 255 0 57 10
-0.298419 0.295596 0.261324 255 255 0 57 10
-0.273727 0.268424 0.229324 255 255 0 57 10
-0.238000 0.272070 0.247324 255 255 0 57 10
-0.283576 0.328244 0.248377 255 255 0 57 10
-0.236572 0.278942 0.220313 255 255 0 57 10
-0.296382 0.270523 0.255324 255 255 0 57 10
-0.285539 0.319136 0.255324 255 255 0 57 10
-0.201557 0.266638 0.253324 255 255 0 57 10
-0.255371 0.271861 0.225324 255 255 0 57 10
-0.234404 0.271452 0.267324 255 255 0 57 10
-0.289900 0.328671 0.257324 255 255 0 57 10
-0.227517 0.303315 0.275883 255 255 0 57 10
-0.283802 0.272283 0.217324 255 255 0 57 10
-0.285596 0.264495 0.242882 255 255 0 57 10
-0.221123 0.263251 0.261324 255 255 0 57 10
-0.287767 0.326682 0.275753 255 255 0 57 10
-0.205640 0.258302 0.243324 255 255 0 57 10
-0.231629 0.319434 0.261324 255 255 0 57 10
-0.305104 0.296361 0.275431 255 255 0 57 10
-0.237263 0.298729 0.205445 255 255 0 57 10
-0.251035 0.266366 0.213324 255 255 0 57 10
-0.256772 0.330595 0.275534 255 255 0 57 10
-0.236758 0.290473 0.203324 255 255 0 57 10
-0.260754 0.257738 0.247324 255 255 0 57 10
-0.210622 0.265682 0.265324 255 255 0 57 10
-0.250129 0.258768 0.267324 255 255 0 57 10
-0.252787 0.277655 0.207324 255 255 0 57 10
-0.298124 0.319933 0.251324 255 255 0 57 10
-0.274980 0.264149 0.251324 255 255 0 57 10
-0.263361 0.311798 0.253324 255 255 0 57 10
-0.237316 0.310403 0.257324 255 255 0 57 10
-0.247840 0.334308 0.273324 255 255 0 57 10
-0.242786 0.276534 0.203324 255 255 0 57 10
-0.269641 0.272806 0.195324 255 255 0 57 10
-0.230054 0.275598 0.273324 255 255 0 57 10
-0.293132 0.315063 0.267324 255 255 0 57 10
-0.276644 0.271161 0.213324 255 255 0 57 10
-0.285097 0.259164 0.267324 255 255 0 57 10
-0.266912 0.337316 0.256341 255 255 0 57 10
-0.239515 0.322707 0.275749 255 255 0 57 10
-0.241800 0.270144 0.231324 255 255 0 57 10
-0.240048 0.263041 0.273324 255 255 0 57 10
-0.243213 0.307012 0.196284 255 255 0 57 10
-0.238648 0.278144 0.271324 255 255 0 57 10
-0.253501 0.337035 0.265324 255 255 0 57 10
-0.275751 0.266253 0.206153 255 255 0 57 10
-0.271659 0.259703 0.239324 255 255 0 57 10
-0.235954 0.283834 0.263324 255 255 0 57 10
-0.235019 0.292338 0.223324 255 255 0 57 10
-0.235090 0.298126 0.253324 255 255 0 57 10
-0.301882 0.285153 0.256622 255 255 0 57 10
-0.213564 0.268425 0.258431 255 255 0 57 10
-0.296821 0.302309 0.236341 255 255 0 57 10
-0.211260 0.266276 0.241324 255 255 0 57 10
-0.274190 0.262063 0.224636 255 255 0 57 10
-0.265096 0.254219 0.269324 255 255 0 57 10
-0.304715 0.305575 0.253324 255 255 0 57 10
-0.225721 0.299376 0.269324 255 255 0 57 10
-0.213906 0.259260 0.247324 255 255 0 57 10
-0.209990 0.266393 0.251324 255 255 0 57 10
-0.254482 0.262828 0.227324 255 255 0 57 10
-0.236472 0.293712 0.231324 255 255 0 57 10
-0.226642 0.286659 0.275324 255 255 0 57 10
-0.272746 0.328128 0.269324 255 255 0 57 10
-0.234162 0.290325 0.267324 255 255 0 57 10
-0.211707 0.255755 0.257751 255 255 0 57 10
-0.296229 0.267755 0.269324 255 255 0 57 10
-0.227734 0.294285 0.257324 255 255 0 57 10
-0.295063 0.292466 0.216980 255 255 0 57 10
-0.242886 0.273892 0.215324 255 255 0 57 10
-0.231589 0.285235 0.241324 255 255 0 57 10
-0.248900 0.312644 0.253324 255 255 0 57 10
-0.273472 0.333215 0.275324 255 255 0 57 10
-0.233402 0.297004 0.263324 255 255 0 57 10
-0.290040 0.331536 0.265324 255 255 0 57 10
-0.245385 0.270753 0.263324 255 255 0 57 10
-0.294521 0.300164 0.211324 255 255 0 57 10
-0.226432 0.272221 0.258417 255 255 0 57 10
-0.254304 0.259927 0.274496 255 255 0 57 10
-0.303885 0.303532 0.277324 255 255 0 57 10
-0.245617 0.276438 0.239324 255 255 0 57 10
-0.300443 0.292014 0.269324 255 255 0 57 10
-0.236925 0.298414 0.197324 255 255 0 57 10
-0.266482 0.265814 0.235324 255 255 0 57 10
-0.259515 0.267521 0.241324 255 255 0 57 10
-0.284770 0.271245 0.199324 255 255 0 57 10
-0.241700 0.289194 0.209324 255 255 0 57 10
-0.215026 0.269789 0.232331 255 255 0 57 10
-0.248304 0.263430 0.239324 255 255 0 57 10
-0.231610 0.298927 0.242220 255 255 0 57 10
-0.228610 0.313874 0.265324 255 255 0 57 10
-0.261929 0.327997 0.269324 255 255 0 57 10
-0.273122 0.272006 0.202339 255 255 0 57 10
-0.233031 0.305292 0.254190 255 255 0 57 10
-0.270568 0.255950 0.255324 255 255 0 57 10
-0.224695 0.282882 0.219324 255 255 0 57 10
-0.277726 0.262625 0.271324 255 255 0 57 10
-0.242324 0.281571 0.244302 255 255 0 57 10
-0.284111 0.260376 0.259324 255 255 0 57 10
-0.205898 0.270781 0.239324 255 255 0 57 10
-0.299749 0.290373 0.243324 255 255 0 57 10
-0.236097 0.305845 0.240378 255 255 0 57 10
-0.247702 0.322726 0.263324 255 255 0 57 10
-0.274780 0.268083 0.193324 255 255 0 57 10
-0.300954 0.294946 0.249324 255 255 0 57 10
-0.228900 0.310630 0.275324 255 255 0 57 10
-0.298981 0.276978 0.257324 255 255 0 57 10
-0.231544 0.287267 0.249324 255 255 0 57 10
-0.273436 0.321522 0.248381 255 255 0 57 10
-0.262423 0.270232 0.215324 255 255 0 57 10
-0.299586 0.321296 0.267324 255 255 0 57 10
-0.288934 0.319566 0.248350 255 255 0 57 10
-0.289432 0.272111 0.241324 255 255 0 57 10
-0.241219 0.317948 0.263324 255 255 0 57 10
-0.266342 0.261681 0.221324 255 255 0 57 10
-0.267599 0.337956 0.265324 255 255 0 57 10
-0.305597 0.310494 0.274184 255 255 0 57 10
-0.244994 0.297735 0.187324 255 255 0 57 10
-0.233647 0.276214 0.214365 255 255 0 57 10
-0.223770 0.264269 0.229324 255 255 0 57 10
-0.282410 0.335360 0.272305 255 255 0 57 10
-0.279397 0.269654 0.225324 255 255 0 57 10
-0.272087 0.262837 0.261324 255 255 0 57 10
-0.298439 0.297642 0.231324 255 255 0 57 10
-0.292341 0.276254 0.225324 255 255 0 57 10
-0.226432 0.272221 0.266244 255 255 0 57 10
-0.249104 0.332953 0.249324 255 255 0 57 10
-0.291267 0.305334 0.250812 255 255 0 57 10
-0.280351 0.261321 0.237324 255 255 0 57 10
-0.290716 0.267802 0.265324 255 255 0 57 10
-0.235505 0.283417 0.225324 255 255 0 57 10
-0.276190 0.255723 0.271324 255 255 0 57 10
-0.274289 0.264889 0.244319 255 255 0 57 10
-0.276756 0.335557 0.254331 255 255 0 57 10
-0.240019 0.273953 0.223324 255 255 0 57 10
-0.247011 0.273614 0.251324 255 255 0 57 10
-0.296772 0.287699 0.261324 255 255 0 57 10
-0.252875 0.279055 0.193324 255 255 0 57 10
-0.219977 0.270345 0.259324 255 255 0 57 10
-0.263745 0.264465 0.249324 255 255 0 57 10
-0.241787 0.322091 0.251324 255 255 0 57 10
-0.228555 0.308068 0.261324 255 255 0 57 10
-0.231511 0.296100 0.270328 255 255 0 57 10
-0.303873 0.285950 0.269324 255 255 0 57 10
-0.277944 0.257359 0.263324 255 255 0 57 10
-0.251675 0.265679 0.272280 255 255 0 57 10
-0.237690 0.290923 0.239324 255 255 0 57 10
-0.249899 0.277696 0.213324 255 255 0 57 10
-0.242957 0.282161 0.229324 255 255 0 57 10
-0.295354 0.322819 0.257324 255 255 0 57 10
-0.303446 0.311222 0.259324 255 255 0 57 10
-0.257979 0.260620 0.233324 255 255 0 57 10
-0.260870 0.268785 0.223324 255 255 0 57 10
-0.269400 0.264266 0.207324 255 255 0 57 10
-0.281730 0.260891 0.251324 255 255 0 57 10
-0.211650 0.274844 0.261324 255 255 0 57 10
-0.227653 0.285575 0.267324 255 255 0 57 10
-0.235117 0.288525 0.217324 255 255 0 57 10
-0.276164 0.318597 0.253706 255 255 0 57 10
-0.296358 0.310082 0.249324 255 255 0 57 10
-0.282633 0.267202 0.213324 255 255 0 57 10
-0.261571 0.335069 0.275324 255 255 0 57 10
-0.203985 0.259493 0.253324 255 255 0 57 10
-0.229160 0.269296 0.218659 255 255 0 57 10
-0.244280 0.297069 0.194322 255 255 0 57 10
-0.246162 0.290621 0.197324 255 255 0 57 10
-0.253668 0.319261 0.253324 255 255 0 57 10
-0.238509 0.316299 0.269324 255 255 0 57 10
-0.237361 0.285148 0.251324 255 255 0 57 10
-0.237991 0.274488 0.235324 255 255 0 57 10
-0.286076 0.311432 0.253324 255 255 0 57 10
-0.234529 0.309853 0.271324 255 255 0 57 10
-0.291249 0.264297 0.277386 255 255 0 57 10
-0.240531 0.277630 0.209324 255 255 0 57 10
-0.213072 0.259762 0.233324 255 255 0 57 10
-0.268931 0.273567 0.188348 255 255 0 57 10
-0.300811 0.275950 0.271324 255 255 0 57 10
-0.246159 0.331637 0.255324 255 255 0 57 10
-0.246697 0.276882 0.189324 255 255 0 57 10
-0.234739 0.310049 0.245324 255 255 0 57 10
-0.235029 0.315788 0.254686 255 255 0 57 10
-0.282346 0.324362 0.269324 255 255 0 57 10
-0.237228 0.279555 0.257324 255 255 0 57 10
-0.301428 0.291505 0.257324 255 255 0 57 10
-0.279529 0.268068 0.201324 255 255 0 57 10
-0.284816 0.321196 0.261324 255 255 0 57 10
-0.251898 0.326050 0.271324 255 255 0 57 10
-0.247666 0.261940 0.253324 255 255 0 57 10
-0.261716 0.269573 0.190778 255 255 0 57 10
-0.234068 0.279342 0.247324 255 255 0 57 10
-0.260129 0.324062 0.249324 255 255 0 57 10
-0.239970 0.265704 0.259324 255 255 0 57 10
-0.214928 0.266963 0.226666 255 255 0 57 10
-0.256887 0.256866 0.259324 255 255 0 57 10
-0.261150 0.274514 0.195324 255 255 0 57 10
-0.302080 0.290806 0.275642 255 255 0 57 10
-0.256260 0.275425 0.188403 255 255 0 57 10
-0.283083 0.314110 0.248393 255 255 0 57 10
-0.276460 0.327077 0.248475 255 255 0 57 10
-0.233307 0.323500 0.273324 255 255 0 57 10
-0.253843 0.267701 0.255324 255 255 0 57 10
-0.259598 0.330496 0.248476 255 255 0 57 10
-0.239067 0.329054 0.265324 255 255 0 57 10
-0.275191 0.269787 0.219324 255 255 0 57 10
-0.248077 0.284201 0.188373 255 255 0 57 10
-0.244219 0.275135 0.257324 255 255 0 57 10
-0.307550 0.306845 0.267324 255 255 0 57 10
-0.294846 0.314141 0.273324 255 255 0 57 10
-0.260567 0.317727 0.253986 255 255 0 57 10
-0.286484 0.273528 0.211324 255 255 0 57 10
-0.280552 0.322689 0.256739 255 255 0 57 10
-0.225096 0.291249 0.271324 255 255 0 57 10
-0.286861 0.260206 0.274642 255 255 0 57 10
-0.235441 0.288953 0.209324 255 255 0 57 10
-0.242278 0.278794 0.197324 255 255 0 57 10
-0.244650 0.289210 0.203324 255 255 0 57 10
-0.256257 0.254901 0.271324 255 255 0 57 10
-0.284939 0.265199 0.265324 255 255 0 57 10
-0.257787 0.265909 0.201324 255 255 0 57 10
-0.223408 0.266667 0.266171 255 255 0 57 10
-0.246798 0.272071 0.201324 255 255 0 57 10
-0.251283 0.268048 0.207324 255 255 0 57 10
-0.243095 0.285024 0.221324 255 255 0 57 10
-0.290657 0.269215 0.253324 255 255 0 57 10
-0.260190 0.326928 0.261324 255 255 0 57 10
-0.250607 0.275623 0.222319 255 255 0 57 10
-0.266616 0.268673 0.227324 255 255 0 57 10
-0.253236 0.269870 0.244296 255 255 0 57 10
-0.269544 0.269978 0.215324 255 255 0 57 10
-0.272063 0.261411 0.267324 255 255 0 57 10
-0.283163 0.275900 0.194270 255 255 0 57 10
-0.260601 0.338219 0.267324 255 255 0 57 10
-0.294545 0.297452 0.225324 255 255 0 57 10
-0.255507 0.334885 0.250324 255 255 0 57 10
-0.285316 0.267727 0.221324 255 255 0 57 10
-0.259120 0.336874 0.255324 255 255 0 57 10
-0.259397 0.263263 0.265324 255 255 0 57 10
-0.234016 0.303906 0.261324 255 255 0 57 10
-0.254039 0.271942 0.231324 255 255 0 57 10
-0.277829 0.264026 0.257324 255 255 0 57 10
-0.294340 0.291793 0.229324 255 255 0 57 10
-0.265611 0.259532 0.274105 255 255 0 57 10
-0.294047 0.280580 0.253324 255 255 0 57 10
-0.246730 0.326701 0.248340 255 255 0 57 10
-0.251082 0.265126 0.219324 255 255 0 57 10
-0.235011 0.274752 0.251931 255 255 0 57 10
-0.294470 0.275505 0.262572 255 255 0 57 10
-0.282224 0.268111 0.239324 255 255 0 57 10
-0.268661 0.326643 0.257324 255 255 0 57 10
-0.241987 0.294931 0.207324 255 255 0 57 10
-0.305903 0.301369 0.269324 255 255 0 57 10
-0.243195 0.265975 0.245118 255 255 0 57 10
-0.242201 0.300598 0.199324 255 255 0 57 10
-0.290082 0.271414 0.230167 255 255 0 57 10
-0.210001 0.254650 0.245324 255 255 0 57 10
-0.280755 0.268185 0.233324 255 255 0 57 10
-0.295834 0.274043 0.242345 255 255 0 57 10
-0.297966 0.303377 0.261324 255 255 0 57 10
-0.265512 0.256705 0.252160 255 255 0 57 10
-0.273892 0.326898 0.263324 255 255 0 57 10
-0.238151 0.272211 0.241324 255 255 0 57 10
-0.247342 0.283517 0.211324 255 255 0 57 10
-0.285439 0.267595 0.229324 255 255 0 57 10
-0.240382 0.287964 0.233324 255 255 0 57 10
-0.250056 0.280578 0.199324 255 255 0 57 10
-0.280639 0.265342 0.247324 255 255 0 57 10
-0.246021 0.265877 0.274660 255 255 0 57 10
-0.278133 0.272497 0.207324 255 255 0 57 10
-0.268275 0.335853 0.274128 255 255 0 57 10
-0.226863 0.304017 0.265324 255 255 0 57 10
-0.223605 0.272320 0.220478 255 255 0 57 10
-0.298990 0.298863 0.253324 255 255 0 57 10
-0.307008 0.292667 0.269324 255 255 0 57 10
-0.280298 0.270176 0.193324 255 255 0 57 10
-0.293280 0.270916 0.235324 255 255 0 57 10
-0.295669 0.284828 0.247324 255 255 0 57 10
-0.298164 0.286208 0.235324 255 255 0 57 10
-0.270827 0.265669 0.239324 255 255 0 57 10
-0.230112 0.300532 0.251324 255 255 0 57 10
-0.207224 0.262513 0.239324 255 255 0 57 10
-0.512485 0.197139 0.204463 0 0 255 46 11
-0.364999 0.369961 0.189324 0 0 255 46 11
-0.502652 0.341109 0.227324 0 0 255 46 11
-0.379961 0.232167 0.189324 0 0 255 46 11
-0.407260 0.304114 0.269203 0 0 255 46 11
-0.476545 0.262072 0.244260 0 0 255 46 11
-0.436572 0.172836 0.189324 0 0 255 46 11
-0.529382 0.275793 0.184292 0 0 255 46 11
-0.347813 0.297902 0.217324 0 0 255 46 11
-0.400180 0.364492 0.245324 0 0 255 46 11
-0.414516 0.242514 0.243324 0 0 255 46 11
-0.562289 0.225842 0.187324 0 0 255 46 11
-0.453869 0.342108 0.261726 0 0 255 46 11
-0.454111 0.227478 0.202413 0 0 255 46 11
-0.519755 0.324241 0.184408 0 0 255 46 11
-0.376856 0.273026 0.247324 0 0 255 46 11
-0.509189 0.292511 0.225324 0 0 255 46 11
-0.501394 0.244224 0.207570 0 0 255 46 11
-0.361329 0.341639 0.229324 0 0 255 46 11
-0.453654 0.295418 0.268078 0 0 255 46 11
-0.478926 0.165678 0.205324 0 0 255 46 11
-0.351552 0.267079 0.185324 0 0 255 46 11
-0.343053 0.331749 0.189324 0 0 255 46 11
-0.418235 0.213165 0.184463 0 0 255 46 11
-0.486803 0.312656 0.252350 0 0 255 46 11
-0.373144 0.311373 0.251324 0 0 255 46 11
-0.366567 0.252493 0.217324 0 0 255 46 11
-0.424498 0.270965 0.264053 0 0 255 46 11
-0.418387 0.339102 0.264572 0 0 255 46 11
-0.449091 0.239205 0.237324 0 0 255 46 11
-0.478762 0.203977 0.210663 0 0 255 46 11
-0.408419 0.235422 0.209324 0 0 255 46 11
-0.531191 0.228254 0.201324 0 0 255 46 11
-0.379028 0.368030 0.221324 0 0 255 46 11
-0.479110 0.353163 0.245324 0 0 255 46 11
-0.343413 0.299267 0.186369 0 0 255 46 11
-0.471185 0.250226 0.215324 0 0 255 46 11
-0.450170 0.196457 0.203324 0 0 255 46 11
-0.389426 0.337901 0.255324 0 0 255 46 11
-0.504585 0.274545 0.201324 0 0 255 46 11
-0.456861 0.150737 0.193324 0 0 255 46 11
-0.542628 0.249858 0.184331 0 0 255 46 11
-0.447713 0.266598 0.247324 0 0 255 46 11
-0.514751 0.317876 0.213324 0 0 255 46 11
-0.437484 0.318624 0.271236 0 0 255 46 11
-0.389493 0.241056 0.229572 0 0 255 46 11
-0.473244 0.289073 0.248353 0 0 255 46 11
-0.497894 0.265571 0.226394 0 0 255 46 11
-0.548082 0.205721 0.199324 0 0 255 46 11
-0.516821 0.298062 0.193324 0 0 255 46 11
-0.430831 0.226051 0.221324 0 0 255 46 11
-0.403151 0.267465 0.246326 0 0 255 46 11
-0.359700 0.276171 0.227324 0 0 255 46 11
-0.354937 0.351427 0.205324 0 0 255 46 11
-0.347127 0.324609 0.214320 0 0 255 46 11
-0.433922 0.359057 0.257324 0 0 255 46 11
-0.464039 0.318775 0.265324 0 0 255 46 11
-0.500505 0.218783 0.210526 0 0 255 46 11
-0.391269 0.291936 0.254356 0 0 255 46 11
-0.520113 0.253475 0.194411 0 0 255 46 11
-0.460815 0.176301 0.192347 0 0 255 46 11
-0.429577 0.294844 0.264376 0 0 255 46 11
-0.503861 0.314891 0.234842 0 0 255 46 11
-0.479650 0.229417 0.204338 0 0 255 46 11
-0.430837 0.228977 0.197324 0 0 255 46 11
-0.358219 0.315648 0.233324 0 0 255 46 11
-0.369408 0.253796 0.193324 0 0 255 46 11
-0.403330 0.232082 0.186340 0 0 255 46 11
-0.493641 0.185036 0.211324 0 0 255 46 11
-0.513230 0.340035 0.206382 0 0 255 46 11
-0.434603 0.195612 0.186383 0 0 255 46 11
-0.494296 0.284094 0.240626 0 0 255 46 11
-0.348517 0.276681 0.207324 0 0 255 46 11
-0.386130 0.246125 0.207324 0 0 255 46 11
-0.367989 0.294840 0.237324 0 0 255 46 11
-0.489709 0.333000 0.243324 0 0 255 46 11
-0.433782 0.249540 0.251324 0 0 255 46 11
-0.382418 0.261806 0.229324 0 0 255 46 11
-0.390695 0.316012 0.262479 0 0 255 46 11
-0.473749 0.336034 0.257324 0 0 255 46 11
-0.406401 0.281575 0.265324 0 0 255 46 11
-0.460201 0.276666 0.261324 0 0 255 46 11
-0.371500 0.333663 0.245867 0 0 255 46 11
-0.460752 0.255548 0.232356 0 0 255 46 11
-0.460024 0.232868 0.221324 0 0 255 46 11
-0.471677 0.185180 0.207324 0 0 255 46 11
-0.429954 0.244587 0.229324 0 0 255 46 11
-0.528476 0.209316 0.206259 0 0 255 46 11
-0.440848 0.212375 0.194339 0 0 255 46 11
-0.491366 0.260841 0.207324 0 0 255 46 11
-0.352207 0.348488 0.186510 0 0 255 46 11
-0.404648 0.350902 0.258263 0 0 255 46 11
-0.413174 0.230323 0.227399 0 0 255 46 11
-0.418409 0.319980 0.265324 0 0 255 46 11
