ply
format ascii 1.0
element vertex 1130
property float x
property float y
property float z
property uchar red
property uchar green
property uchar blue
property uchar semantic_label
property uchar instance_label
end_header
-0.503229 0.354682 -0.257125 68 46 35 7 3
-0.471156 0.360460 -0.408000 107 92 59 7 3
-0.485583 0.356095 -0.396187 113 92 79 7 3
-0.261835 0.164888 -0.562579 36 35 27 2 1
-0.514184 0.218775 -0.332455 110 89 66 1 2
-0.510848 0.201325 -0.351743 116 98 69 1 2
-0.512876 0.214133 -0.354445 118 100 71 1 2
-0.510626 0.197162 -0.335081 107 90 69 1 2
-0.514649 0.210887 -0.334429 111 94 68 1 2
-0.511951 0.218986 -0.318744 103 89 61 1 2
-0.496169 0.054227 -0.351400 114 95 72 1 2
-0.496865 0.052632 -0.319839 103 87 68 1 2
-0.491410 0.034114 -0.364476 130 99 71 1 2
-0.489324 0.114572 -0.199744 92 77 46 1 2
-0.490293 0.127804 -0.198919 91 71 56 1 2
-0.493959 0.123619 -0.206428 97 75 56 1 2
-0.377577 0.216857 -0.565955 37 26 20 2 1
-0.391166 0.239198 -0.566735 35 25 18 2 1
-0.541732 0.247374 -0.207384 90 73 55 0 0
-0.535232 0.264875 -0.205722 89 72 52 0 0
-0.535818 0.247678 -0.204123 86 72 54 0 0
-0.527123 0.285193 -0.199846 86 72 52 0 0
-0.533070 0.274797 -0.202762 86 72 52 0 0
-0.526102 0.264128 -0.202945 88 72 50 0 0
-0.547532 0.245318 -0.225768 88 76 52 0 0
-0.542005 0.276181 -0.223309 84 74 47 0 0
-0.546157 0.262868 -0.209223 88 75 45 0 0
-0.553190 0.266847 -0.215373 87 71 51 0 0
-0.549750 0.269365 -0.219813 87 73 45 0 0
-0.546477 0.271986 -0.209983 90 72 54 0 0
-0.426353 0.404336 -0.158556 63 41 27 0 0
-0.407093 0.400161 -0.154871 62 43 38 7 3
-0.415542 0.389709 -0.159668 65 44 22 7 3
-0.414189 0.396862 -0.155852 63 43 38 0 0
-0.516370 0.275334 -0.271893 90 72 50 1 2
-0.516726 0.269405 -0.284367 94 79 57 1 2
-0.505196 0.487319 -0.255768 80 58 46 0 0
-0.525024 0.474344 -0.232417 77 63 45 0 0
-0.519830 0.480849 -0.241558 71 56 37 0 0
-0.532052 0.472116 -0.225247 78 56 36 0 0
-0.538122 0.464279 -0.264779 71 59 36 0 0
-0.524872 0.473976 -0.252390 71 59 36 0 0
-0.519707 0.460066 -0.480023 45 30 26 1 6
-0.513637 0.465333 -0.477670 37 29 21 1 6
-0.504234 0.468999 -0.472664 36 28 19 1 6
-0.526541 0.461174 -0.470576 41 34 23 1 6
-0.452038 0.493061 -0.415000 91 75 59 1 6
-0.471640 0.489715 -0.400750 94 77 59 1 6
-0.506103 0.138791 -0.436510 117 96 76 1 2
-0.503986 0.153991 -0.455910 108 91 62 1 2
-0.508132 0.153202 -0.423665 115 98 70 1 2
-0.551572 0.465177 -0.317830 73 58 36 0 0
-0.563663 0.461051 -0.289139 80 66 56 0 0
-0.562174 0.465601 -0.315449 77 69 56 0 0
-0.536529 0.463651 -0.306140 73 57 42 0 0
-0.554175 0.465696 -0.292537 73 56 41 0 0
-0.380886 0.260029 -0.568554 33 25 20 2 1
-0.414999 0.262190 -0.570388 29 30 15 2 1
-0.478914 0.010390 -0.402288 128 99 56 1 2
-0.477970 0.010728 -0.386854 118 89 49 1 2
-0.439718 0.424264 -0.496833 44 34 13 0 0
-0.433060 0.424469 -0.491497 57 44 19 0 0
-0.332343 0.020767 -0.570501 56 49 33 2 1
-0.358728 0.026369 -0.566067 50 43 32 2 1
-0.354894 0.019136 -0.567343 55 44 32 2 1
-0.337145 0.034159 -0.563200 66 45 28 2 1
-0.519511 0.420945 -0.301547 71 62 44 0 0
-0.493395 0.408663 -0.274784 71 59 41 0 0
-0.498363 0.410726 -0.258780 71 57 42 0 0
-0.517260 0.419806 -0.255544 71 56 44 0 0
-0.540921 0.230225 -0.227328 89 68 50 0 0
-0.535794 0.233109 -0.202289 89 71 51 0 0
-0.526767 0.249904 -0.200769 92 75 47 0 0
-0.517151 0.233250 -0.220110 83 65 54 1 2
-0.518088 0.250344 -0.225041 86 72 60 1 2
-0.510273 0.241735 -0.202781 90 74 55 1 2
-0.520941 0.246270 -0.197686 88 71 55 0 0
-0.509006 0.488081 -0.238396 80 61 40 0 0
-0.495226 0.492801 -0.234375 82 65 38 1 6
-0.509829 0.191472 -0.242898 94 77 64 1 2
-0.510262 0.175200 -0.244646 91 79 61 1 2
-0.508931 0.155003 -0.245381 90 82 52 1 2
-0.509437 0.181393 -0.241911 95 75 57 1 2
-0.511802 0.179541 -0.226967 91 74 59 1 2
-0.511160 0.164544 -0.234181 94 75 62 1 2
-0.361755 0.299517 -0.572246 36 33 24 2 1
-0.364773 0.313525 -0.574419 35 32 20 2 1
-0.347607 0.311919 -0.572572 33 33 23 2 1
-0.338332 0.328434 -0.575046 35 29 18 2 1
-0.365343 0.320768 -0.578201 35 30 20 2 1
-0.370101 0.328284 -0.580145 35 29 22 2 1
-0.328119 0.308271 -0.571806 33 30 23 2 1
-0.507144 0.209943 -0.454725 78 60 41 1 2
-0.505009 0.198202 -0.473214 58 44 27 1 2
-0.508070 0.218922 -0.479563 57 42 28 1 2
-0.496944 0.056343 -0.410935 130 108 74 1 2
-0.493025 0.036756 -0.391823 128 112 75 1 2
-0.493724 0.036754 -0.413656 129 99 71 1 2
-0.492988 0.046113 -0.418653 124 98 74 1 2
-0.233902 0.093009 -0.562597 42 34 28 2 1
-0.520694 0.257581 -0.406631 117 98 74 1 2
-0.522277 0.265750 -0.401330 112 102 69 1 2
-0.521655 0.300524 -0.400976 114 99 72 1 2
-0.522394 0.294168 -0.418519 119 101 69 1 2
-0.521617 0.275918 -0.397408 124 100 71 1 2
-0.521960 0.256096 -0.418226 117 96 73 1 2
-0.440103 0.395715 -0.307041 76 54 30 0 0
-0.418640 0.410050 -0.315091 81 56 26 7 3
-0.436967 0.403159 -0.316132 71 52 32 0 0
-0.430368 0.409613 -0.319499 72 54 29 7 3
-0.428321 0.411030 -0.294402 74 53 27 7 3
-0.440204 0.410841 -0.290309 74 55 30 0 0
-0.440183 0.405645 -0.294155 74 52 28 0 0
-0.522218 0.319109 -0.380584 119 97 76 1 2
-0.518741 0.316806 -0.371519 121 100 69 1 2
-0.516871 0.302722 -0.370385 122 97 69 1 2
-0.485675 0.151205 -0.557166 65 51 34 1 2
-0.480202 0.142456 -0.559404 68 55 36 2 1
-0.490192 0.150415 -0.551784 78 59 44 1 2
-0.556222 0.450599 -0.414225 77 72 58 0 0
-0.553092 0.461055 -0.411826 81 67 54 0 0
-0.545205 0.462711 -0.408396 81 68 40 0 0
-0.532683 0.463530 -0.404931 78 63 38 0 0
-0.560446 0.456540 -0.386280 84 67 55 0 0
-0.557173 0.461124 -0.398801 78 67 61 0 0
-0.560636 0.449181 -0.409593 79 69 55 0 0
-0.458936 0.096728 -0.562709 47 42 32 1 2
-0.440360 0.098420 -0.565359 48 42 28 2 1
-0.452335 0.078730 -0.560636 42 38 24 1 2
-0.443642 0.126430 -0.565562 47 42 30 2 1
-0.578097 0.311990 -0.242476 103 79 53 0 0
-0.582659 0.309914 -0.232310 88 71 52 0 0
-0.585348 0.316733 -0.225205 90 71 49 0 0
-0.509078 0.197153 -0.451394 118 95 71 1 2
-0.504800 0.161683 -0.445745 121 96 70 1 2
-0.513265 0.200020 -0.441029 120 96 75 1 2
-0.507742 0.176161 -0.439199 119 95 73 1 2
-0.509353 0.175825 -0.424551 118 98 75 1 2
-0.514378 0.198187 -0.421095 114 98 69 1 2
-0.423204 0.073380 -0.563526 47 45 25 2 1
-0.431316 0.066520 -0.563228 50 37 28 2 1
-0.492843 0.045097 -0.363742 129 107 82 1 2
-0.493403 0.043219 -0.379888 129 103 69 1 2
-0.493192 0.031452 -0.382466 133 102 79 1 2
-0.496533 0.059032 -0.369555 124 106 78 1 2
-0.497352 0.058716 -0.386647 127 113 81 1 2
-0.507886 0.140842 -0.319117 100 86 62 1 2
-0.507666 0.145495 -0.335151 100 86 62 1 2
-0.508981 0.123383 -0.343352 112 92 62 1 2
-0.509186 0.138175 -0.342853 110 92 66 1 2
-0.507757 0.129802 -0.325401 100 86 64 1 2
-0.505269 0.132671 -0.362493 114 98 71 1 2
-0.476102 0.024643 -0.189159 109 81 57 1 2
-0.485657 0.187501 -0.559165 63 46 31 1 2
-0.486543 0.208126 -0.555639 55 37 31 1 2
-0.469454 0.195255 -0.563070 42 35 28 2 1
-0.474313 0.178817 -0.562658 49 34 28 2 1
-0.559735 0.201438 -0.253701 108 91 63 0 0
-0.561548 0.179239 -0.251086 100 87 71 0 0
-0.571418 0.190103 -0.233487 101 79 57 0 0
-0.568286 0.166044 -0.239645 106 83 69 0 0
-0.567550 0.179618 -0.243657 113 90 65 0 0
-0.574404 0.172691 -0.231952 108 83 69 0 0
-0.493031 0.357500 -0.269625 80 61 47 7 3
-0.481635 0.361176 -0.271875 84 68 44 7 3
-0.480338 0.403572 -0.236239 69 55 37 0 0
-0.508096 0.331231 -0.515531 51 38 31 1 2
-0.504418 0.340777 -0.481769 48 39 29 7 3
-0.567518 0.152456 -0.245691 101 89 66 0 0
-0.554065 0.148469 -0.254816 99 86 74 0 0
-0.556896 0.170153 -0.254161 101 83 68 0 0
-0.563513 0.162519 -0.250645 98 84 67 0 0
-0.545902 0.146073 -0.253353 94 81 62 0 0
-0.569487 0.150289 -0.235204 108 87 60 0 0
-0.569696 0.130815 -0.231575 103 79 42 0 0
-0.563363 0.139224 -0.243435 106 89 62 0 0
-0.567406 0.142137 -0.235699 103 85 63 0 0
-0.488559 0.349742 -0.471875 58 42 32 7 3
-0.513359 0.343740 -0.448911 73 59 38 7 3
-0.517944 0.335705 -0.461525 52 39 24 1 2
-0.270456 0.258507 -0.564205 36 29 24 2 1
-0.254451 0.248570 -0.561443 37 28 25 2 1
-0.435176 0.374740 -0.202071 65 53 33 7 3
-0.445348 0.390194 -0.196482 64 43 23 0 0
-0.487128 0.020449 -0.459275 121 95 58 1 2
-0.472847 0.013247 -0.449483 125 98 55 1 2
-0.486409 0.023886 -0.444542 124 98 56 1 2
-0.482258 0.015695 -0.445389 125 96 67 1 2
-0.484664 0.014440 -0.418272 130 98 57 1 2
-0.476268 0.012186 -0.422045 128 95 62 1 2
-0.483553 0.017220 -0.434064 126 94 61 1 2
-0.499544 0.482109 -0.376818 85 67 49 0 0
-0.483443 0.487546 -0.376687 86 67 51 0 0
-0.459111 0.505456 -0.191099 71 54 40 1 6
-0.454690 0.509275 -0.171756 58 48 33 1 6
-0.503619 0.232792 -0.191209 90 71 56 1 2
-0.549623 0.297800 -0.241184 81 67 46 0 0
-0.545659 0.285824 -0.238155 87 70 48 0 0
-0.555660 0.275506 -0.254514 64 55 39 0 0
-0.561417 0.285615 -0.245855 83 68 45 0 0
-0.552620 0.280231 -0.244060 76 62 42 0 0
-0.571825 0.288442 -0.243798 91 79 53 0 0
-0.560357 0.296321 -0.248237 85 72 51 0 0
-0.560405 0.310362 -0.249912 80 67 54 0 0
-0.545742 0.286649 -0.228472 83 71 55 0 0
-0.545532 0.316778 -0.231506 84 68 54 0 0
-0.571487 0.201346 -0.245832 93 73 67 0 0
-0.574127 0.215179 -0.243546 90 76 56 0 0
-0.577538 0.200431 -0.231693 106 79 64 0 0
-0.578567 0.237733 -0.231228 100 76 60 0 0
-0.576576 0.215751 -0.229599 105 80 70 0 0
-0.577178 0.212393 -0.238412 98 82 60 0 0
-0.506440 0.295073 -0.189693 82 61 41 1 2
-0.518016 0.302191 -0.355030 101 94 63 1 2
-0.518701 0.312802 -0.351473 101 84 66 1 2
-0.520297 0.302660 -0.330465 90 82 46 1 2
-0.518374 0.317057 -0.341601 96 76 56 1 2
-0.476729 0.353886 -0.470125 55 41 25 7 3
-0.483917 0.354606 -0.452087 52 39 37 7 3
-0.542010 0.104357 -0.220408 86 66 58 0 0
-0.436174 0.323412 -0.569706 39 34 22 2 1
-0.417997 0.324312 -0.572436 42 35 29 2 1
-0.413575 0.310433 -0.570949 36 31 26 2 1
-0.585949 0.279009 -0.229128 81 65 60 0 0
-0.581186 0.270139 -0.232319 91 74 48 0 0
-0.578396 0.281393 -0.238696 85 69 49 0 0
-0.580536 0.299324 -0.237555 83 68 46 0 0
-0.583407 0.287268 -0.226268 85 71 48 0 0
-0.569334 0.228678 -0.219369 68 55 32 0 0
-0.559465 0.226321 -0.217495 98 81 54 0 0
-0.555259 0.217705 -0.218905 90 76 53 0 0
-0.568952 0.220525 -0.224644 99 80 57 0 0
-0.554560 0.228851 -0.215827 87 75 51 0 0
-0.563589 0.204469 -0.218542 94 79 57 0 0
-0.553117 0.232583 -0.222959 85 69 50 0 0
-0.547799 0.243491 -0.212989 84 68 45 0 0
-0.542905 0.232792 -0.209043 88 78 50 0 0
-0.507901 0.143671 -0.302560 91 87 74 1 2
-0.504902 0.130908 -0.301050 103 85 65 1 2
-0.245064 0.143341 -0.563033 37 32 17 2 1
-0.206917 0.136793 -0.562869 36 31 17 2 1
-0.189035 0.158411 -0.562103 31 30 24 2 1
-0.460353 -0.051419 -0.501131 49 41 29 0 0
-0.455640 -0.051953 -0.486341 51 42 27 0 0
-0.522593 -0.049637 -0.538668 44 32 30 1 2
-0.525113 -0.057112 -0.524419 47 39 33 1 2
-0.528380 -0.051659 -0.521974 46 38 26 1 2
-0.491297 0.095881 -0.200735 84 70 54 1 2
-0.492009 0.129923 -0.188585 79 69 45 1 2
-0.490578 0.116159 -0.190133 85 69 41 1 2
-0.486831 0.106032 -0.186795 84 67 51 1 2
-0.412185 0.364831 -0.505562 60 46 29 7 3
-0.392569 0.371079 -0.496597 76 59 32 7 3
-0.409824 0.368942 -0.491198 67 46 28 7 3
-0.406713 0.364789 -0.516153 75 57 33 7 3
-0.523236 0.419187 -0.211663 78 58 50 0 0
-0.526468 0.423861 -0.226656 77 58 41 0 0
-0.416247 0.369953 -0.474053 74 51 23 7 3
-0.417865 0.369421 -0.453283 62 44 25 7 3
-0.507457 0.133983 -0.423930 118 97 68 1 2
-0.511266 0.192558 -0.322977 103 83 65 1 2
-0.508941 0.176874 -0.335593 107 88 68 1 2
-0.509993 0.174025 -0.343027 112 95 74 1 2
-0.507168 0.490560 -0.199641 77 65 44 0 0
-0.510152 0.487976 -0.227129 80 56 39 0 0
-0.512017 0.190284 -0.311225 102 84 65 1 2
-0.509949 0.201241 -0.319955 102 85 55 1 2
-0.511145 0.198847 -0.308532 100 82 73 1 2
-0.513892 0.219273 -0.302765 99 82 60 1 2
-0.509367 0.203175 -0.295771 91 82 57 1 2
-0.554589 0.444054 -0.470455 35 34 24 0 0
-0.561959 0.451862 -0.469377 75 66 51 0 0
-0.556264 0.442099 -0.448729 48 42 35 0 0
-0.539059 0.437784 -0.473704 33 30 26 0 0
-0.541291 0.433126 -0.459788 50 44 35 0 0
-0.492695 0.457193 -0.526591 35 29 26 1 6
-0.555080 0.343436 -0.209214 76 60 39 1 2
-0.549713 0.332192 -0.209532 82 64 44 1 2
-0.523220 0.337045 -0.211156 89 65 46 1 2
-0.523479 0.328665 -0.203075 77 61 32 1 2
-0.523547 0.339495 -0.194969 79 62 49 7 3
-0.532745 0.336550 -0.201139 76 60 40 1 2
-0.544149 0.334183 -0.226488 83 67 45 0 0
-0.539814 0.329645 -0.203735 78 62 40 1 2
-0.518832 0.285829 -0.260843 90 80 52 1 2
-0.517390 0.260090 -0.243343 83 63 47 1 2
-0.524669 0.298732 -0.223419 80 68 47 1 2
-0.520382 0.283057 -0.240396 90 78 56 1 2
-0.519706 0.266190 -0.229211 90 76 57 1 2
-0.522088 0.272888 -0.228598 87 71 55 1 2
-0.464719 -0.063152 -0.575076 27 31 21 1 2
-0.481594 -0.061939 -0.578312 30 31 33 1 2
-0.495278 0.034813 -0.328527 104 87 65 1 2
-0.496076 0.045003 -0.304442 103 85 69 1 2
-0.498894 0.059987 -0.309093 96 84 61 1 2
-0.510239 0.141572 -0.225011 94 77 62 1 2
-0.503920 0.126768 -0.214072 98 76 57 1 2
-0.449473 0.495641 -0.388292 86 73 60 1 6
-0.450420 0.496342 -0.357187 84 66 56 1 6
-0.465929 0.492954 -0.365187 87 70 44 1 6
-0.480921 0.031757 -0.534688 73 55 22 1 2
-0.480360 0.065465 -0.535735 55 40 24 1 2
-0.481094 0.057209 -0.521517 58 39 25 1 2
-0.480739 0.038931 -0.520366 61 39 26 1 2
-0.476590 0.049065 -0.541400 56 42 18 1 2
-0.470320 0.035328 -0.550689 83 56 40 1 2
-0.263022 0.024340 -0.564560 65 42 36 2 1
-0.264678 0.039045 -0.561558 54 33 26 2 1
-0.288474 0.028085 -0.564995 47 35 29 2 1
-0.526825 0.466266 -0.351813 78 58 38 0 0
-0.531351 0.464670 -0.336985 76 58 34 0 0
-0.533188 0.465780 -0.344716 74 59 40 0 0
-0.523514 0.469112 -0.332029 80 60 45 0 0
-0.513598 0.471193 -0.342916 80 61 41 0 0
-0.508035 0.146804 -0.280498 100 81 63 1 2
-0.449984 0.396869 -0.281446 67 48 34 0 0
-0.444007 0.399064 -0.289063 73 51 25 0 0
-0.462916 0.399840 -0.260642 72 58 36 0 0
-0.444855 0.395254 -0.264849 65 48 29 0 0
-0.492410 0.355019 -0.337520 101 81 61 7 3
-0.505657 0.339027 -0.523412 60 44 24 7 3
-0.502170 0.338009 -0.509199 58 43 26 7 3
-0.517782 0.322527 -0.541376 48 42 27 1 2
-0.509946 0.335541 -0.538327 52 41 20 7 3
-0.506983 -0.071221 -0.561940 57 48 33 1 2
-0.510522 -0.065303 -0.564654 54 45 35 1 2
-0.508407 -0.055910 -0.563894 43 34 31 1 2
-0.500969 -0.059626 -0.572023 39 33 28 1 2
-0.499978 -0.070206 -0.568192 49 40 32 1 2
-0.455946 0.356228 -0.529821 45 37 29 7 3
-0.508258 0.472358 -0.460291 36 30 16 1 6
-0.475318 0.482841 -0.463140 44 32 14 1 6
-0.542348 0.461083 -0.486576 41 37 33 1 6
-0.523739 0.350222 -0.196095 78 60 47 7 3
-0.468016 0.069456 -0.555106 52 40 29 1 2
-0.467001 0.046139 -0.552534 47 38 26 1 2
-0.450330 0.047042 -0.558835 49 38 20 1 2
-0.457678 0.068476 -0.559394 48 40 25 1 2
-0.477033 0.065867 -0.545962 55 43 18 1 2
-0.364808 0.127037 -0.563597 50 39 30 2 1
-0.574841 0.439132 -0.206853 102 72 53 0 0
-0.597303 0.465384 -0.224141 86 61 45 0 0
-0.590527 0.453768 -0.225586 78 60 48 0 0
-0.594774 0.450797 -0.214745 85 60 43 0 0
-0.599138 0.329922 -0.227301 112 85 51 0 0
-0.289590 0.209601 -0.564650 36 30 21 2 1
-0.262611 0.234150 -0.562331 36 29 14 2 1
-0.415649 0.514488 -0.166276 62 42 27 1 6
-0.455742 0.509121 -0.180724 62 52 32 1 6
-0.427092 0.512597 -0.168251 60 46 31 1 6
-0.435952 0.512896 -0.179033 74 59 34 1 6
-0.488970 0.081587 -0.479172 53 43 24 1 2
-0.496587 0.087938 -0.463681 118 97 75 1 2
-0.493068 0.061282 -0.452809 113 92 67 1 2
-0.490140 0.077430 -0.464070 91 74 51 1 2
-0.497017 0.343427 -0.533489 48 39 25 7 3
-0.464633 0.351770 -0.543092 47 42 31 7 3
-0.500649 0.338893 -0.548652 50 41 24 7 3
-0.296796 0.167474 -0.564958 47 37 30 2 1
-0.276637 0.150843 -0.563858 47 39 28 2 1
-0.282001 0.178204 -0.563778 42 31 27 2 1
-0.547460 0.197656 -0.222091 75 68 48 0 0
-0.560458 0.198013 -0.220390 81 68 50 0 0
-0.554358 0.177335 -0.226073 83 68 55 0 0
-0.541073 0.183919 -0.231522 81 67 51 0 0
-0.551169 0.204997 -0.218383 80 71 53 0 0
-0.524453 0.325244 -0.243028 67 57 43 1 2
-0.520761 0.302875 -0.252984 86 78 65 1 2
-0.523297 0.316629 -0.237198 74 58 55 1 2
-0.520228 0.294989 -0.236463 83 71 54 1 2
-0.524723 0.311374 -0.227063 84 66 52 1 2
-0.540012 0.450719 -0.504753 34 29 32 0 0
-0.536282 0.461129 -0.499950 39 31 27 1 6
-0.529821 0.441021 -0.503220 36 29 35 0 0
-0.546244 0.443846 -0.483541 39 29 26 0 0
-0.547153 0.449973 -0.488491 38 33 29 0 0
-0.540830 0.445730 -0.497696 38 29 28 0 0
-0.420321 0.409316 -0.156099 65 44 31 0 0
-0.438365 0.420811 -0.166470 70 44 37 7 3
-0.431992 0.415676 -0.160138 63 45 34 0 0
-0.507010 0.153404 -0.392107 121 99 70 1 2
-0.506894 0.139215 -0.386734 123 100 68 1 2
-0.512859 0.284993 -0.199746 84 71 48 1 2
-0.513063 0.270791 -0.200969 92 73 46 1 2
-0.520649 0.283442 -0.217637 88 71 58 1 2
-0.513018 0.255658 -0.211855 91 74 58 1 2
-0.517081 0.289108 -0.196544 87 67 55 0 0
-0.517736 0.265546 -0.199600 90 71 54 0 0
-0.517642 0.270859 -0.219978 80 75 51 1 2
-0.426488 0.367416 -0.436153 56 43 31 7 3
-0.516160 0.253179 -0.360607 117 100 73 1 2
-0.474185 0.492633 -0.324500 79 65 39 1 6
-0.490558 0.486054 -0.348247 80 71 37 0 0
-0.481259 0.489786 -0.345875 88 66 53 0 0
-0.334595 0.511346 -0.259875 84 68 42 1 6
-0.389382 0.050931 -0.561352 48 41 33 2 1
-0.504539 0.293524 -0.543392 50 41 24 1 2
-0.505897 0.290821 -0.530224 53 39 28 1 2
-0.504513 0.280269 -0.536561 49 36 22 1 2
-0.420673 0.355200 -0.547893 74 58 42 7 3
-0.398456 0.363806 -0.519435 75 59 35 7 3
-0.415896 0.359119 -0.534407 79 61 37 7 3
-0.407702 0.359618 -0.530426 76 59 39 7 3
-0.495980 0.028710 -0.271374 106 80 67 1 2
-0.510079 0.351489 -0.300707 89 71 46 7 3
-0.502934 0.437175 -0.509911 41 30 28 0 0
-0.513462 0.431693 -0.498422 42 29 26 0 0
-0.484771 0.428925 -0.500018 49 35 28 0 0
-0.501993 0.426662 -0.493762 46 33 27 0 0
-0.450610 0.166671 -0.566018 49 36 31 2 1
-0.423483 0.174428 -0.566992 45 42 21 2 1
-0.373469 0.504097 -0.384874 100 84 65 1 6
-0.330917 0.163197 -0.564723 43 39 21 2 1
-0.333957 0.173263 -0.564760 43 34 23 2 1
-0.313212 0.185563 -0.564510 43 38 24 2 1
-0.506394 0.137567 -0.288135 99 83 66 1 2
-0.500596 0.123584 -0.285276 101 81 67 1 2
-0.506783 0.147231 -0.263760 96 85 64 1 2
-0.503237 0.126165 -0.270446 96 81 69 1 2
-0.390662 0.519545 -0.171717 61 49 39 1 6
-0.399717 0.516090 -0.168982 61 49 31 1 6
-0.422140 0.513547 -0.180534 64 50 34 1 6
-0.514185 0.202546 -0.406710 115 99 75 1 2
-0.514427 0.222227 -0.391331 120 103 76 1 2
-0.515051 0.218619 -0.405662 115 99 80 1 2
-0.512491 0.202513 -0.393362 118 100 74 1 2
-0.495964 0.095896 -0.479420 55 45 34 1 2
-0.494827 0.095196 -0.516503 58 46 26 1 2
-0.501052 0.112441 -0.492841 57 42 23 1 2
-0.497873 0.103923 -0.489202 60 42 35 1 2
-0.496597 0.112823 -0.515451 58 47 29 1 2
-0.498875 0.113600 -0.501551 58 44 32 1 2
-0.473071 0.493537 -0.309000 78 68 32 1 6
-0.482399 0.419910 -0.487345 56 43 26 0 0
-0.488968 0.057754 -0.462718 66 49 38 1 2
-0.489690 0.034475 -0.473017 71 51 27 1 2
-0.487858 0.050529 -0.476753 57 45 31 1 2
-0.485777 0.040872 -0.461137 96 68 49 1 2
-0.490693 0.022280 -0.483321 82 58 29 1 2
-0.516430 0.409323 -0.183031 85 65 39 0 0
-0.526883 0.413646 -0.187963 84 65 33 0 0
-0.491689 0.408897 -0.294498 69 59 41 0 0
-0.531764 0.426740 -0.332752 72 63 43 0 0
-0.501237 0.411771 -0.310298 71 61 40 0 0
-0.559161 0.489878 -0.204725 86 70 48 0 0
-0.552203 0.486726 -0.201168 75 59 48 0 0
-0.573474 0.489516 -0.207020 86 68 50 0 0
-0.549337 0.453173 -0.464673 69 64 54 0 0
-0.551045 0.459970 -0.452182 78 68 50 0 0
-0.546009 0.459588 -0.464182 73 68 60 0 0
-0.559372 0.453949 -0.480193 41 33 28 0 0
-0.548596 0.453844 -0.480460 60 53 49 0 0
-0.557099 0.454324 -0.450525 77 73 55 0 0
-0.549536 0.434359 -0.287277 74 60 46 0 0
-0.559401 0.442436 -0.269890 76 63 53 0 0
-0.563415 0.453457 -0.287653 74 64 53 0 0
-0.544548 0.433636 -0.256562 73 63 49 0 0
-0.572892 0.453993 -0.248646 80 65 43 0 0
-0.592725 0.464326 -0.232872 92 71 47 0 0
-0.583456 0.459762 -0.234961 92 69 48 0 0
-0.584194 0.467056 -0.234429 97 72 55 0 0
-0.579069 0.462550 -0.245978 83 65 53 0 0
-0.430185 0.499098 -0.377375 100 81 63 1 6
-0.461931 -0.051767 -0.486786 47 41 28 0 0
-0.471502 -0.052311 -0.477380 59 50 27 0 0
-0.461964 -0.057048 -0.466960 61 50 26 0 0
-0.523750 0.423691 -0.451405 51 42 39 0 0
-0.518925 0.421955 -0.416783 85 73 49 0 0
-0.496956 0.061897 -0.435760 127 99 80 1 2
-0.488258 0.044806 -0.447584 116 91 61 1 2
-0.489876 0.023414 -0.433831 121 97 64 1 2
-0.495317 0.047228 -0.433882 119 97 60 1 2
-0.494977 0.040412 -0.434376 119 96 64 1 2
-0.492662 0.056268 -0.445437 121 98 72 1 2
-0.501574 0.066724 -0.384094 132 110 84 1 2
-0.501181 0.081377 -0.381383 121 104 77 1 2
-0.309519 0.141298 -0.564165 45 34 26 2 1
-0.308142 0.101571 -0.563671 53 36 29 2 1
-0.303375 0.122728 -0.564880 44 34 23 2 1
-0.422237 0.412941 -0.475510 87 61 28 0 0
-0.441484 0.400891 -0.450703 89 58 27 0 0
-0.435016 0.412333 -0.481380 78 60 30 0 0
-0.400614 0.502518 -0.351937 99 84 50 1 6
-0.504358 0.122322 -0.313851 103 87 65 1 2
-0.501773 0.118832 -0.297336 95 84 62 1 2
-0.505716 0.109085 -0.329409 103 85 64 1 2
-0.503702 0.101918 -0.315307 104 84 68 1 2
-0.491355 0.025107 -0.335322 123 92 55 1 2
-0.481625 0.019011 -0.339814 130 92 62 1 2
-0.483904 0.014774 -0.331228 131 92 56 1 2
-0.512283 0.315743 -0.509656 51 38 27 1 2
-0.513534 0.307537 -0.491118 53 37 25 1 2
-0.511212 0.329706 -0.496258 54 38 31 1 2
-0.548641 0.170852 -0.225291 87 72 60 0 0
-0.538283 0.164870 -0.228396 88 74 57 0 0
-0.439625 0.393067 -0.366746 87 62 30 0 0
-0.546962 0.196939 -0.250369 91 78 61 0 0
-0.540590 0.184546 -0.240407 92 75 57 0 0
-0.542323 0.177286 -0.247070 91 79 58 0 0
-0.548890 0.177208 -0.252124 91 78 59 0 0
-0.548506 0.188713 -0.254340 91 82 58 0 0
-0.538347 0.193440 -0.239448 91 77 59 0 0
-0.544519 0.216306 -0.244666 90 80 61 0 0
-0.539019 0.208126 -0.237450 80 75 53 0 0
-0.536746 0.195166 -0.230405 85 73 58 0 0
-0.537249 0.212252 -0.230487 76 69 54 0 0
-0.351004 0.510695 -0.245500 83 63 42 1 6
-0.523958 0.467649 -0.446289 83 64 48 0 0
-0.503380 0.478395 -0.440620 73 59 34 0 0
-0.521299 0.469293 -0.418939 83 65 44 0 0
-0.482714 0.168877 -0.558065 65 50 40 1 2
-0.491825 0.191408 -0.552579 73 50 35 1 2
-0.488795 0.172780 -0.552192 77 54 39 1 2
-0.469816 0.431005 -0.516010 47 34 33 0 0
-0.451583 0.427239 -0.505836 49 38 28 0 0
-0.453411 0.422816 -0.495656 49 38 31 0 0
-0.484024 0.435129 -0.520473 44 34 31 0 0
-0.467874 0.428435 -0.505130 45 35 30 0 0
-0.470052 0.419986 -0.486052 59 41 36 0 0
-0.502897 0.082032 -0.254496 96 81 64 1 2
-0.500628 0.072124 -0.251082 95 82 62 1 2
-0.504251 0.085926 -0.237338 94 75 66 1 2
-0.500870 0.058801 -0.236864 95 79 60 1 2
-0.465584 0.365055 -0.260875 79 63 42 7 3
-0.436908 0.372425 -0.237875 68 48 27 7 3
-0.496543 0.103212 -0.518995 60 43 29 1 2
-0.490699 0.110775 -0.534445 63 45 30 1 2
-0.482170 0.405149 -0.326741 73 56 33 0 0
-0.476776 0.401998 -0.296239 73 55 32 0 0
-0.495370 0.029349 -0.403935 134 104 61 1 2
-0.423066 0.356835 -0.564035 59 47 31 7 3
-0.433799 0.332448 -0.569019 41 34 22 2 1
-0.439480 0.346821 -0.550042 34 32 18 7 3
-0.426067 0.364188 -0.575130 46 37 31 7 3
-0.422399 0.350485 -0.570798 43 33 32 7 3
-0.429618 0.347782 -0.558500 46 33 25 7 3
-0.431539 0.341866 -0.567432 39 30 20 7 3
-0.425900 0.337578 -0.576797 32 28 26 2 1
-0.488300 0.067197 -0.480059 51 38 25 1 2
-0.488483 0.028001 -0.508807 71 47 35 1 2
-0.484960 0.056252 -0.503478 57 40 23 1 2
-0.484637 0.045683 -0.505342 51 44 21 1 2
-0.484267 0.048940 -0.492358 56 41 33 1 2
-0.488439 0.041804 -0.486424 60 44 29 1 2
-0.507903 0.415951 -0.244318 67 54 39 0 0
-0.513504 0.264658 -0.366526 116 99 71 1 2
-0.513456 0.274482 -0.368942 119 100 75 1 2
-0.517612 0.264519 -0.383135 118 104 69 1 2
-0.489105 0.243053 -0.556594 52 39 33 2 1
-0.494555 0.251251 -0.551244 58 41 32 1 2
-0.500644 0.269615 -0.548923 50 38 30 1 2
-0.505337 0.158601 -0.285868 102 85 60 1 2
-0.507458 0.187395 -0.294250 102 83 65 1 2
-0.505398 0.178162 -0.283884 97 86 58 1 2
-0.506631 0.185114 -0.264616 102 81 64 1 2
-0.505787 0.168365 -0.271638 96 79 58 1 2
-0.511064 0.164047 -0.254281 96 84 53 1 2
-0.507819 0.345646 -0.379933 115 94 77 1 2
-0.491898 0.354111 -0.367125 111 91 65 7 3
-0.511827 0.223812 -0.191647 92 72 59 1 2
-0.516563 0.207309 -0.196094 91 73 51 1 2
-0.507746 0.208653 -0.195360 89 74 52 1 2
-0.507473 0.225562 -0.199034 86 71 53 1 2
-0.513820 0.197989 -0.193414 89 71 50 1 2
-0.520002 0.302262 -0.459189 92 77 59 1 2
-0.522447 0.317969 -0.463798 100 84 64 1 2
-0.524578 0.316886 -0.450385 114 100 72 1 2
-0.516951 0.305858 -0.478770 52 41 23 1 2
-0.514580 0.329195 -0.475388 52 37 34 1 2
-0.517220 0.317114 -0.471174 58 43 29 1 2
-0.483277 0.090337 -0.190076 90 72 57 1 2
-0.479536 0.093035 -0.183827 85 67 53 1 2
-0.565273 0.246994 -0.256724 82 67 52 0 0
-0.571545 0.271297 -0.246541 84 71 53 0 0
-0.568245 0.257896 -0.247835 82 69 50 0 0
-0.562288 0.258969 -0.252296 81 73 53 0 0
-0.560924 0.274572 -0.255850 76 66 44 0 0
-0.551090 0.259002 -0.249828 72 62 47 0 0
-0.583077 0.255725 -0.229851 90 74 62 0 0
-0.576279 0.254424 -0.236573 91 75 51 0 0
-0.571104 0.245692 -0.244442 90 70 60 0 0
-0.575253 0.264522 -0.244479 94 75 57 0 0
-0.505378 0.098537 -0.336332 111 92 65 1 2
-0.506520 0.116609 -0.351119 113 96 74 1 2
-0.505509 0.099799 -0.349312 108 94 64 1 2
-0.344628 0.521156 -0.172084 74 59 40 1 6
-0.333884 0.521159 -0.169345 60 45 30 1 6
-0.327692 0.522894 -0.177765 62 48 35 1 6
-0.505340 0.349208 -0.347160 101 83 60 1 2
-0.508351 0.349212 -0.325500 87 74 51 1 2
-0.516871 0.339830 -0.352056 105 88 62 1 2
-0.425032 0.372373 -0.320343 90 72 55 7 3
-0.442017 0.368099 -0.355875 90 70 55 7 3
-0.453093 0.365237 -0.332625 90 69 55 7 3
-0.554481 0.431459 -0.209538 71 55 27 0 0
-0.531605 0.420015 -0.199760 85 65 42 0 0
-0.558546 0.429190 -0.199010 76 61 30 0 0
-0.546451 0.423307 -0.195662 68 55 25 0 0
-0.544315 0.432101 -0.231503 86 66 48 0 0
-0.505635 0.103191 -0.249647 97 78 57 1 2
-0.508314 0.109887 -0.240086 95 77 57 1 2
-0.507018 0.121922 -0.245803 92 77 60 1 2
-0.503627 0.116019 -0.264581 98 83 66 1 2
-0.515510 0.255144 -0.318598 99 88 68 1 2
-0.538821 0.121423 -0.236785 92 76 56 0 0
-0.559909 0.123247 -0.235607 106 86 71 0 0
-0.556973 0.115582 -0.241312 108 84 63 0 0
-0.557990 0.137997 -0.251586 108 89 68 0 0
-0.550421 0.114701 -0.243717 105 88 65 0 0
-0.552048 0.134223 -0.251269 101 82 68 0 0
-0.544098 0.125026 -0.244670 91 78 58 0 0
-0.542372 0.106885 -0.233762 89 77 59 0 0
-0.537991 0.136846 -0.241828 95 80 59 0 0
-0.545349 0.128310 -0.223722 93 78 57 0 0
-0.536759 0.141219 -0.231779 93 76 55 0 0
-0.242010 0.307836 -0.572152 33 28 20 2 1
-0.260448 0.332579 -0.576777 32 30 26 2 1
-0.480684 0.008138 -0.372723 103 76 44 1 2
-0.490198 0.028032 -0.349964 130 104 74 1 2
-0.480218 0.015211 -0.355926 132 105 71 1 2
-0.478630 0.014624 -0.367514 136 103 63 1 2
-0.490766 0.018121 -0.387490 134 105 64 1 2
-0.485810 0.021777 -0.371312 134 107 70 1 2
-0.412627 0.353889 -0.585934 31 30 25 2 1
-0.418536 0.366153 -0.586043 33 26 25 2 1
-0.406262 0.360966 -0.587660 29 29 22 2 1
-0.399294 0.361049 -0.591898 29 28 27 2 1
-0.391150 0.351799 -0.586011 28 28 24 2 1
-0.413568 0.345132 -0.580145 31 30 25 2 1
-0.362218 0.286303 -0.569751 36 33 22 2 1
-0.383713 0.293892 -0.569487 34 31 23 2 1
-0.394374 0.302563 -0.570356 40 29 22 2 1
-0.370403 0.303853 -0.572338 35 32 25 2 1
-0.564070 0.119372 -0.222293 116 92 66 0 0
-0.368323 0.111450 -0.563990 53 42 30 2 1
-0.346767 0.094686 -0.564737 50 45 29 2 1
-0.463002 -0.052637 -0.519346 50 40 31 0 0
-0.466886 -0.050203 -0.502191 42 37 29 0 0
-0.472386 -0.051141 -0.487788 46 40 27 0 0
-0.502130 0.487257 -0.285875 74 64 42 0 0
-0.490681 0.490975 -0.287875 77 62 52 1 6
-0.478980 0.494083 -0.266875 75 65 42 1 6
-0.494970 0.162721 -0.513364 55 43 30 1 2
-0.496858 0.180739 -0.514065 57 41 32 1 2
-0.499235 0.186917 -0.505099 56 45 30 1 2
-0.510848 0.286001 -0.513683 50 36 31 1 2
-0.515457 0.284367 -0.478072 57 41 33 1 2
-0.512028 0.287961 -0.497687 55 39 37 1 2
-0.511070 0.275994 -0.493451 43 35 24 1 2
-0.454737 -0.056802 -0.529925 56 46 27 0 0
-0.468624 -0.051011 -0.527603 51 42 26 0 0
-0.492068 0.025230 -0.299151 118 84 57 1 2
-0.495053 0.127311 -0.521065 60 45 31 1 2
-0.479641 0.089632 -0.550754 64 46 32 1 2
-0.487475 0.115190 -0.547996 66 45 32 1 2
-0.467233 0.363484 -0.308375 83 65 46 7 3
-0.487422 0.358003 -0.314500 83 65 48 7 3
-0.506459 0.146969 -0.213456 96 78 58 1 2
-0.495003 0.133778 -0.199953 93 74 54 1 2
-0.498865 0.143072 -0.202638 89 74 52 1 2
-0.496505 0.159755 -0.197920 82 70 52 1 2
-0.501648 0.179724 -0.485909 50 39 27 1 2
-0.503357 0.171218 -0.470112 53 41 29 1 2
-0.501395 0.163348 -0.475433 53 45 30 1 2
-0.504339 0.182220 -0.463340 113 97 71 1 2
-0.505133 0.189332 -0.475934 53 41 26 1 2
-0.493896 0.412244 -0.429607 64 53 36 0 0
-0.499098 0.413758 -0.443532 52 42 31 0 0
-0.320880 0.080374 -0.564351 49 41 30 2 1
-0.511318 0.329559 -0.524430 50 36 32 1 2
-0.406881 0.405388 -0.390237 89 62 25 7 3
-0.399163 0.397807 -0.392025 91 67 31 7 3
-0.401527 0.385521 -0.390129 91 66 26 7 3
-0.397680 0.400116 -0.411786 85 58 24 7 3
-0.394871 0.391923 -0.414950 77 58 26 7 3
-0.402789 0.406778 -0.420025 88 61 27 7 3
-0.534022 0.462911 -0.419877 82 61 39 0 0
-0.508327 0.478107 -0.412003 87 63 38 0 0
-0.518026 0.472505 -0.385438 88 64 35 0 0
-0.527402 -0.067798 -0.488622 56 34 34 1 2
-0.527054 -0.074399 -0.488775 55 35 34 1 2
-0.519986 0.483201 -0.219511 77 61 40 0 0
-0.524478 0.484643 -0.196118 77 61 38 0 0
-0.526676 0.477793 -0.200474 72 62 43 0 0
-0.528837 0.470577 -0.215143 74 61 32 0 0
-0.516979 0.484303 -0.205838 74 61 32 0 0
-0.414792 0.408744 -0.412060 89 62 28 0 0
-0.449302 0.397872 -0.402107 93 68 34 0 0
-0.415627 0.406149 -0.398639 95 66 30 0 0
-0.412490 0.406356 -0.387126 93 62 26 7 3
-0.441471 0.396169 -0.223781 57 46 25 0 0
-0.427626 0.414495 -0.213781 63 50 22 7 3
-0.438447 0.411089 -0.201998 65 40 23 0 0
-0.414582 0.407439 -0.214152 60 50 27 7 3
-0.430064 0.412071 -0.192966 68 49 34 0 0
-0.437961 0.406568 -0.213718 65 50 22 0 0
-0.433405 0.415594 -0.211431 65 49 19 7 3
-0.498784 0.191756 -0.532259 47 42 20 1 2
-0.498267 0.218205 -0.532808 47 42 20 1 2
-0.493471 0.228988 -0.546749 55 44 36 1 2
-0.390597 0.409110 -0.475326 79 56 24 0 0
-0.384307 0.394313 -0.478775 85 67 31 7 3
-0.395368 0.400652 -0.472242 90 65 33 7 3
-0.404788 0.398270 -0.462908 85 63 25 7 3
-0.608235 0.337753 -0.229101 109 82 52 0 0
-0.591216 0.333532 -0.237305 74 58 40 0 0
-0.594388 0.341574 -0.229299 97 76 58 0 0
-0.586385 0.343143 -0.234612 88 72 52 0 0
-0.515477 0.284644 -0.363886 113 93 74 1 2
-0.515360 0.264247 -0.351193 110 89 70 1 2
-0.515357 0.278962 -0.335422 110 91 74 1 2
-0.516213 0.291496 -0.343401 108 89 66 1 2
-0.483444 0.347575 -0.501854 59 40 35 7 3
-0.476226 0.350518 -0.502850 74 46 28 7 3
-0.420980 0.496217 -0.435408 81 62 41 1 6
-0.418670 0.493210 -0.444290 82 56 26 1 6
-0.341914 0.508409 -0.347875 104 86 65 1 6
-0.563006 0.447295 -0.400196 82 69 54 0 0
-0.517508 0.420645 -0.394296 83 71 55 0 0
-0.552653 0.440246 -0.405881 81 69 58 0 0
-0.557651 0.442164 -0.384450 80 66 55 0 0
-0.528013 0.426015 -0.389406 80 69 55 0 0
-0.542839 0.433403 -0.412760 77 70 56 0 0
-0.497682 0.187074 -0.188892 81 71 48 1 2
-0.506670 0.181393 -0.202410 79 70 49 1 2
-0.505169 0.191870 -0.192389 83 72 50 1 2
-0.513547 0.228698 -0.343740 116 92 72 1 2
-0.515551 0.242305 -0.327832 105 88 65 1 2
-0.396392 0.511576 -0.194639 78 60 46 1 6
-0.210610 0.255105 -0.566042 38 31 23 2 1
-0.234761 0.262149 -0.566844 37 31 21 2 1
-0.203200 0.274056 -0.567974 36 31 19 2 1
-0.471314 0.131923 -0.562618 52 44 27 2 1
-0.427674 0.129732 -0.566199 53 40 28 2 1
-0.456462 0.150395 -0.563983 50 44 21 2 1
-0.471298 0.478024 -0.512086 38 32 18 1 6
-0.481267 0.479092 -0.500373 44 31 19 1 6
-0.487128 0.476525 -0.490510 65 40 20 1 6
-0.485987 0.472582 -0.518646 42 31 14 1 6
-0.547957 0.435380 -0.240875 77 62 48 0 0
-0.565404 0.440852 -0.227645 84 65 46 0 0
-0.557145 0.443951 -0.254073 87 69 52 0 0
-0.357741 0.360603 -0.582158 29 25 28 2 1
-0.387636 0.359141 -0.591659 28 30 27 2 1
-0.375142 0.356581 -0.588837 14 16 15 2 1
-0.388190 0.365450 -0.587346 18 14 12 2 1
-0.374273 0.366654 -0.584408 15 15 13 2 1
-0.552660 0.313027 -0.213465 82 67 43 0 0
-0.561033 0.330461 -0.220102 75 61 38 0 0
-0.565174 0.343120 -0.217970 74 65 41 0 0
-0.545189 0.309716 -0.220297 85 66 41 0 0
-0.557379 0.322258 -0.218093 82 67 44 0 0
-0.547542 0.321326 -0.225704 86 66 42 0 0
-0.510936 0.270297 -0.474772 55 39 28 1 2
-0.516113 0.288606 -0.469165 59 43 35 1 2
-0.515373 0.276263 -0.454245 64 47 37 1 2
-0.517213 0.254512 -0.445974 123 97 77 1 2
-0.508947 0.231230 -0.470747 97 77 56 1 2
-0.427363 0.502737 -0.239703 78 60 45 1 6
-0.401858 0.505894 -0.228875 74 63 41 1 6
-0.429209 0.501714 -0.262875 82 62 47 1 6
-0.418356 0.503382 -0.244375 79 58 45 1 6
-0.481244 0.397022 -0.195234 75 59 30 0 0
-0.498324 0.401440 -0.182726 32 25 20 0 0
-0.492088 0.396915 -0.171338 36 26 17 0 0
-0.481429 0.393508 -0.183427 73 50 36 0 0
-0.386549 0.383716 -0.485148 88 63 32 7 3
-0.489356 0.360931 -0.203954 72 60 41 7 3
-0.474513 0.368388 -0.182385 68 55 46 7 3
-0.462433 0.369744 -0.188041 73 54 43 7 3
-0.473360 0.382206 -0.172836 64 49 33 0 0
-0.484912 0.366898 -0.185851 68 55 46 7 3
-0.468503 0.370810 -0.175852 66 51 32 7 3
-0.509051 0.196638 -0.266353 95 88 59 1 2
-0.510721 0.217355 -0.263891 97 86 58 1 2
-0.510080 0.208025 -0.287733 98 82 62 1 2
-0.510407 0.223406 -0.290057 90 83 60 1 2
-0.514445 0.233861 -0.262515 96 85 55 1 2
-0.426338 0.499650 -0.336375 83 70 36 1 6
-0.413994 0.501277 -0.308875 77 65 39 1 6
-0.447639 0.497195 -0.315375 79 69 33 1 6
-0.519526 0.291963 -0.428465 118 105 76 1 2
-0.521975 0.308413 -0.439420 115 97 68 1 2
-0.433831 0.397572 -0.434806 86 65 27 0 0
-0.306980 0.294580 -0.570191 36 28 25 2 1
-0.293177 0.310287 -0.570158 30 30 24 2 1
-0.496184 0.076750 -0.282370 103 82 71 1 2
-0.497063 0.061707 -0.266794 100 83 69 1 2
-0.499442 0.060097 -0.281117 102 85 58 1 2
-0.498661 0.068500 -0.284761 97 88 57 1 2
-0.496118 0.078550 -0.270811 92 81 63 1 2
-0.261162 0.272611 -0.567398 33 30 24 2 1
-0.246908 0.285801 -0.568272 30 28 26 2 1
-0.225880 0.278519 -0.567959 34 29 26 2 1
-0.235361 0.296160 -0.573028 29 29 26 2 1
-0.219805 0.289149 -0.572602 32 25 23 2 1
-0.439062 0.146759 -0.565721 47 43 32 2 1
-0.465148 0.361391 -0.387875 107 84 59 7 3
-0.468738 0.361239 -0.362750 105 84 58 7 3
-0.478222 0.358985 -0.341875 102 82 63 7 3
-0.485717 0.403983 -0.221666 68 52 37 0 0
-0.475120 0.399312 -0.205767 77 58 39 0 0
-0.514104 0.248026 -0.323721 111 89 69 1 2
-0.514081 0.251507 -0.337946 111 89 69 1 2
-0.512418 0.263351 -0.331633 111 86 73 1 2
-0.514264 0.237010 -0.345945 114 90 72 1 2
-0.507262 0.416359 -0.364009 80 63 40 0 0
-0.513881 0.326929 -0.549938 59 47 29 1 2
-0.398314 0.505543 -0.261875 74 60 39 1 6
-0.430252 0.500640 -0.288391 82 64 58 1 6
-0.427257 0.399514 -0.468290 88 57 27 0 0
-0.402955 0.375741 -0.483166 82 57 29 7 3
-0.411540 0.393135 -0.458561 90 65 26 0 0
-0.399809 0.386120 -0.472081 89 66 27 7 3
-0.405758 0.385418 -0.458741 91 67 26 7 3
-0.407390 0.377332 -0.464212 86 61 24 7 3
-0.411011 0.406875 -0.470902 91 62 32 0 0
-0.495059 0.364328 -0.189636 69 57 37 7 3
-0.508863 0.360688 -0.191537 69 55 40 7 3
-0.472778 0.345235 -0.555132 53 42 30 7 3
-0.362020 0.511369 -0.214812 78 57 43 1 6
-0.336814 0.515368 -0.204577 76 61 40 1 6
-0.364238 0.509874 -0.229125 82 63 49 1 6
-0.490272 0.408699 -0.378841 86 68 48 0 0
-0.497529 0.140353 -0.535766 60 46 26 1 2
-0.496417 0.135464 -0.518008 63 49 35 1 2
-0.494040 0.158076 -0.536553 64 48 34 1 2
-0.493309 0.127213 -0.541474 61 51 30 1 2
-0.516285 0.270384 -0.294336 92 82 54 1 2
-0.520034 0.278308 -0.302707 93 82 52 1 2
-0.518392 0.270901 -0.310201 98 80 63 1 2
-0.513233 0.263303 -0.305642 96 78 62 1 2
-0.421538 0.362882 -0.555889 61 50 28 7 3
-0.362669 0.498522 -0.436809 92 72 38 1 6
-0.367189 0.493782 -0.453413 89 74 59 1 6
-0.479965 0.077253 -0.182658 90 74 55 1 2
-0.316586 0.136189 -0.563792 48 40 26 2 1
-0.356181 0.134904 -0.563567 43 37 23 2 1
-0.380953 0.147508 -0.565084 41 36 22 2 1
-0.511623 0.427856 -0.485172 40 29 30 0 0
-0.485930 0.416549 -0.477838 44 38 24 0 0
-0.476224 0.409646 -0.454414 46 37 27 0 0
-0.516116 0.426222 -0.467668 44 31 32 0 0
-0.452375 0.491588 -0.434875 79 63 48 1 6
-0.434804 0.494389 -0.436261 60 41 21 1 6
-0.517658 0.292078 -0.279676 99 79 66 1 2
-0.521060 0.315559 -0.269464 94 77 56 1 2
-0.523675 0.298528 -0.268178 90 76 58 1 2
-0.520090 0.303735 -0.284898 90 76 57 1 2
-0.471618 0.399345 -0.390732 84 65 47 0 0
-0.513022 0.240379 -0.314121 99 83 59 1 2
-0.515423 0.232168 -0.300427 103 86 61 1 2
-0.480649 0.362229 -0.244875 72 51 35 7 3
-0.498413 0.412616 -0.407322 81 69 54 0 0
-0.483550 0.012027 -0.274045 123 87 58 1 2
-0.492061 0.024722 -0.285430 114 83 59 1 2
-0.473198 0.012246 -0.285127 113 85 46 1 2
-0.479959 0.012631 -0.264762 121 86 59 1 2
-0.333602 0.501116 -0.427206 108 89 65 1 6
-0.316993 0.503183 -0.426675 111 92 80 1 6
-0.486729 0.123410 -0.553365 66 52 33 1 2
-0.476682 0.114547 -0.556813 62 49 36 1 2
-0.412703 0.406953 -0.362398 86 59 36 7 3
-0.417531 0.406723 -0.373498 93 66 32 0 0
-0.440430 0.400966 -0.199964 72 47 25 0 0
-0.427285 0.412945 -0.184790 67 43 31 7 3
-0.420958 0.408782 -0.191387 68 44 30 7 3
-0.429972 0.400864 -0.179155 69 41 27 0 0
-0.434012 0.415119 -0.178537 74 46 26 0 0
-0.445821 0.422455 -0.171512 63 42 26 0 0
-0.436836 0.398153 -0.167190 64 45 23 0 0
-0.443378 0.419744 -0.167846 63 44 30 0 0
-0.565432 0.320144 -0.252629 90 73 61 0 0
-0.554520 0.337957 -0.243851 76 62 43 0 0
-0.549992 0.323615 -0.241737 79 63 49 0 0
-0.553041 0.344532 -0.238247 78 64 44 0 0
-0.565655 0.329482 -0.252598 80 64 48 0 0
-0.492610 0.483873 -0.400625 82 63 49 0 0
-0.478256 0.487110 -0.427875 87 67 55 1 6
-0.517870 0.298333 -0.297741 92 78 59 1 2
-0.522807 0.322615 -0.307511 87 74 46 1 2
-0.520222 0.304088 -0.316849 99 84 65 1 2
-0.518775 0.290441 -0.317344 95 82 58 1 2
-0.519555 0.309935 -0.300941 94 82 55 1 2
-0.479992 0.022046 -0.546080 75 56 34 1 2
-0.484258 0.023664 -0.538350 61 47 24 1 2
-0.487550 0.024798 -0.521671 72 55 27 1 2
-0.477870 0.020880 -0.534327 72 53 28 1 2
-0.350245 0.251462 -0.565779 34 27 21 2 1
-0.374946 0.275036 -0.568831 34 30 24 2 1
-0.506550 0.155912 -0.402210 115 95 73 1 2
-0.511090 0.180421 -0.408653 113 100 74 1 2
-0.565872 0.448738 -0.352070 78 67 57 0 0
-0.439971 0.022673 -0.575305 51 41 32 2 1
-0.427956 0.049346 -0.561479 51 40 30 2 1
-0.425139 0.023759 -0.577092 52 43 29 2 1
-0.452204 0.029069 -0.564880 47 39 25 2 1
-0.451774 0.021725 -0.568701 50 41 24 2 1
-0.436048 0.034801 -0.564614 55 44 25 2 1
-0.436909 0.027984 -0.567863 49 39 28 2 1
-0.524989 0.323330 -0.224564 78 61 43 1 2
-0.525841 0.339025 -0.224976 78 61 43 7 3
-0.522910 0.342859 -0.244805 71 52 45 1 2
-0.542595 0.329164 -0.233209 80 64 46 0 0
-0.407605 0.406501 -0.326282 82 53 29 7 3
-0.411663 0.378602 -0.327875 86 67 42 7 3
-0.411888 0.404952 -0.302314 79 53 26 7 3
-0.403349 0.384545 -0.309123 78 56 21 7 3
-0.404731 0.388003 -0.290678 82 57 30 7 3
-0.412460 0.379166 -0.302321 85 61 39 7 3
-0.459227 0.362775 -0.425875 110 97 67 7 3
-0.470817 0.357439 -0.453875 63 47 35 7 3
-0.406862 0.499485 -0.417763 85 73 53 1 6
-0.427490 0.497274 -0.418375 94 81 60 1 6
-0.416627 0.500339 -0.387875 96 83 66 1 6
-0.349582 0.354918 -0.583425 34 28 25 2 1
-0.337533 0.355076 -0.584401 34 29 29 2 1
-0.320503 0.350797 -0.579552 34 27 22 2 1
-0.308918 0.344789 -0.580136 34 28 30 2 1
-0.341955 0.341549 -0.582126 32 29 25 2 1
-0.326721 0.346153 -0.583811 34 29 30 2 1
-0.495797 0.030667 -0.317246 103 83 62 1 2
-0.548509 0.150050 -0.216249 78 69 49 0 0
-0.560034 0.171953 -0.224502 89 72 56 0 0
-0.561586 0.135644 -0.220886 123 90 58 0 0
-0.577038 0.157492 -0.231697 87 64 34 0 0
-0.567217 0.147023 -0.222029 118 91 59 0 0
-0.564958 0.160140 -0.220725 80 58 34 0 0
-0.544935 0.161094 -0.225215 86 77 54 0 0
-0.556734 0.157213 -0.216751 86 67 45 0 0
-0.249006 0.214867 -0.563577 28 31 18 2 1
-0.231967 0.234852 -0.561096 38 31 21 2 1
-0.266821 0.192062 -0.564264 39 31 23 2 1
-0.339607 0.120352 -0.563695 47 38 28 2 1
-0.506823 0.147137 -0.252735 95 79 54 1 2
-0.508639 0.134099 -0.231294 93 79 57 1 2
-0.508025 0.139331 -0.244961 94 80 57 1 2
-0.397226 0.140903 -0.565344 48 45 26 2 1
-0.407249 0.166491 -0.566405 42 43 28 2 1
-0.513730 0.211689 -0.225735 85 68 61 1 2
-0.516128 0.229329 -0.225778 77 61 49 1 2
-0.512011 0.209123 -0.249232 91 77 56 1 2
-0.483302 0.307469 -0.567923 34 31 25 2 1
-0.456547 0.284894 -0.569210 36 31 23 2 1
-0.465837 0.295597 -0.568514 38 33 24 2 1
-0.447702 0.317716 -0.570775 36 32 21 2 1
-0.431231 0.304222 -0.571444 37 34 20 2 1
-0.441917 0.290789 -0.569529 38 33 21 2 1
-0.521783 0.274384 -0.418198 120 96 72 1 2
-0.516904 0.286457 -0.445245 121 96 75 1 2
-0.521332 0.272715 -0.431967 118 98 77 1 2
-0.565263 0.451210 -0.397665 78 71 54 0 0
-0.357265 0.508324 -0.310875 97 82 56 1 6
-0.338418 0.270877 -0.568189 35 31 22 2 1
-0.339092 0.283099 -0.569876 34 31 25 2 1
-0.296561 0.346967 -0.587176 29 29 23 2 1
-0.280240 0.342536 -0.585730 30 29 27 2 1
-0.515388 0.481680 -0.259737 81 62 43 0 0
-0.512790 0.481215 -0.287320 76 63 36 0 0
-0.534751 0.464364 -0.289538 77 62 46 0 0
-0.524858 0.473677 -0.270594 75 55 38 0 0
-0.583811 0.348417 -0.223880 79 65 45 0 0
-0.568885 0.346291 -0.220221 72 65 45 0 0
-0.267725 0.338706 -0.579809 32 29 22 2 1
-0.270982 0.328515 -0.576698 32 26 23 2 1
-0.287448 0.327216 -0.574278 36 28 27 2 1
-0.305790 0.331284 -0.578351 39 30 23 2 1
-0.291878 0.342249 -0.579797 37 29 23 2 1
-0.478270 0.011619 -0.320948 130 92 52 1 2
-0.474529 0.012208 -0.309813 126 91 61 1 2
-0.491386 0.022962 -0.315465 119 91 56 1 2
-0.483596 0.016647 -0.309851 120 91 55 1 2
-0.480315 0.018447 -0.294449 124 85 57 1 2
-0.473576 0.011003 -0.299408 124 90 59 1 2
-0.528098 0.461152 -0.498667 38 30 27 1 6
-0.537640 0.271083 -0.227051 83 69 48 0 0
-0.541244 0.271134 -0.235008 78 75 46 0 0
-0.545929 0.258941 -0.240868 86 73 55 0 0
-0.549147 0.272795 -0.242265 91 77 57 0 0
-0.550571 0.251889 -0.247031 81 63 58 0 0
-0.538246 0.260625 -0.232893 86 71 52 0 0
-0.473885 0.022600 -0.556289 81 57 37 1 2
-0.465502 0.021810 -0.565389 51 39 30 1 2
-0.461632 0.029295 -0.561244 64 46 34 1 2
-0.459165 0.021035 -0.574192 43 36 21 2 1
-0.391513 0.204523 -0.565566 37 36 24 2 1
-0.353943 0.198646 -0.564367 39 27 19 2 1
-0.475864 0.257884 -0.562993 35 26 23 2 1
-0.474334 0.281933 -0.566943 31 25 19 2 1
-0.468971 0.267449 -0.564930 33 27 23 2 1
-0.487993 0.260033 -0.557942 37 29 21 2 1
-0.497206 0.050127 -0.277162 102 82 62 1 2
-0.495883 0.031372 -0.283592 98 78 61 1 2
-0.496084 0.047498 -0.288250 97 80 56 1 2
-0.495503 0.052003 -0.258066 97 82 64 1 2
-0.495488 0.033364 -0.261338 103 85 60 1 2
-0.503054 0.294169 -0.557243 48 38 22 1 2
-0.497315 0.282381 -0.551846 58 42 24 1 2
-0.452336 0.353124 -0.541528 30 34 21 7 3
-0.426133 0.363679 -0.503871 54 43 23 7 3
-0.426324 0.358533 -0.525309 58 46 31 7 3
-0.351386 0.237907 -0.564974 33 27 21 2 1
-0.328327 0.237484 -0.563664 32 31 19 2 1
-0.501220 0.350484 -0.397750 118 97 77 7 3
-0.521830 0.339370 -0.407682 114 97 75 1 2
-0.304040 0.014268 -0.566184 60 47 28 2 1
-0.304491 0.021285 -0.567951 51 46 32 2 1
-0.289481 0.015036 -0.566313 56 43 24 2 1
-0.454537 0.356351 -0.505000 50 36 20 7 3
-0.522239 0.476190 -0.294243 73 55 39 0 0
-0.528069 0.466641 -0.320603 77 60 44 0 0
-0.515516 0.471358 -0.324607 78 61 44 0 0
-0.519545 0.423255 -0.437367 70 57 43 0 0
-0.542270 0.433960 -0.425206 80 71 55 0 0
-0.539675 0.432687 -0.446689 57 49 40 0 0
-0.555021 0.443548 -0.417933 85 69 62 0 0
-0.555177 0.443001 -0.433414 80 73 49 0 0
-0.442933 0.369987 -0.271437 77 60 42 7 3
-0.467605 0.364709 -0.277875 75 62 43 7 3
-0.508920 0.176204 -0.313863 103 85 69 1 2
-0.507719 0.170038 -0.303344 100 84 66 1 2
-0.519419 -0.065729 -0.526707 48 41 34 1 2
-0.517971 -0.066407 -0.547270 49 41 36 1 2
-0.506593 -0.079620 -0.537877 50 42 35 1 2
-0.512044 -0.075634 -0.522409 49 39 40 1 2
-0.515136 -0.054426 -0.543835 44 41 40 1 2
-0.512469 0.217700 -0.215277 84 70 52 1 2
-0.508289 0.197006 -0.203484 86 70 56 1 2
-0.506527 0.208431 -0.199923 79 69 56 1 2
-0.453765 0.395306 -0.248055 66 48 24 0 0
-0.468674 0.398016 -0.243210 70 57 32 0 0
-0.443471 0.397839 -0.247502 65 49 27 0 0
-0.495317 0.074552 -0.441512 124 104 74 1 2
-0.500822 0.078758 -0.428026 122 106 70 1 2
-0.569818 0.342272 -0.250040 79 69 49 0 0
-0.578318 0.338478 -0.241192 79 66 47 0 0
-0.571507 0.344729 -0.239827 76 65 36 0 0
-0.558331 0.344181 -0.227319 75 66 43 0 0
-0.501487 0.111892 -0.284912 100 82 68 1 2
-0.498332 0.094596 -0.267913 95 80 60 1 2
-0.383839 0.104400 -0.564874 55 44 29 2 1
-0.370883 0.080834 -0.564739 60 47 38 2 1
-0.414216 0.090984 -0.565507 55 48 26 2 1
-0.514956 0.234101 -0.362520 117 100 76 1 2
-0.514601 0.238750 -0.385943 123 103 74 1 2
-0.525243 0.424735 -0.349920 73 64 48 0 0
-0.523623 0.423519 -0.368250 77 63 41 0 0
-0.463439 0.251322 -0.564366 37 26 26 2 1
-0.448813 0.232164 -0.565706 38 25 25 2 1
-0.419446 0.221248 -0.567317 38 27 24 2 1
-0.412046 0.238374 -0.567074 33 25 20 2 1
-0.361291 0.499144 -0.418826 101 70 39 1 6
-0.366880 0.502299 -0.408753 101 70 39 1 6
-0.338768 0.505263 -0.398394 95 84 60 1 6
-0.375273 0.502663 -0.404625 103 85 68 1 6
-0.451454 0.405679 -0.460155 80 61 39 0 0
-0.438918 0.407831 -0.475532 91 60 32 0 0
-0.459746 0.416202 -0.480707 61 48 29 0 0
-0.471509 0.411438 -0.475236 51 43 26 0 0
-0.458218 0.406169 -0.463586 61 48 32 0 0
-0.451995 0.372376 -0.195669 70 51 37 7 3
-0.435322 0.380950 -0.169770 63 47 23 7 3
-0.461363 0.378987 -0.173809 69 46 34 0 0
-0.449195 0.375854 -0.174355 65 45 29 7 3
-0.447665 0.390124 -0.170705 69 47 38 0 0
-0.436324 0.379161 -0.185709 61 51 29 7 3
-0.438204 0.384222 -0.165853 69 34 29 0 0
-0.508147 0.161375 -0.357945 114 100 68 1 2
-0.505198 0.147940 -0.376589 128 102 81 1 2
-0.506837 0.169180 -0.381498 123 104 68 1 2
-0.505742 0.145173 -0.360106 114 100 68 1 2
-0.422870 0.400914 -0.393698 88 64 34 0 0
-0.399141 0.385159 -0.408553 97 75 49 7 3
-0.429383 0.397756 -0.407197 90 68 33 0 0
-0.425533 0.371840 -0.405816 100 87 51 7 3
-0.431302 0.362824 -0.486075 58 39 24 7 3
-0.462016 0.355492 -0.488634 65 47 27 7 3
-0.430317 0.364842 -0.464875 57 42 24 7 3
-0.447616 0.361529 -0.462625 56 43 22 7 3
-0.311872 0.265289 -0.567356 37 27 24 2 1
-0.348071 0.260067 -0.567520 34 27 16 2 1
-0.320898 0.247254 -0.563730 30 29 15 2 1
-0.509872 0.160568 -0.339476 109 91 58 1 2
-0.509622 0.308542 -0.555688 53 44 35 1 2
-0.403469 0.404437 -0.310322 74 52 26 7 3
-0.393365 0.392419 -0.305249 85 53 34 7 3
-0.406471 0.405769 -0.295329 74 54 28 7 3
-0.394983 0.397656 -0.309755 83 57 33 7 3
-0.395014 0.385996 -0.305012 93 59 31 7 3
-0.602658 0.458484 -0.219427 94 66 50 0 0
-0.473310 0.400412 -0.274914 70 55 42 0 0
-0.490407 0.014518 -0.402214 131 101 62 1 2
-0.493893 0.026776 -0.416049 128 101 65 1 2
-0.565697 0.445168 -0.294714 74 66 50 0 0
-0.542540 0.463145 -0.289624 72 56 42 0 0
-0.559623 0.466481 -0.285360 71 64 52 0 0
-0.557754 0.450925 -0.263618 74 65 55 0 0
-0.562161 0.460189 -0.265513 75 69 57 0 0
-0.511726 0.233533 -0.283147 99 81 64 1 2
-0.518373 0.241758 -0.265216 97 78 64 1 2
-0.451599 0.212320 -0.564844 39 33 30 2 1
-0.460501 0.182192 -0.564795 48 33 22 2 1
-0.487094 0.079264 -0.521716 60 42 29 1 2
-0.483306 0.069117 -0.517430 57 40 31 1 2
-0.482647 0.080702 -0.540730 57 48 27 1 2
-0.489079 0.088973 -0.524250 61 44 37 1 2
-0.488130 0.089385 -0.538113 60 44 36 1 2
-0.272321 0.321358 -0.572926 35 29 25 2 1
-0.266175 0.307497 -0.572179 33 29 23 2 1
-0.273913 0.301692 -0.569652 35 33 33 2 1
-0.509181 0.409592 -0.194466 64 47 26 0 0
-0.506409 0.405934 -0.178184 83 64 33 0 0
-0.585025 0.299091 -0.220494 97 68 53 0 0
-0.580692 0.277395 -0.222817 105 77 52 0 0
-0.499214 0.102752 -0.453216 90 69 54 1 2
-0.497761 0.113117 -0.471361 65 52 34 1 2
-0.497363 0.121304 -0.485094 55 45 23 1 2
-0.500094 0.123619 -0.457995 119 98 76 1 2
-0.300399 0.194806 -0.565056 38 30 17 2 1
-0.487623 0.478150 -0.475201 48 30 17 1 6
-0.546957 0.159597 -0.252263 91 79 63 0 0
-0.534698 0.164802 -0.234188 94 78 62 0 0
-0.539750 0.155188 -0.237997 94 79 59 0 0
-0.539818 0.163067 -0.247947 95 80 62 0 0
-0.519523 0.329509 -0.349743 104 86 65 1 2
-0.518012 0.339422 -0.335494 93 76 62 1 2
-0.595617 0.475789 -0.216640 102 78 42 0 0
-0.590018 0.475993 -0.223861 86 68 34 0 0
-0.575988 0.482399 -0.216621 95 70 55 0 0
-0.585636 0.487090 -0.211099 84 64 32 0 0
