ply
format ascii 1.0
element vertex 1102
property float x
property float y
property float z
property uchar red
property uchar green
property uchar blue
property uchar semantic_label
property uchar instance_label
end_header
1.090835 0.193540 0.445109 254 221 184 3 19
0.649363 0.999835 0.284642 247 241 232 1 18
0.647976 1.005149 0.306306 248 241 233 1 18
0.673548 1.002668 0.315237 247 241 232 1 18
0.659596 1.003223 0.296992 247 241 233 1 18
0.649773 1.001044 0.297793 248 241 233 1 18
0.656516 0.992271 0.289452 246 240 233 24 5
0.724135 1.010999 0.622786 254 249 238 1 18
0.738552 1.010537 0.611772 254 248 238 1 18
0.869919 0.264076 0.796481 254 238 210 3 40
0.876207 0.267737 0.813410 223 173 134 3 40
1.363442 0.829472 0.455629 46 32 28 1 22
1.364671 0.846223 0.458476 48 29 26 1 22
1.354840 0.834130 0.460683 109 80 68 1 22
0.871342 0.733956 0.926537 182 166 156 40 41
1.099305 0.205791 0.878085 237 212 191 3 19
1.109224 0.201004 0.882526 237 210 190 3 19
1.084055 0.205576 0.881992 235 219 198 3 19
1.081456 0.212630 0.872442 231 212 189 3 19
1.093404 0.191763 0.881586 236 223 204 3 19
1.106463 0.190684 0.882557 241 218 200 3 19
1.083334 0.195870 0.878050 236 223 206 3 19
0.805451 1.012906 0.314234 239 231 222 1 18
0.804927 1.012396 0.334895 237 232 220 1 18
0.826117 1.013898 0.322694 235 230 221 1 18
0.867597 0.367528 0.742922 248 206 171 3 40
0.863208 0.356160 0.759016 243 200 159 3 40
0.874990 0.341046 0.616642 255 237 195 3 40
0.705251 1.006405 0.464422 253 247 238 1 18
0.715636 1.005974 0.444220 251 246 236 1 18
0.737303 1.008844 0.461483 251 247 236 1 18
0.717652 1.011907 0.732347 253 247 237 1 18
0.720341 1.013348 0.761978 252 245 236 1 18
0.865381 0.447404 0.696713 255 238 204 3 40
0.869220 0.432649 0.659244 255 235 194 3 40
0.867340 0.430129 0.695297 254 238 200 3 40
1.355659 0.629781 0.459844 60 44 32 1 22
1.360190 0.618536 0.457514 62 41 35 1 22
1.082881 0.213090 0.819628 251 215 187 3 40
0.970443 0.645442 1.060547 118 101 98 40 41
0.914425 0.209675 0.781904 253 227 199 3 40
1.129623 1.032525 0.399996 56 44 27 1 18
1.106988 1.031698 0.393570 60 44 40 1 18
0.858194 0.707411 0.551050 253 220 182 3 40
0.854575 0.744659 0.554547 254 221 183 3 40
0.876088 0.359283 0.603171 255 234 193 3 40
0.872410 0.409491 0.600547 255 234 197 3 40
0.749490 1.013396 0.750064 251 245 234 1 18
0.734537 1.010699 0.737423 252 246 236 1 18
0.752770 1.013472 0.731182 251 245 234 1 18
0.624194 1.024325 0.966352 217 213 204 1 18
0.603952 1.030217 0.979277 186 183 176 1 18
0.622870 1.028463 0.987622 187 182 177 1 18
0.886248 0.712830 1.082928 117 101 84 40 41
0.876546 0.707379 1.067247 159 146 122 40 41
1.389680 0.540432 0.289226 136 127 131 1 22
0.831773 0.971150 0.797587 245 210 174 3 40
0.835550 0.956833 0.812992 244 208 174 3 40
0.841999 0.972140 0.814696 244 209 176 3 40
0.828185 0.945858 0.797575 243 207 177 3 40
0.839038 0.970455 0.823347 233 196 161 3 40
0.662797 0.800486 0.290885 233 232 237 24 5
0.654183 0.831652 0.290987 245 244 249 24 5
0.670054 0.821637 0.289980 242 242 249 24 5
0.877698 0.342555 0.524437 255 231 185 3 40
1.348215 0.896741 0.404965 14 10 8 1 22
1.356650 0.900399 0.408619 27 23 23 1 22
0.875517 0.344189 0.512547 255 226 180 3 40
1.019563 0.215197 0.867792 229 192 165 3 19
1.023911 0.210884 0.866839 221 182 155 3 19
1.001722 0.215213 0.867230 189 150 120 3 19
1.025994 0.201187 0.867970 232 210 190 3 40
0.848668 0.524895 0.855679 245 200 165 3 40
0.855744 0.524879 0.841356 241 195 156 3 40
1.073720 0.145154 0.650243 255 220 192 3 19
1.076112 0.172129 0.673111 254 217 185 3 19
1.072415 0.158434 0.660466 255 220 189 3 19
1.078345 0.176068 0.629151 255 220 188 3 19
1.058679 0.287554 0.336272 162 147 147 0 0
1.065711 0.292868 0.336196 172 159 158 0 0
1.081326 0.293312 0.326303 210 201 205 0 0
1.075394 0.275683 0.334523 201 191 188 0 0
0.867636 0.463173 0.653186 255 231 195 3 40
0.865441 0.471700 0.665884 254 234 192 3 40
0.827855 0.944373 0.765047 245 212 176 3 40
0.826067 0.944937 0.786165 245 211 175 3 40
0.787182 1.016546 0.742018 251 240 229 1 18
0.793287 1.015868 0.762769 251 240 229 1 18
0.771299 1.014277 0.740711 251 242 232 1 18
0.713078 1.011741 0.303583 188 186 184 1 18
0.728715 1.002604 0.308298 220 217 213 1 18
1.077142 0.140687 0.444884 254 214 170 3 19
1.086083 0.121674 0.465190 255 220 170 3 19
1.087360 0.117260 0.442270 254 220 171 3 19
0.850666 0.816810 0.556921 252 218 183 3 40
0.683653 1.009359 0.746144 253 247 238 1 18
0.688643 1.010815 0.755616 251 246 236 1 18
0.673708 1.009112 0.769266 252 246 235 1 18
0.698054 1.008774 0.747467 253 247 238 1 18
0.860066 0.533346 0.701172 255 234 196 3 40
0.857645 0.545787 0.718034 255 234 198 3 40
1.378727 0.343886 0.458649 97 74 58 1 22
1.381223 0.347036 0.467588 95 72 55 1 22
1.376382 0.344232 0.448155 60 45 43 1 22
1.376224 0.331169 0.452281 60 45 43 1 22
1.381725 0.324097 0.467434 113 86 66 1 22
1.382153 0.330785 0.461835 84 65 46 1 22
0.942538 0.627223 1.073703 164 155 151 40 41
0.966265 0.632799 1.053952 152 133 120 40 41
0.950567 0.638088 1.088200 198 191 202 40 41
0.928147 0.633410 1.075799 206 200 204 40 41
0.950512 0.626219 1.064134 152 132 123 40 41
0.954054 0.636965 1.066521 146 132 128 40 41
0.959881 0.533027 1.239300 184 165 154 22 21
0.957332 0.512873 1.241340 182 169 152 22 21
0.955075 0.409302 1.242709 140 133 121 22 21
0.945602 0.433643 1.240802 143 135 118 22 21
0.947294 0.417760 1.241826 145 134 118 22 21
1.047078 0.280797 0.294107 208 204 200 24 5
1.042331 0.287996 0.298750 208 203 203 24 5
1.030167 0.286077 0.292844 215 210 209 24 5
1.019991 0.297988 0.292608 223 217 219 24 5
1.381980 0.280691 0.415058 78 67 50 1 22
1.391257 0.286376 0.429152 81 66 50 1 22
1.382229 0.292617 0.427293 77 62 51 1 22
1.385745 0.284214 0.440273 84 62 51 1 22
0.830413 0.893345 0.784780 241 201 158 3 40
0.830717 0.889559 0.775357 238 201 155 3 40
0.919265 0.270377 0.266797 228 222 219 24 5
0.890056 0.268546 0.281403 232 226 225 24 5
0.869575 0.268284 0.268547 236 225 223 24 5
1.072026 0.134808 0.778648 254 218 177 3 19
0.867312 0.375111 0.904291 176 169 156 3 40
0.870813 0.478541 0.532547 255 222 180 3 40
0.868977 0.507762 0.529047 254 220 179 3 40
0.868226 0.500935 0.518047 252 219 174 3 40
0.859392 0.557718 0.830606 213 162 126 3 40
0.926473 0.530921 1.240730 188 169 150 22 21
0.915025 0.558628 1.240509 182 168 154 22 21
0.948913 0.545195 1.240136 188 169 153 22 21
0.941165 0.563091 1.239263 184 166 149 22 21
0.663993 0.962651 0.299791 253 254 255 24 5
0.665603 0.978846 0.293838 241 238 234 24 5
0.767957 1.015965 0.856518 247 242 231 1 18
0.802612 1.016318 0.863468 248 242 230 1 18
0.778294 1.016298 0.837284 249 243 232 1 18
0.779818 1.015614 0.848324 248 242 230 1 18
0.677933 0.976479 0.302644 253 253 254 24 5
0.681633 0.975435 0.299975 245 244 246 24 5
0.699483 1.003120 0.302238 189 187 185 1 18
0.698243 0.997693 0.307313 254 251 253 1 18
0.678864 0.991472 0.298395 245 240 239 24 5
0.683387 0.989778 0.298613 246 245 243 24 5
1.042739 0.288965 1.236078 192 176 159 22 21
0.845086 0.840351 0.818939 221 175 135 3 40
0.844031 0.872349 0.823326 235 189 149 3 40
0.843888 0.857602 0.822394 218 171 130 3 40
0.704232 1.006211 0.364624 247 242 232 1 18
0.719820 1.007263 0.360216 247 241 232 1 18
0.889086 0.222008 0.808734 255 254 239 3 40
0.885706 0.242902 0.820361 250 212 188 3 40
0.879858 0.252119 0.814086 255 254 242 3 40
0.881084 0.253892 0.824939 217 166 131 3 40
0.844345 0.787199 0.747286 239 202 164 3 40
0.643657 1.004668 0.447881 254 247 239 1 18
0.608833 1.003958 0.456028 255 248 240 1 18
0.897063 0.215365 0.576711 255 220 181 3 40
0.894927 0.222213 0.568694 254 217 178 3 40
0.902283 0.210503 0.535796 253 215 173 3 40
0.836725 0.887742 0.807418 237 192 153 3 40
1.084842 0.189903 0.702793 254 221 186 3 19
0.899017 0.991082 0.423650 205 161 122 3 40
0.889689 0.955918 0.425517 223 177 144 3 40
0.900226 0.963257 0.428438 223 176 141 3 40
0.905341 0.980362 0.432478 207 164 131 3 40
0.843245 0.659741 0.793369 251 211 175 3 40
0.842814 0.662518 0.767594 248 209 176 3 40
0.841108 0.674440 0.773725 249 206 173 3 40
0.841829 0.661602 0.784871 255 227 193 3 40
0.937688 0.626109 1.058156 225 226 236 40 41
0.925264 0.631901 1.061904 218 215 222 40 41
1.357014 0.411592 0.476657 72 53 45 1 22
1.347762 0.421520 0.481458 64 44 33 1 22
0.851449 0.689151 0.716547 255 225 186 3 40
1.107857 0.239933 1.234595 195 178 160 22 21
1.119531 0.225972 1.235782 198 179 160 22 21
0.852427 0.644640 0.510954 251 219 186 3 40
0.853990 0.676166 0.503459 251 208 169 3 40
0.854659 0.662140 0.510790 252 218 184 3 40
0.853142 0.653103 0.493740 253 220 191 3 40
0.853714 0.675167 0.475362 244 202 169 3 40
0.852750 0.672668 0.489750 244 202 159 3 40
1.023993 0.309515 1.233652 191 175 157 22 21
0.836532 0.997633 0.766884 238 206 176 3 40
0.832698 0.973036 0.732623 226 188 153 3 40
1.130496 0.237841 0.341924 133 106 95 0 0
1.092803 0.192704 0.288536 238 199 171 3 19
1.092558 0.193614 0.257255 234 194 158 3 19
1.095756 0.205828 0.264828 243 206 168 3 19
0.858117 0.679649 0.521945 253 221 186 3 40
0.858315 0.698143 0.522753 250 211 170 3 40
1.082256 0.215671 0.767894 254 229 205 3 40
0.828581 0.939036 0.755734 250 218 182 3 40
0.829823 0.958851 0.748671 242 208 172 3 40
0.830115 0.954850 0.726392 250 216 186 3 40
0.829235 0.958739 0.776813 247 212 180 3 40
0.983286 1.012330 0.436646 195 150 122 1 18
0.978965 1.024223 0.420795 99 74 64 1 18
0.984150 1.021124 0.430755 168 128 105 1 18
0.998388 1.027103 0.417912 99 77 57 1 18
0.670294 0.902314 0.292685 250 252 253 24 5
0.647810 0.917946 0.294984 255 253 255 24 5
0.655721 0.909606 0.292414 254 253 255 24 5
0.682127 0.925583 0.296400 253 253 255 24 5
0.686372 0.909778 0.293083 253 253 255 24 5
0.640309 1.007223 0.871839 246 242 231 1 18
0.609068 1.006580 0.877404 245 241 229 1 18
0.608501 1.006016 0.892222 241 237 226 1 18
0.640956 1.024600 0.998560 217 212 205 1 18
0.640700 1.028759 1.013991 185 181 177 1 18
0.631828 1.032025 1.008644 185 181 177 1 18
0.837837 0.761887 0.787601 242 203 165 3 40
0.840921 0.742076 0.795047 244 203 163 3 40
0.852460 0.609201 0.636572 228 194 172 3 40
0.957609 1.023845 0.339099 143 125 112 1 18
0.954800 1.025584 0.321819 84 75 70 1 18
0.998522 1.024621 0.327645 83 67 66 1 18
0.966375 1.027109 0.316611 122 109 104 1 18
0.844038 0.599713 0.866336 236 213 204 3 40
0.860252 0.618502 0.893002 110 92 100 3 40
0.850973 0.601731 0.881385 219 202 207 3 40
0.847576 0.576207 0.877441 193 190 208 3 40
0.856629 0.593689 0.887120 192 188 209 3 40
0.878364 0.596609 0.901429 118 86 90 3 40
1.058529 0.115536 1.235117 193 174 157 22 21
1.067833 0.130692 1.233735 193 174 154 22 21
1.038986 0.124256 1.233435 179 163 143 22 21
0.687833 1.010514 0.905713 246 242 231 1 18
0.665323 1.007876 0.913231 245 241 230 1 18
0.683688 1.012417 0.931032 245 241 230 1 18
1.377528 0.373911 0.448393 71 51 37 1 22
1.384076 0.360982 0.425693 67 51 42 1 22
1.384055 0.373277 0.410783 68 50 41 1 22
0.657661 1.005661 0.522359 254 249 241 1 18
0.642777 1.005487 0.526382 255 249 241 1 18
0.666524 1.006508 0.538152 255 249 240 1 18
0.680765 1.006214 0.536097 254 249 239 1 18
0.929519 1.022155 0.388044 123 95 87 1 18
0.955088 1.023116 0.410228 109 84 72 1 18
0.939025 1.020746 0.408132 107 85 70 1 18
0.862957 0.677005 0.458518 249 213 185 3 40
1.384854 0.381471 0.377541 66 52 41 1 22
1.382453 0.407139 0.377980 64 47 37 1 22
1.383329 0.401913 0.397735 61 49 42 1 22
1.382551 0.424344 0.400275 64 48 39 1 22
0.938526 1.017006 0.418818 165 124 102 1 18
0.936486 1.008743 0.432483 171 133 106 1 18
0.957525 1.019786 0.428693 162 124 102 1 18
0.963001 1.015903 0.432498 176 137 107 1 18
0.887961 0.592880 1.241980 171 158 147 22 21
0.894421 0.571290 1.241736 146 134 121 22 21
0.910480 0.582315 1.241669 181 168 157 22 21
0.901431 0.579162 1.240455 183 168 155 22 21
0.883117 0.586845 1.240358 170 158 142 22 21
1.352466 0.754194 0.458428 47 29 28 1 22
1.354570 0.773064 0.459088 54 37 25 1 22
1.377255 0.298197 0.377022 74 54 43 1 22
1.379354 0.304262 0.351552 213 210 213 1 22
1.373997 0.299364 0.364156 75 60 50 1 22
0.839923 0.646913 0.869848 209 170 138 3 40
0.839859 0.664720 0.877145 175 141 114 3 40
0.845340 0.660768 0.887868 80 55 48 3 40
0.859792 0.651075 0.898076 80 58 57 3 40
0.608050 1.006238 0.664940 255 250 244 1 18
0.628973 1.005944 0.662353 255 250 242 1 18
1.315788 0.294816 0.280384 59 42 37 24 5
1.347266 0.299140 0.284180 53 36 32 24 5
1.347722 0.285516 0.258698 76 59 53 0 0
1.352126 0.288143 0.277961 76 58 53 0 0
1.319799 0.284484 0.282173 57 47 39 24 5
1.161059 0.173315 1.237036 202 183 155 22 21
0.858813 0.415609 0.796841 255 213 166 3 40
0.854042 0.428560 0.779655 253 211 168 3 40
0.857445 0.441769 0.798534 254 212 170 3 40
0.852412 0.454953 0.779980 253 208 170 3 40
0.851355 0.712698 0.903143 158 144 132 40 41
0.859154 1.013989 0.403615 229 218 207 1 18
0.861124 1.014939 0.381616 231 223 218 1 18
0.844307 1.014782 0.374143 237 232 220 1 18
0.855699 0.609230 0.570795 254 228 198 3 40
0.855028 0.599932 0.546110 254 222 199 3 40
0.853561 0.588856 0.569557 250 219 186 3 40
1.286391 0.289459 0.294052 65 52 42 24 5
1.292570 0.288211 0.287938 56 42 35 24 5
1.279968 0.291950 0.290190 60 44 28 24 5
1.302345 0.291667 0.288384 53 41 32 24 5
1.128672 1.032217 0.341750 121 23 31 1 18
1.138724 1.031720 0.338976 117 22 30 1 18
1.145599 1.028100 0.346656 114 25 28 1 18
1.156861 1.028017 0.350244 114 24 28 1 18
0.907397 0.202032 0.877022 247 222 202 3 40
0.890224 0.199724 0.885945 238 218 201 3 40
0.902499 0.216270 0.888202 240 216 198 3 40
0.892773 0.212956 0.885550 223 213 203 3 40
0.880297 0.212074 0.888963 217 206 197 3 40
0.895235 0.230971 0.890535 206 196 189 3 40
1.219017 0.288122 0.305947 107 96 88 24 5
1.228279 0.286159 0.305764 114 101 97 24 5
1.204797 0.280414 0.298899 84 68 62 24 5
1.225255 0.284860 0.287507 62 45 47 24 5
1.176732 0.281598 0.288510 69 49 45 24 5
0.646099 0.894515 0.290000 254 250 255 24 5
1.084112 0.218022 0.870406 223 189 161 3 19
1.098510 0.217105 0.871705 236 197 171 3 19
0.831638 0.794243 0.897230 94 95 89 3 40
0.846256 0.778940 0.903104 153 146 135 3 40
0.854027 0.781749 0.899909 140 136 127 3 40
0.859261 0.790186 0.905735 141 133 126 3 40
0.851951 0.773111 0.466966 238 197 159 3 40
0.848998 0.814723 0.468457 239 198 159 3 40
0.844814 0.793553 0.479309 240 199 161 3 40
0.892255 0.223537 0.666547 255 232 201 3 40
0.901805 0.210418 0.646641 255 226 196 3 40
0.893745 0.224485 0.624811 255 228 199 3 40
1.083675 0.261013 1.233981 198 179 159 22 21
1.102035 0.270030 1.236499 197 178 161 22 21
1.115921 0.257593 1.236402 200 176 155 22 21
1.113621 0.284140 1.235740 195 175 158 22 21
0.959820 0.213072 0.736797 252 225 196 3 40
0.874084 0.408504 0.533768 255 225 181 3 40
0.874699 0.404790 0.523287 255 228 186 3 40
0.873917 0.392021 0.515460 255 228 186 3 40
0.991761 0.216907 0.807448 231 188 150 3 40
0.996122 0.215424 0.823339 226 181 145 3 40
0.888799 0.239376 0.721711 254 240 213 3 40
0.888535 0.233804 0.740444 253 240 211 3 40
0.870550 0.256137 0.723131 255 254 248 3 40
0.876267 0.250418 0.707932 255 253 249 3 40
0.874667 0.249690 0.740680 255 255 243 3 40
0.893006 0.239164 0.503063 254 212 174 3 40
0.882354 0.248885 0.498397 255 235 210 3 40
0.847977 0.981935 0.464156 245 202 165 3 40
0.841167 0.950229 0.471194 243 210 171 3 40
0.823006 0.999743 0.863990 232 200 158 3 40
0.825939 0.980943 0.865891 235 210 183 3 40
0.839865 0.973140 0.876462 233 207 175 3 40
0.828252 0.994704 0.872074 234 208 175 3 40
1.382553 0.307073 0.402685 74 55 43 1 22
1.381445 0.298995 0.414037 79 58 46 1 22
1.380375 0.311367 0.383080 73 50 50 1 22
1.391813 0.290944 0.415708 77 61 50 1 22
0.771985 1.013171 0.703350 253 244 234 1 18
0.868194 0.405326 0.718512 255 247 213 3 40
0.834877 1.009121 0.644727 252 235 223 1 18
0.837308 1.009702 0.665881 248 238 223 3 40
0.864531 0.449536 0.481237 252 211 169 3 40
0.867997 0.465160 0.510080 255 219 167 3 40
0.863134 0.492024 0.495047 252 212 169 3 40
0.864565 0.455639 0.721805 255 241 206 3 40
0.863794 0.468104 0.715505 255 238 199 3 40
0.868177 0.347847 0.807837 239 187 150 3 40
0.873046 0.343849 0.822921 221 169 131 3 40
0.875431 0.336335 0.629861 255 240 203 3 40
0.874265 0.318814 0.649825 255 244 210 3 40
0.729407 1.009062 0.490337 253 248 238 1 18
0.718591 1.008170 0.500617 254 248 238 1 18
0.730911 1.008174 0.471636 253 247 237 1 18
1.365133 0.849295 0.447360 53 36 33 1 22
1.362191 0.855050 0.459110 48 32 25 1 22
1.243495 1.035671 0.365365 154 45 46 1 18
1.251358 1.030696 0.355941 133 38 40 1 18
1.229442 1.032224 0.362530 175 48 46 1 18
1.227032 1.037559 0.383420 131 45 49 1 18
1.257409 1.012940 0.348159 83 21 21 1 18
0.676645 1.011531 0.941284 244 240 229 1 18
0.694705 1.010979 0.925411 244 239 228 1 18
0.695575 1.012251 0.953401 243 237 228 1 18
0.840161 1.009528 0.487511 249 237 225 3 40
0.881417 0.236400 0.833610 222 174 132 3 40
0.866842 0.243976 0.852270 239 194 156 3 40
0.871233 0.731883 1.005910 179 167 151 40 41
0.858914 0.720087 0.998046 119 109 101 40 41
0.831009 0.964620 0.871892 229 200 172 3 40
0.832677 0.941167 0.881395 221 204 181 3 40
0.823022 0.933643 0.866431 232 199 165 3 40
0.866894 0.522999 0.590273 255 222 184 3 40
0.827086 1.014589 0.666253 250 238 226 1 18
0.822323 1.013449 0.641198 249 237 226 1 18
0.873072 0.707816 0.434547 214 169 138 3 40
0.871385 0.746106 0.428820 216 171 136 3 40
0.870563 0.726608 0.440607 215 170 142 3 40
0.857221 0.617351 0.540950 255 232 200 3 40
1.365832 0.787600 0.442125 51 24 24 1 22
1.367017 0.798412 0.443107 51 23 16 1 22
1.374545 0.791638 0.427678 81 23 24 1 22
1.365223 0.796957 0.436494 58 19 14 1 22
1.376376 0.813912 0.415054 64 14 18 1 22
1.376216 0.811240 0.420418 61 13 19 1 22
1.371015 0.785464 0.421356 90 23 25 1 22
1.364351 0.780513 0.414068 78 18 18 1 22
1.367633 0.796215 0.416207 73 15 19 1 22
0.862069 0.823719 0.449248 237 194 152 3 40
0.851695 0.829348 0.464513 233 190 147 3 40
0.859361 0.845540 0.452605 232 191 148 3 40
0.846845 0.856253 0.470031 241 199 159 3 40
1.018899 1.028256 0.379790 88 66 59 1 18
1.001936 1.026218 0.356433 92 70 47 1 18
0.638561 1.003518 0.255062 239 234 223 1 18
0.647230 0.995138 0.254806 239 234 228 24 5
0.645000 0.996214 0.276358 246 241 233 24 5
0.865878 0.545311 0.562116 254 221 182 3 40
0.865038 0.539485 0.573699 255 223 179 3 40
0.908155 0.797037 0.425503 233 189 151 3 40
0.901306 0.793739 0.422074 220 178 142 3 40
0.905964 0.779040 0.424018 221 178 142 3 40
0.632710 1.004868 0.324718 249 243 234 1 18
0.608815 1.003232 0.358556 250 243 235 1 18
0.848224 0.592851 0.708797 255 231 205 3 40
0.848245 0.602592 0.729172 254 232 208 3 40
0.953429 0.391118 1.237619 148 133 116 22 21
0.890732 0.236323 0.671518 254 231 203 3 40
0.889163 0.235819 0.698447 255 231 199 3 40
0.885616 0.241936 0.702024 255 254 248 3 40
0.887354 0.241655 0.664701 255 231 202 3 40
1.087980 0.112352 0.424789 254 219 168 3 19
1.084929 0.125703 0.430824 254 219 172 3 19
1.077789 0.140623 0.427129 252 210 169 3 19
0.860202 0.548643 0.636103 255 226 184 3 40
0.863956 0.536682 0.627807 254 223 179 3 40
0.864377 0.538961 0.603129 255 226 186 3 40
0.927974 0.283034 0.419872 218 176 138 3 40
0.922445 0.297406 0.417160 220 177 140 3 40
0.925679 0.312070 0.420573 219 175 139 3 40
0.930473 0.273795 0.427225 241 196 155 3 40
0.922725 0.268755 0.416773 225 181 142 3 40
0.908813 0.636623 1.027653 158 144 157 40 41
0.902648 0.639216 1.035164 181 175 190 40 41
0.914176 0.640121 1.042806 188 181 195 40 41
0.732578 1.012513 0.928894 244 240 229 1 18
1.363039 0.379994 0.481328 57 39 32 1 22
1.364781 0.364605 0.480120 62 43 33 1 22
1.369396 0.372960 0.475013 72 51 39 1 22
0.883517 0.328968 0.453047 238 201 159 3 40
1.364785 0.344190 0.481814 61 49 32 1 22
1.367315 0.330444 0.484057 76 50 47 1 22
1.362629 0.321525 0.484978 61 42 40 1 22
1.369442 0.312650 0.486360 66 44 43 1 22
1.041837 0.384551 1.238909 190 172 150 22 21
1.010521 0.355956 1.236745 190 170 156 22 21
1.011636 0.372343 1.238110 190 172 154 22 21
1.031282 0.361458 1.237142 195 170 152 22 21
0.871152 0.475272 0.544547 254 224 185 3 40
0.870188 0.480384 0.564591 253 225 183 3 40
0.810760 1.013926 0.557477 249 239 227 1 18
0.665600 1.006972 0.626491 254 249 239 1 18
0.682525 1.009497 0.619056 254 249 239 1 18
0.691266 1.008530 0.604877 254 250 239 1 18
0.849501 0.470104 0.874798 242 232 230 3 40
0.845164 0.483773 0.872623 218 207 198 3 40
0.848470 0.454912 0.881716 243 242 246 3 40
0.982002 0.286371 0.290648 226 220 224 24 5
0.972456 0.293670 0.292973 226 216 217 24 5
1.366741 0.858697 0.434726 55 38 30 1 22
1.081005 0.111749 0.741325 246 207 163 3 19
1.071760 0.141137 0.749827 254 223 198 3 19
1.075026 0.120755 0.760037 245 205 157 3 19
1.071457 0.146293 0.758345 253 223 181 3 19
1.162668 1.035360 0.401962 51 41 32 1 18
1.170999 1.036530 0.383033 52 39 32 1 18
0.837076 0.877023 0.752345 241 203 161 3 40
0.851860 0.552035 0.844448 225 180 142 3 40
0.846984 0.569203 0.849637 236 192 151 3 40
0.856018 0.583480 0.834570 218 173 130 3 40
0.839180 0.927508 0.556533 252 219 183 3 40
0.846431 0.906796 0.534191 251 218 176 3 40
0.861745 0.496229 0.836488 221 173 138 3 40
0.851778 0.495021 0.849546 247 204 165 3 40
1.377540 0.544637 0.355294 72 43 49 1 22
1.376369 0.546083 0.379886 72 40 43 1 22
1.381896 0.539167 0.356597 61 33 35 1 22
1.360975 0.548121 0.357930 73 45 49 1 22
0.922215 0.511631 0.423292 229 182 146 3 40
0.902817 0.526881 0.420159 210 163 133 3 40
0.899263 0.492050 0.420690 216 169 139 3 40
0.921005 0.529752 0.426859 221 173 147 3 40
0.831509 1.012661 0.568582 249 236 222 1 18
0.894464 0.676040 0.421226 225 180 151 3 40
0.908651 0.669549 0.421924 139 109 91 3 40
0.665617 1.006938 0.582738 255 249 240 1 18
0.638925 1.005366 0.579607 254 250 239 1 18
1.065436 0.146643 1.232706 201 181 163 22 21
1.088283 0.158495 1.232630 201 181 161 22 21
1.075594 0.159365 1.232163 203 182 162 22 21
1.075743 0.186769 1.232760 203 181 166 22 21
0.708193 1.011642 0.983092 237 232 223 1 18
0.719548 1.014656 1.008406 239 235 224 1 18
0.699678 1.012926 1.002108 237 232 223 1 18
1.018261 1.026420 0.350604 89 65 57 1 18
1.054517 1.029791 0.363350 84 62 53 1 18
1.028740 1.028223 0.358122 89 62 51 1 18
1.060600 1.029620 0.388336 80 58 49 1 18
0.964796 0.198435 0.849531 227 191 159 3 40
0.965411 0.212869 0.828516 205 150 113 3 40
0.945651 0.198754 0.846037 217 161 123 3 40
0.933698 0.206800 0.834674 204 152 110 3 40
0.968599 0.209412 0.835969 200 151 108 3 40
0.895331 0.270368 0.429438 210 164 132 3 40
0.897853 0.288549 0.426841 234 189 144 3 40
0.900692 0.267062 0.424660 234 190 147 3 40
0.913665 0.284726 0.418807 229 185 148 3 40
0.940916 1.021685 0.314705 163 149 146 1 18
0.966660 1.031781 0.312872 147 134 131 1 18
0.624546 1.006443 0.799284 248 244 233 1 18
0.627057 1.005179 0.816012 248 244 233 1 18
0.628851 1.006106 0.834129 248 244 232 1 18
0.610230 0.999613 0.817080 249 245 234 1 18
0.826883 0.847665 0.872066 222 191 164 3 40
0.826778 0.873357 0.865157 220 185 155 3 40
0.827410 0.847025 0.884796 177 172 162 3 40
0.823716 0.840814 0.880272 192 191 188 3 40
0.827150 0.875872 0.876802 223 192 163 3 40
0.837939 1.014276 0.885696 239 226 211 1 18
1.057271 0.274255 0.330500 213 203 211 0 0
1.051627 0.247615 0.318271 244 246 253 0 0
1.055162 0.251638 0.324593 227 219 227 0 0
0.874994 0.641846 1.094694 242 239 243 40 41
0.858023 0.646115 1.085623 242 239 243 40 41
0.903046 0.649189 1.121881 229 227 227 40 41
0.874176 0.635825 1.080993 244 244 249 40 41
0.888375 0.641551 1.099914 239 238 241 40 41
0.999289 1.041185 0.313752 120 104 101 1 18
1.372994 0.553945 0.313462 71 42 47 1 22
1.371135 0.549827 0.339043 63 42 42 1 22
1.358151 0.553186 0.326287 65 45 48 1 22
1.361678 0.552022 0.340476 53 31 33 1 22
0.857334 0.685423 0.564257 252 218 180 3 40
0.871680 1.022402 0.908892 230 222 216 1 18
0.853696 0.228304 0.883756 228 218 213 3 40
0.863870 0.250188 0.868806 252 243 242 3 40
0.858804 0.224403 0.873929 236 230 226 3 40
0.858595 0.237038 0.875647 253 251 252 3 40
0.856738 0.246379 0.879195 226 218 215 3 40
0.852813 0.243705 0.886945 222 219 216 3 40
0.858430 0.233135 0.891321 223 222 221 3 40
0.849798 0.219016 0.891870 222 221 219 3 40
0.902655 0.540257 1.239012 168 157 144 22 21
0.920298 0.519846 1.238675 183 164 155 22 21
0.821891 1.016388 0.729996 249 238 225 1 18
0.820857 1.015518 0.696950 251 239 225 1 18
0.829090 1.014201 0.680421 249 239 223 1 18
0.833007 1.010245 0.725761 249 234 218 3 40
0.824206 1.014804 0.713773 250 238 224 1 18
0.807982 1.014521 0.712458 251 239 227 1 18
0.627463 1.026115 1.000858 185 182 177 1 18
0.617293 1.026002 0.996007 124 122 119 1 18
0.610050 1.040635 0.999607 124 122 119 1 18
0.619020 1.034467 1.004034 124 122 119 1 18
0.615760 1.034406 1.017850 124 122 119 1 18
0.603383 1.030475 0.988614 186 183 175 1 18
0.865009 0.428494 0.737966 254 227 194 3 40
0.863796 0.413224 0.748547 241 197 158 3 40
0.860360 0.447550 0.751480 242 198 159 3 40
0.964703 0.408616 1.238359 181 165 150 22 21
0.952419 0.424336 1.240068 182 165 149 22 21
0.965819 0.428721 1.240878 180 166 148 22 21
0.972928 0.426542 1.238492 186 170 147 22 21
0.960923 0.448380 1.242762 181 163 150 22 21
0.969029 0.448813 1.240001 183 170 147 22 21
0.900243 0.757730 1.049304 110 100 88 40 41
0.892316 0.751151 1.044187 176 164 144 40 41
0.880007 0.724809 1.036964 109 90 76 40 41
0.885059 0.736619 1.031748 137 119 106 40 41
0.895209 0.746572 1.039105 126 106 95 40 41
0.884179 0.744476 1.036942 153 143 124 40 41
0.871749 0.721303 1.016429 118 105 94 40 41
0.894117 0.743136 1.026176 116 100 91 40 41
0.881322 0.735216 1.019315 119 105 94 40 41
0.882870 0.733309 1.047730 116 99 86 40 41
0.887923 0.307790 0.448211 223 180 147 3 40
0.861543 0.907873 0.432261 220 175 138 3 40
0.862270 0.886816 0.433069 212 166 123 3 40
0.959039 0.214118 0.808383 236 200 165 3 40
0.984988 0.214845 0.758297 253 227 199 3 40
0.992752 0.215413 0.780672 253 224 205 3 40
1.383252 0.421931 0.356608 164 148 150 1 22
1.383337 0.395266 0.363387 164 148 150 1 22
1.031375 0.216876 0.622521 253 222 185 3 40
1.005581 0.214844 0.628051 252 222 185 3 40
1.381789 0.361680 0.338533 92 71 70 1 22
1.382337 0.386878 0.343208 99 83 85 1 22
1.374846 0.366836 0.340263 144 129 129 1 22
1.394800 0.370903 0.337378 143 129 129 1 22
1.380066 0.374600 0.343102 156 142 145 1 22
0.776608 1.013252 0.999798 241 235 227 1 18
0.767357 1.013437 0.800880 251 241 230 1 18
0.769183 1.013289 0.759793 251 241 231 1 18
0.789833 1.016741 0.783875 251 241 231 1 18
1.075007 0.143331 0.528932 255 215 182 3 19
1.074058 0.158685 0.507274 253 210 169 3 19
1.077150 0.171187 0.524876 254 211 169 3 19
1.052106 0.352235 1.237681 192 173 156 22 21
1.037925 0.342306 1.235791 193 174 159 22 21
0.859826 0.555720 0.605491 254 237 209 3 40
0.853399 0.569619 0.615141 255 233 206 3 40
1.089427 0.274629 0.330069 219 211 220 0 0
1.078744 0.241031 0.329680 223 217 227 0 0
1.086488 0.250066 0.331380 229 225 235 0 0
1.093914 0.266622 0.326030 230 226 236 0 0
1.379181 0.286724 0.284010 68 54 41 0 0
1.382146 0.290479 0.305922 67 54 42 0 0
1.382359 0.284495 0.295161 70 55 43 0 0
1.386763 0.281517 0.288865 65 47 37 0 0
0.688888 1.006348 0.367890 248 244 233 1 18
0.686364 1.005861 0.342466 247 241 232 1 18
0.774667 1.012096 0.629511 253 244 233 1 18
0.780192 1.012482 0.610833 252 243 231 1 18
0.853190 0.581732 0.578016 254 226 203 3 40
0.854476 0.611635 0.600075 250 219 190 3 40
0.855118 0.615731 0.585547 255 232 201 3 40
0.948450 0.589044 0.996723 209 199 185 40 41
0.839296 1.018589 0.944650 240 235 227 1 18
1.076628 0.131026 0.797084 247 203 176 3 19
1.086625 0.213114 0.447826 254 221 194 3 40
0.856192 0.931883 0.950159 212 210 202 0 0
0.860228 0.924725 0.955620 217 213 206 0 0
0.862592 0.932139 0.948201 209 207 205 0 0
0.864921 0.946213 0.943310 210 205 199 0 0
0.870076 0.943961 0.941470 207 204 189 0 0
0.985218 0.488061 1.240817 183 168 146 22 21
0.977335 0.462582 1.241048 182 166 147 22 21
0.990740 0.470439 1.239443 184 169 153 22 21
0.970330 0.497632 1.242493 184 169 143 22 21
0.998999 0.499580 1.240352 183 166 147 22 21
0.983154 0.515269 1.242768 179 165 151 22 21
1.376787 0.478167 0.313146 189 180 178 1 22
1.383132 0.516939 0.296928 198 191 195 1 22
1.378224 0.497117 0.300438 221 217 219 1 22
1.381545 0.501296 0.310505 166 158 154 1 22
1.386307 0.503544 0.291931 213 209 209 1 22
1.386456 0.518469 0.289805 78 67 73 1 22
0.834741 0.959546 0.603590 245 207 173 3 40
0.836227 0.960510 0.570540 244 211 170 3 40
0.670476 1.005529 0.322674 248 242 233 1 18
0.666451 1.006164 0.348386 249 243 234 1 18
0.651303 1.006086 0.326026 248 242 233 1 18
1.221284 0.280236 0.272055 71 52 39 24 5
1.193127 0.280648 0.275340 67 47 37 24 5
0.837003 0.850225 0.802252 239 195 152 3 40
0.896219 0.215143 0.635794 253 225 193 3 40
0.901785 0.210570 0.611279 253 224 184 3 40
0.607196 1.046486 1.015074 124 122 119 1 18
1.034216 -0.079020 -0.159173 255 0 0 89 42
1.053316 -0.172583 -0.038303 255 0 0 89 42
0.998487 -0.154782 -0.225173 255 0 0 89 42
1.013893 -0.163752 -0.132173 255 0 0 89 42
1.036231 -0.056407 -0.072173 255 0 0 89 42
1.072142 -0.122324 -0.096173 255 0 0 89 42
1.081586 -0.132312 -0.166632 255 0 0 89 42
1.024716 -0.205309 -0.084174 255 0 0 89 42
1.012718 -0.136842 -0.075173 255 0 0 89 42
1.012313 -0.127573 -0.177173 255 0 0 89 42
1.035975 -0.119289 -0.131123 255 0 0 89 42
1.040068 -0.074067 -0.114173 255 0 0 89 42
1.054611 -0.133490 -0.058981 255 0 0 89 42
1.048697 -0.112728 -0.177173 255 0 0 89 42
1.001905 -0.164299 -0.186174 255 0 0 89 42
1.009736 -0.171483 -0.090173 255 0 0 89 42
1.069659 -0.134257 -0.132173 255 0 0 89 42
1.009131 -0.123463 -0.212430 255 0 0 89 42
1.039887 -0.140138 -0.097621 255 0 0 89 42
1.034871 -0.162776 -0.066174 255 0 0 89 42
1.035712 -0.113280 -0.078173 255 0 0 89 42
1.026925 -0.083650 -0.087173 255 0 0 89 42
1.015485 -0.135197 -0.147173 255 0 0 89 42
1.062639 -0.111021 -0.150173 255 0 0 89 42
1.067189 -0.146451 -0.081173 255 0 0 89 42
1.019107 -0.141046 -0.117173 255 0 0 89 42
1.049141 -0.145739 -0.035524 255 0 0 89 42
1.040853 -0.128085 -0.156173 255 0 0 89 42
1.040791 -0.092053 -0.136744 255 0 0 89 42
1.007574 -0.156564 -0.161056 255 0 0 89 42
1.061317 -0.109174 -0.075173 255 0 0 89 42
1.048437 -0.118745 -0.108173 255 0 0 89 42
1.062953 -0.157148 -0.057173 255 0 0 89 42
1.001050 -0.144700 -0.201173 255 0 0 89 42
1.019300 -0.150046 -0.094429 255 0 0 89 42
1.033844 -0.139263 -0.066174 255 0 0 89 42
1.031913 -0.071421 -0.138173 255 0 0 89 42
1.020771 -0.183739 -0.075173 255 0 0 89 42
1.072919 -0.140159 -0.111173 255 0 0 89 42
1.058182 -0.115316 -0.129173 255 0 0 89 42
1.081097 -0.120322 -0.144173 255 0 0 89 42
1.017787 -0.115390 -0.195173 255 0 0 89 42
1.042687 -0.135501 -0.120173 255 0 0 89 42
1.054329 -0.127004 -0.087173 255 0 0 89 42
1.018004 -0.189140 -0.094667 255 0 0 89 42
1.061743 -0.124170 -0.165173 255 0 0 89 42
1.024441 -0.130245 -0.090173 255 0 0 89 42
1.010570 -0.156432 -0.075635 255 0 0 89 42
1.004096 -0.145705 -0.180173 255 0 0 89 42
1.072098 -0.121315 -0.117173 255 0 0 89 42
1.003660 -0.135714 -0.226004 255 0 0 89 42
1.027049 -0.086648 -0.120173 255 0 0 89 42
1.039856 -0.152151 -0.051173 255 0 0 89 42
1.030331 -0.127601 -0.108173 255 0 0 89 42
1.068733 -0.129870 -0.072173 255 0 0 89 42
1.057410 -0.128825 -0.147173 255 0 0 89 42
1.044562 -0.109664 -0.156173 255 0 0 89 42
1.036824 -0.069986 -0.096173 255 0 0 89 42
1.049010 -0.142742 -0.076602 255 0 0 89 42
1.016695 -0.159168 -0.113130 255 0 0 89 42
1.017305 -0.141124 -0.165173 255 0 0 89 42
1.023250 -0.065793 -0.084174 255 0 0 89 42
1.034029 -0.074737 -0.072173 255 0 0 89 42
1.024195 -0.089775 -0.144173 255 0 0 89 42
1.032741 -0.149459 -0.081173 255 0 0 89 42
1.033695 -0.135872 -0.138173 255 0 0 89 42
1.047117 -0.168172 -0.054173 255 0 0 89 42
1.007355 -0.129547 -0.195173 255 0 0 89 42
1.060867 -0.139222 -0.097663 255 0 0 89 42
1.039048 -0.120917 -0.093173 255 0 0 89 42
1.078783 -0.136892 -0.147173 255 0 0 89 42
1.028410 -0.083585 -0.103701 255 0 0 89 42
1.059126 -0.133293 -0.117173 255 0 0 89 42
1.077804 -0.114459 -0.159277 255 0 0 89 42
1.022799 -0.122867 -0.075173 255 0 0 89 42
1.018207 -0.124992 -0.162173 255 0 0 89 42
1.042362 -0.128018 -0.076176 255 0 0 89 42
1.024407 -0.164836 -0.090173 255 0 0 89 42
1.019237 -0.148594 -0.132173 255 0 0 89 42
1.059640 -0.157292 -0.039173 255 0 0 89 42
1.059449 -0.106709 -0.165173 255 0 0 89 42
1.040717 -0.090353 -0.111173 255 0 0 89 42
1.047734 -0.113520 -0.141173 255 0 0 89 42
1.037722 -0.122216 -0.171173 255 0 0 89 42
1.072817 -0.117680 -0.081173 255 0 0 89 42
1.043907 -0.079906 -0.147173 255 0 0 89 42
1.048487 -0.130754 -0.133675 255 0 0 89 42
0.998638 -0.158253 -0.210173 255 0 0 89 42
1.049465 -0.153172 -0.063173 255 0 0 89 42
1.058132 -0.145348 -0.048548 255 0 0 89 42
1.042963 -0.161024 -0.039173 255 0 0 89 42
1.065307 -0.145034 -0.066174 255 0 0 89 42
1.050699 -0.112640 -0.085158 255 0 0 89 42
1.043711 -0.090143 -0.159173 255 0 0 89 42
1.024555 -0.167833 -0.075173 255 0 0 89 42
1.043038 -0.079943 -0.129173 255 0 0 89 42
1.071962 -0.118216 -0.132173 255 0 0 89 42
1.025412 -0.083716 -0.169505 255 0 0 89 42
1.026494 -0.143725 -0.105173 255 0 0 89 42
1.029544 -0.131581 -0.123173 255 0 0 89 42
1.051544 -0.132016 -0.105173 255 0 0 89 42
1.070341 -0.132803 -0.087173 255 0 0 89 42
1.041969 -0.119027 -0.187617 255 0 0 89 42
1.041550 -0.083011 -0.099173 255 0 0 89 42
1.070990 -0.129771 -0.156173 255 0 0 89 42
1.019777 -0.129004 -0.189173 255 0 0 89 42
1.030743 -0.194589 -0.078173 255 0 0 89 42
1.015269 -0.195265 -0.082761 255 0 0 89 42
1.004626 -0.157831 -0.174173 255 0 0 89 42
1.002457 -0.144775 -0.216173 255 0 0 89 42
1.035265 -0.122323 -0.144173 255 0 0 89 42
1.042884 -0.140007 -0.055973 255 0 0 89 42
1.040023 -0.074461 -0.084174 255 0 0 89 42
1.010120 -0.146102 -0.084174 255 0 0 89 42
1.011356 -0.174415 -0.077434 255 0 0 89 42
1.039027 -0.120428 -0.117173 255 0 0 89 42
1.063017 -0.119673 -0.105173 255 0 0 89 42
1.007985 -0.135525 -0.207173 255 0 0 89 42
1.030739 -0.074475 -0.123173 255 0 0 89 42
1.021058 -0.176994 -0.087173 255 0 0 89 42
1.072202 -0.123713 -0.172592 255 0 0 89 42
1.051876 -0.139614 -0.088638 255 0 0 89 42
1.032561 -0.134452 -0.081173 255 0 0 89 42
1.023860 -0.056758 -0.075173 255 0 0 89 42
1.054313 -0.126659 -0.072173 255 0 0 89 42
1.053935 -0.118009 -0.096173 255 0 0 89 42
1.031465 -0.084794 -0.132173 255 0 0 89 42
1.028040 -0.152667 -0.069173 255 0 0 89 42
1.077304 -0.138504 -0.123173 255 0 0 89 42
1.027945 -0.072940 -0.150173 255 0 0 89 42
1.013175 -0.147310 -0.154810 255 0 0 89 42
1.041520 -0.177529 -0.060173 255 0 0 89 42
1.040280 -0.149130 -0.070591 255 0 0 89 42
1.012353 -0.159357 -0.090173 255 0 0 89 42
1.024135 -0.086774 -0.156173 255 0 0 89 42
1.041502 -0.108331 -0.168173 255 0 0 89 42
1.014281 -0.138253 -0.183173 255 0 0 89 42
1.059914 -0.117397 -0.117173 255 0 0 89 42
1.017905 -0.118092 -0.183173 255 0 0 89 42
1.078851 -0.126425 -0.126173 255 0 0 89 42
1.051154 -0.123076 -0.171173 255 0 0 89 42
1.031222 -0.147984 -0.093173 255 0 0 89 42
1.001510 -0.155248 -0.195173 255 0 0 89 42
1.072653 -0.134075 -0.099173 255 0 0 89 42
1.061129 -0.145216 -0.036394 255 0 0 89 42
1.040715 -0.090309 -0.123173 255 0 0 89 42
1.062771 -0.115116 -0.087173 255 0 0 89 42
1.007138 -0.146613 -0.168173 255 0 0 89 42
1.021905 -0.140923 -0.085546 255 0 0 89 42
1.082336 -0.126273 -0.156173 255 0 0 89 42
1.059109 -0.167717 -0.054173 255 0 0 89 42
1.049697 -0.158491 -0.048173 255 0 0 89 42
1.039688 -0.135561 -0.108173 255 0 0 89 42
1.046730 -0.115817 -0.129173 255 0 0 89 42
1.011748 -0.183406 -0.085545 255 0 0 89 42
1.016533 -0.126144 -0.204174 255 0 0 89 42
1.004080 -0.138698 -0.189173 255 0 0 89 42
1.013699 -0.159298 -0.142666 255 0 0 89 42
1.035323 -0.209403 -0.084174 255 0 0 89 42
1.043277 -0.130981 -0.090173 255 0 0 89 42
1.044388 -0.174433 -0.045173 255 0 0 89 42
1.069528 -0.131240 -0.144173 255 0 0 89 42
1.068812 -0.114852 -0.165945 255 0 0 89 42
1.020098 -0.134996 -0.174173 255 0 0 89 42
1.066721 -0.135731 -0.060173 255 0 0 89 42
1.024017 -0.077771 -0.078173 255 0 0 89 42
1.030822 -0.138831 -0.114173 255 0 0 89 42
1.059893 -0.116915 -0.174173 255 0 0 89 42
1.030935 -0.072643 -0.105173 255 0 0 89 42
1.030027 -0.120636 -0.084174 255 0 0 89 42
1.027962 -0.142099 -0.126173 255 0 0 89 42
1.045420 -0.129288 -0.144173 255 0 0 89 42
1.051287 -0.126117 -0.159173 255 0 0 89 42
1.075675 -0.126564 -0.108173 255 0 0 89 42
1.034464 -0.084713 -0.144173 255 0 0 89 42
1.079461 -0.129401 -0.138173 255 0 0 89 42
1.047111 -0.109794 -0.075173 255 0 0 89 42
1.023811 -0.155855 -0.081173 255 0 0 89 42
1.070050 -0.143228 -0.093173 255 0 0 89 42
1.033423 -0.149429 -0.060173 255 0 0 89 42
1.045852 -0.130869 -0.066174 255 0 0 89 42
1.071809 -0.114721 -0.145128 255 0 0 89 42
1.033565 -0.064105 -0.081173 255 0 0 89 42
1.063296 -0.126081 -0.081173 255 0 0 89 42
1.019431 -0.153043 -0.121620 255 0 0 89 42
1.027530 -0.074615 -0.093173 255 0 0 89 42
1.021825 -0.139096 -0.096173 255 0 0 89 42
1.009654 -0.135452 -0.170329 255 0 0 89 42
1.025243 -0.191826 -0.087173 255 0 0 89 42
1.015311 -0.165234 -0.081173 255 0 0 89 42
1.063399 -0.128447 -0.096173 255 0 0 89 42
1.041508 -0.143070 -0.084174 255 0 0 89 42
1.034404 -0.083323 -0.079729 255 0 0 89 42
1.038922 -0.122163 -0.105173 255 0 0 89 42
1.016958 -0.165162 -0.097671 255 0 0 89 42
1.037806 -0.161249 -0.056182 255 0 0 89 42
1.027970 -0.142286 -0.075173 255 0 0 89 42
1.038060 -0.116195 -0.162173 255 0 0 89 42
1.018207 -0.150093 -0.108173 255 0 0 89 42
1.055196 -0.146870 -0.069173 255 0 0 89 42
1.009524 -0.132455 -0.217628 255 0 0 89 42
0.999611 -0.144899 -0.228173 255 0 0 89 42
1.021513 -0.131932 -0.079780 255 0 0 89 42
1.033500 -0.131408 -0.094815 255 0 0 89 42
1.038731 -0.071123 -0.147173 255 0 0 89 42
1.057541 -0.131820 -0.129173 255 0 0 89 42
1.062779 -0.114209 -0.138173 255 0 0 89 42
1.063664 -0.134507 -0.108173 255 0 0 89 42
1.038053 -0.134212 -0.129173 255 0 0 89 42
1.044966 -0.118897 -0.079678 255 0 0 89 42
1.018646 -0.135059 -0.157218 255 0 0 89 42
1.001448 -0.153828 -0.185283 255 0 0 89 42
1.068261 -0.135896 -0.120173 255 0 0 89 42
1.024758 -0.068730 -0.074450 255 0 0 89 42
1.045472 -0.151905 -0.042173 255 0 0 89 42
1.064126 -0.145085 -0.056477 255 0 0 89 42
1.037333 -0.081625 -0.090173 255 0 0 89 42
1.038735 -0.113752 -0.147173 255 0 0 89 42
1.025133 -0.077300 -0.162173 255 0 0 89 42
1.041262 -0.074015 -0.138173 255 0 0 89 42
1.057931 -0.140745 -0.081173 255 0 0 89 42
1.061150 -0.130201 -0.066174 255 0 0 89 42
1.018059 -0.121612 -0.171173 255 0 0 89 42
1.023994 -0.134826 -0.108173 255 0 0 89 42
1.078147 -0.122347 -0.165173 255 0 0 89 42
1.011568 -0.123358 -0.189173 255 0 0 89 42
1.067934 -0.138913 -0.075173 255 0 0 89 42
1.050880 -0.116812 -0.120173 255 0 0 89 42
1.053587 -0.110043 -0.153173 255 0 0 89 42
1.030267 -0.077498 -0.114173 255 0 0 89 42
1.049856 -0.127691 -0.096173 255 0 0 89 42
1.040725 -0.090542 -0.150173 255 0 0 89 42
1.014615 -0.180278 -0.094639 255 0 0 89 42
1.008007 -0.138527 -0.198173 255 0 0 89 42
1.060540 -0.131709 -0.138173 255 0 0 89 42
1.081782 -0.136781 -0.156173 255 0 0 89 42
1.061858 -0.127168 -0.156173 255 0 0 89 42
1.041490 -0.083014 -0.117173 255 0 0 89 42
1.052923 -0.163592 -0.035577 255 0 0 89 42
1.026932 -0.155718 -0.090173 255 0 0 89 42
1.014853 -0.116962 -0.204174 255 0 0 89 42
1.052793 -0.160595 -0.058646 255 0 0 89 42
1.032257 -0.171710 -0.066174 255 0 0 89 42
1.050114 -0.133686 -0.114173 255 0 0 89 42
1.039212 -0.124644 -0.084174 255 0 0 89 42
1.076254 -0.129542 -0.117173 255 0 0 89 42
1.050257 -0.106654 -0.165173 255 0 0 89 42
1.039167 -0.123634 -0.180173 255 0 0 89 42
1.006635 -0.126575 -0.204174 255 0 0 89 42
1.036498 -0.131277 -0.145630 255 0 0 89 42
1.005617 -0.147640 -0.192173 255 0 0 89 42
1.039527 -0.068085 -0.075173 255 0 0 89 42
1.051876 -0.139614 -0.052797 255 0 0 89 42
1.052530 -0.154601 -0.034172 255 0 0 89 42
1.006152 -0.156626 -0.084174 255 0 0 89 42
1.042491 -0.131016 -0.100873 255 0 0 89 42
1.039972 -0.073299 -0.123173 255 0 0 89 42
1.059169 -0.154310 -0.048173 255 0 0 89 42
1.065577 -0.109520 -0.159173 255 0 0 89 42
1.046144 -0.145871 -0.049686 255 0 0 89 42
1.039945 -0.072679 -0.105173 255 0 0 89 42
1.010104 -0.145759 -0.075173 255 0 0 89 42
1.063002 -0.119344 -0.096173 255 0 0 89 42
1.041503 -0.083014 -0.138173 255 0 0 89 42
1.030687 -0.135735 -0.102173 255 0 0 89 42
1.006600 -0.165614 -0.084174 255 0 0 89 42
1.034813 -0.125345 -0.162173 255 0 0 89 42
1.014135 -0.135256 -0.192173 255 0 0 89 42
1.040602 -0.156508 -0.063173 255 0 0 89 42
1.030884 -0.071466 -0.085356 255 0 0 89 42
1.012973 -0.142699 -0.174173 255 0 0 89 42
1.028745 -0.160046 -0.075173 255 0 0 89 42
1.040859 -0.110067 -0.180173 255 0 0 89 42
1.066662 -0.117949 -0.123173 255 0 0 89 42
1.043352 -0.081928 -0.156173 255 0 0 89 42
1.070485 -0.111776 -0.075173 255 0 0 89 42
1.016061 -0.153190 -0.084174 255 0 0 89 42
1.027382 -0.080627 -0.141173 255 0 0 89 42
1.058456 -0.152760 -0.063173 255 0 0 89 42
1.039628 -0.167175 -0.045173 255 0 0 89 42
1.009610 -0.138457 -0.162173 255 0 0 89 42
1.007803 -0.132530 -0.183173 255 0 0 89 42
1.036574 -0.133035 -0.072173 255 0 0 89 42
1.055812 -0.133437 -0.093173 255 0 0 89 42
1.056895 -0.116994 -0.081173 255 0 0 89 42
1.030846 -0.139368 -0.093173 255 0 0 89 42
1.056051 -0.166458 -0.043601 255 0 0 89 42
1.056675 -0.111967 -0.144173 255 0 0 89 42
1.049438 -0.118701 -0.183173 255 0 0 89 42
1.073492 -0.123657 -0.087173 255 0 0 89 42
1.045040 -0.120571 -0.099173 255 0 0 89 42
1.045159 -0.123312 -0.165173 255 0 0 89 42
1.063924 -0.140456 -0.087173 255 0 0 89 42
1.061194 -0.146688 -0.075173 255 0 0 89 42
1.051545 -0.132029 -0.123173 255 0 0 89 42
1.022690 -0.158906 -0.097634 255 0 0 89 42
1.075786 -0.137027 -0.138173 255 0 0 89 42
1.082450 -0.129271 -0.147173 255 0 0 89 42
1.013528 -0.155397 -0.135174 255 0 0 89 42
1.034467 -0.084768 -0.111173 255 0 0 89 42
1.071708 -0.112416 -0.153173 255 0 0 89 42
1.038829 -0.115887 -0.138173 255 0 0 89 42
0.998387 -0.152480 -0.216173 255 0 0 89 42
1.034467 -0.084759 -0.153173 255 0 0 89 42
1.035224 -0.128330 -0.135174 255 0 0 89 42
1.034466 -0.084730 -0.123173 255 0 0 89 42
1.018334 -0.127912 -0.153173 255 0 0 89 42
1.073967 -0.129642 -0.165173 255 0 0 89 42
1.031861 -0.128477 -0.087173 255 0 0 89 42
1.023767 -0.149850 -0.114173 255 0 0 89 42
1.016758 -0.160600 -0.123173 255 0 0 89 42
1.064453 -0.152575 -0.069173 255 0 0 89 42
1.001379 -0.152262 -0.204174 255 0 0 89 42
1.038199 -0.170240 -0.058740 255 0 0 89 42
1.038058 -0.119198 -0.153173 255 0 0 89 42
1.033881 -0.071334 -0.130305 255 0 0 89 42
1.023245 -0.197919 -0.081173 255 0 0 89 42
1.024454 -0.199291 -0.090173 255 0 0 89 42
1.006487 -0.138593 -0.177173 255 0 0 89 42
1.041184 -0.080024 -0.108173 255 0 0 89 42
1.014467 -0.138245 -0.084174 255 0 0 89 42
1.033224 -0.125069 -0.120173 255 0 0 89 42
1.041854 -0.116415 -0.087173 255 0 0 89 42
1.024641 -0.134798 -0.117719 255 0 0 89 42
1.019565 -0.129014 -0.180173 255 0 0 89 42
1.019010 -0.143408 -0.126173 255 0 0 89 42
1.063209 -0.124106 -0.088832 255 0 0 89 42
1.053565 -0.109513 -0.171750 255 0 0 89 42
1.018169 -0.124131 -0.195173 255 0 0 89 42
1.026948 -0.187666 -0.078173 255 0 0 89 42
1.034273 -0.080326 -0.097726 255 0 0 89 42
1.020347 -0.174023 -0.094420 255 0 0 89 42
1.002916 -0.135747 -0.213173 255 0 0 89 42
1.048273 -0.125855 -0.081173 255 0 0 89 42
1.038793 -0.115075 -0.174173 255 0 0 89 42
1.077892 -0.116488 -0.150173 255 0 0 89 42
1.031681 -0.158514 -0.060466 255 0 0 89 42
1.078588 -0.132443 -0.131065 255 0 0 89 42
1.048151 -0.123078 -0.090173 255 0 0 89 42
1.019489 -0.132019 -0.165173 255 0 0 89 42
1.030979 -0.056447 -0.078173 255 0 0 89 42
1.027218 -0.080634 -0.150173 255 0 0 89 42
1.024248 -0.125807 -0.083587 255 0 0 89 42
1.083996 -0.118769 -0.156173 255 0 0 89 42
1.035977 -0.155323 -0.069173 255 0 0 89 42
1.045808 -0.138181 -0.093173 255 0 0 89 42
1.052344 -0.150346 -0.045173 255 0 0 89 42
1.040213 -0.147610 -0.078173 255 0 0 89 42
1.047772 -0.148803 -0.069173 255 0 0 89 42
1.012152 -0.141349 -0.150173 255 0 0 89 42
1.027407 -0.080626 -0.126173 255 0 0 89 42
1.047059 -0.166851 -0.043566 255 0 0 89 42
1.028015 -0.164679 -0.069173 255 0 0 89 42
1.035252 -0.137337 -0.120173 255 0 0 89 42
1.028473 -0.085035 -0.162173 255 0 0 89 42
1.057478 -0.130361 -0.100717 255 0 0 89 42
1.013175 -0.147310 -0.163615 255 0 0 89 42
1.012010 -0.120625 -0.198173 255 0 0 89 42
1.037009 -0.074201 -0.153872 255 0 0 89 42
1.007084 -0.177604 -0.084174 255 0 0 89 42
1.053762 -0.114027 -0.135174 255 0 0 89 42
1.060843 -0.138677 -0.054173 255 0 0 89 42
1.029629 -0.116563 -0.075173 255 0 0 89 42
1.015446 -0.130550 -0.198173 255 0 0 89 42
1.022019 -0.182959 -0.093173 255 0 0 89 42
1.034477 -0.125361 -0.099173 255 0 0 89 42
1.055840 -0.161605 -0.051173 255 0 0 89 42
1.019170 -0.147048 -0.101307 255 0 0 89 42
1.078100 -0.121271 -0.135174 255 0 0 89 42
1.010919 -0.164418 -0.075173 255 0 0 89 42
1.043343 -0.161007 -0.051173 255 0 0 89 42
1.018275 -0.177116 -0.078173 255 0 0 89 42
1.030647 -0.203602 -0.079994 255 0 0 89 42
1.068974 -0.118562 -0.090173 255 0 0 89 42
1.027114 -0.083641 -0.111173 255 0 0 89 42
1.065684 -0.111986 -0.081095 255 0 0 89 42
1.039698 -0.135827 -0.063173 255 0 0 89 42
1.028605 -0.088060 -0.138173 255 0 0 89 42
1.053565 -0.109513 -0.078791 255 0 0 89 42
1.034083 -0.144744 -0.087173 255 0 0 89 42
1.045025 -0.120269 -0.174173 255 0 0 89 42
1.051282 -0.126019 -0.150173 255 0 0 89 42
1.042556 -0.132481 -0.138173 255 0 0 89 42
1.030296 -0.077497 -0.132173 255 0 0 89 42
1.066399 -0.128356 -0.150173 255 0 0 89 42
1.063667 -0.134571 -0.126173 255 0 0 89 42
1.020523 -0.071918 -0.081173 255 0 0 89 42
1.037199 -0.068187 -0.087173 255 0 0 89 42
1.066019 -0.119632 -0.171173 255 0 0 89 42
1.008769 -0.150505 -0.177173 255 0 0 89 42
1.008455 -0.144513 -0.186174 255 0 0 89 42
1.067851 -0.126906 -0.162173 255 0 0 89 42
1.056955 -0.118373 -0.109089 255 0 0 89 42
1.069859 -0.138830 -0.083030 255 0 0 89 42
1.016172 -0.147179 -0.088454 255 0 0 89 42
1.062687 -0.112117 -0.168911 255 0 0 89 42
1.025093 -0.145157 -0.120173 255 0 0 89 42
1.066524 -0.131228 -0.102173 255 0 0 89 42
1.013759 -0.129267 -0.210173 255 0 0 89 42
0.999718 -0.147898 -0.210173 255 0 0 89 42
1.015069 -0.156236 -0.096173 255 0 0 89 42
1.037596 -0.087657 -0.129173 255 0 0 89 42
1.024100 -0.182868 -0.084174 255 0 0 89 42
1.084939 -0.123157 -0.162173 255 0 0 89 42
1.008889 -0.156505 -0.168173 255 0 0 89 42
1.054018 -0.119881 -0.177173 255 0 0 89 42
1.018004 -0.189140 -0.080111 255 0 0 89 42
1.022297 -0.149914 -0.085708 255 0 0 89 42
1.037021 -0.143266 -0.058557 255 0 0 89 42
1.030282 -0.146563 -0.066174 255 0 0 89 42
1.055135 -0.145478 -0.040283 255 0 0 89 42
1.030884 -0.071466 -0.156497 255 0 0 89 42
1.013653 -0.129272 -0.168173 255 0 0 89 42
1.033916 -0.072135 -0.117173 255 0 0 89 42
1.038970 -0.119158 -0.124127 255 0 0 89 42
1.005401 -0.141643 -0.210173 255 0 0 89 42
1.073721 -0.132655 -0.111173 255 0 0 89 42
1.066007 -0.119382 -0.114173 255 0 0 89 42
1.020086 -0.168028 -0.085553 255 0 0 89 42
1.039302 -0.086112 -0.105173 255 0 0 89 42
1.044442 -0.106908 -0.174407 255 0 0 89 42
1.063561 -0.132119 -0.090173 255 0 0 89 42
1.075655 -0.134061 -0.153173 255 0 0 89 42
1.004860 -0.132659 -0.201173 255 0 0 89 42
1.019693 -0.159037 -0.085863 255 0 0 89 42
1.004983 -0.138659 -0.219173 255 0 0 89 42
1.069203 -0.120841 -0.108173 255 0 0 89 42
1.040934 -0.164115 -0.061668 255 0 0 89 42
1.026194 -0.149744 -0.075173 255 0 0 89 42
1.045620 -0.133882 -0.059960 255 0 0 89 42
1.005128 -0.129645 -0.210173 255 0 0 89 42
1.027405 -0.129352 -0.114173 255 0 0 89 42
1.018727 -0.136917 -0.090173 255 0 0 89 42
1.044673 -0.112172 -0.081173 255 0 0 89 42
1.034952 -0.125339 -0.153173 255 0 0 89 42
1.050829 -0.115638 -0.077286 255 0 0 89 42
1.027637 -0.134667 -0.086000 255 0 0 89 42
1.038080 -0.077157 -0.078173 255 0 0 89 42
1.044185 -0.154965 -0.036173 255 0 0 89 42
1.032989 -0.122423 -0.090173 255 0 0 89 42
1.002534 -0.141769 -0.195173 255 0 0 89 42
1.070117 -0.132812 -0.078173 255 0 0 89 42
1.055894 -0.115417 -0.090173 255 0 0 89 42
1.056505 -0.108068 -0.159173 255 0 0 89 42
1.074100 -0.120627 -0.126173 255 0 0 89 42
1.044969 -0.118992 -0.114173 255 0 0 89 42
1.057276 -0.125758 -0.093173 255 0 0 89 42
1.057255 -0.125288 -0.078173 255 0 0 89 42
1.027565 -0.062601 -0.075173 255 0 0 89 42
1.016490 -0.154463 -0.129173 255 0 0 89 42
1.056966 -0.118643 -0.102173 255 0 0 89 42
