ply
format ascii 1.0
element vertex 1117
property float x
property float y
property float z
property uchar red
property uchar green
property uchar blue
property uchar semantic_label
property uchar instance_label
end_header
0.593974 0.120186 -0.293912 26 24 23 14 7
0.592343 0.106673 -0.303425 27 24 26 14 7
0.593235 0.132370 -0.292006 51 43 42 14 7
0.759540 -0.062864 -0.338205 47 41 40 14 7
0.752947 -0.069044 -0.341484 47 41 40 14 7
0.946030 0.171073 -0.312575 146 131 118 14 7
0.970423 0.168889 -0.313672 167 146 126 14 7
0.812129 0.239863 -0.268779 162 46 34 0 0
0.811517 0.225917 -0.268517 139 88 78 14 7
0.319237 0.374489 -0.266968 147 141 128 0 0
0.309682 0.363284 -0.254968 137 130 118 0 0
0.306871 0.357411 -0.243609 117 112 100 0 0
0.297630 0.354262 -0.229616 156 152 137 0 0
0.314896 0.375366 -0.246239 154 147 131 0 0
0.317716 0.373559 -0.258467 155 147 132 0 0
0.307182 0.384649 -0.255597 164 157 138 0 0
1.251122 0.175963 -0.301775 145 138 132 0 0
1.257825 0.155844 -0.298772 121 117 112 0 0
0.320725 0.500571 0.085431 87 85 67 0 0
0.312213 0.487992 0.092059 85 83 66 0 0
0.321437 0.493109 0.093901 77 73 59 0 0
0.928232 0.461770 -0.284274 62 59 54 0 0
0.791847 0.371867 -0.009858 236 230 223 0 0
0.792332 0.400841 -0.003807 232 225 214 0 0
0.782761 0.379175 -0.008108 224 225 220 0 0
0.675211 0.163397 -0.289135 97 94 94 0 0
0.668812 0.170444 -0.275661 171 164 164 0 0
0.658078 0.158429 -0.273636 192 186 186 0 0
0.659098 0.151941 -0.279278 182 176 175 0 0
0.670279 0.147630 -0.294488 215 213 218 0 0
0.645459 0.150518 -0.298175 254 253 254 0 0
0.672479 0.152052 -0.291592 97 92 91 0 0
1.278964 0.188763 -0.115979 193 145 72 9 4
1.261303 0.158439 -0.118118 194 145 76 9 4
1.274801 0.156873 -0.116732 194 145 74 9 4
0.628867 0.091340 -0.307472 214 191 171 14 7
0.660001 0.091815 -0.308206 212 191 171 14 7
0.624368 0.081761 -0.306966 213 190 171 14 7
0.631224 0.112877 -0.307155 213 190 168 14 7
0.537140 0.085065 -0.305709 204 181 160 14 7
1.078629 0.242461 -0.328999 150 132 116 14 7
1.083473 0.247234 -0.334512 153 134 114 14 7
0.504280 -0.192993 -0.338987 82 70 64 14 7
0.870963 0.282164 -0.037769 95 89 81 0 0
0.322271 0.462891 0.089453 92 88 77 0 0
0.347293 0.479863 0.101866 119 119 116 0 0
0.328889 0.458163 0.111287 140 133 123 0 0
0.323695 0.455137 0.104207 109 105 96 0 0
0.337965 0.465835 0.093148 95 89 80 0 0
0.347494 0.457453 0.105684 55 54 51 0 0
0.345936 0.459365 0.100917 44 44 40 0 0
0.545638 0.455345 -0.297715 164 146 125 14 7
0.985358 0.411911 -0.138348 159 152 142 0 0
0.974316 0.424658 -0.131957 69 66 51 0 0
0.979285 0.419347 -0.119569 69 69 55 0 0
0.957812 0.441431 -0.118873 67 67 54 0 0
0.589454 0.395026 -0.299976 185 166 145 14 7
0.608390 0.426288 -0.299330 188 166 143 14 7
0.978824 0.302715 -0.243594 50 38 34 14 7
0.992197 0.290528 -0.252630 63 54 43 14 7
1.002722 0.277409 -0.255170 87 70 59 14 7
0.994761 0.307367 -0.266782 36 25 21 14 7
0.981424 0.318151 -0.266517 35 24 21 14 7
0.993891 0.307611 -0.270810 55 38 35 14 7
0.998801 0.315873 -0.249849 53 38 35 0 0
0.986225 0.304321 -0.241672 50 38 33 0 0
0.988270 0.290254 -0.236996 69 58 53 0 0
0.729700 0.426831 -0.001032 183 178 173 0 0
0.701176 0.420238 -0.017642 89 87 76 0 0
0.713863 0.429865 -0.010626 89 87 76 0 0
0.721447 0.436274 -0.004058 157 148 139 0 0
0.713009 0.424306 -0.007393 142 133 125 0 0
0.810603 0.373275 -0.257452 93 80 64 0 0
0.840023 0.187956 -0.304949 38 30 27 14 7
0.822971 0.191138 -0.309500 121 108 97 0 0
0.831104 0.203411 -0.306750 44 36 33 14 7
0.814699 0.217348 -0.309501 43 34 27 0 0
1.267627 0.304199 -0.230268 174 165 162 0 0
1.267368 0.329112 -0.225990 175 168 162 0 0
1.269337 0.320084 -0.211405 172 143 136 0 0
1.100750 0.265381 -0.334675 117 102 86 14 7
0.954650 0.466471 0.075590 155 149 143 0 0
0.933527 0.506499 0.073565 165 154 149 0 0
0.960515 0.497101 0.065629 157 151 147 0 0
0.961509 0.482995 0.071265 211 202 198 0 0
0.321621 0.365520 -0.293305 119 108 92 0 0
0.310069 0.360164 -0.279997 136 130 112 0 0
0.527369 -0.217353 -0.420215 57 55 57 14 7
0.531968 -0.220810 -0.398212 56 54 59 14 7
1.077327 0.296838 -0.002036 235 219 212 0 0
1.097534 0.312412 0.012796 230 221 214 0 0
1.075591 0.309347 0.003186 240 226 219 0 0
1.092920 0.305978 -0.001384 236 220 212 0 0
1.086496 0.302335 -0.006629 238 217 210 0 0
1.069777 0.300147 0.001193 249 228 220 0 0
1.076654 0.291032 -0.007486 230 216 209 0 0
1.019712 0.376318 -0.165242 65 60 49 0 0
0.994452 0.402272 -0.175002 64 60 50 0 0
1.005331 0.391928 -0.146748 73 66 57 0 0
0.666426 -0.148099 -0.333279 51 50 46 14 7
1.005436 0.223353 -0.305408 96 88 79 14 7
0.342680 0.086345 -0.530440 38 39 39 0 0
0.953449 0.337362 -0.309618 92 75 61 0 0
0.925713 0.317378 -0.307979 96 81 67 14 7
0.947773 0.328418 -0.309038 92 74 63 14 7
0.954700 0.198592 -0.019079 178 156 145 0 0
0.942885 0.194112 -0.031968 251 219 206 0 0
0.952438 0.195569 -0.027177 204 95 83 0 0
0.810860 0.337161 0.005273 226 126 117 0 0
0.802635 0.354289 0.005569 229 133 124 0 0
0.767949 0.330754 0.005633 232 89 83 0 0
1.029687 0.369018 -0.011297 89 81 71 0 0
1.016002 0.367936 -0.013963 55 47 43 0 0
0.994294 0.356410 0.002665 57 50 47 0 0
1.018602 0.349542 -0.005383 132 122 113 0 0
1.014358 0.353720 0.003337 142 127 116 0 0
1.013316 0.366630 0.003293 19 14 10 0 0
0.997486 0.366046 0.004169 47 38 33 0 0
1.018451 0.372228 -0.001647 86 77 66 0 0
1.023737 0.360932 -0.014897 160 150 141 0 0
1.016464 0.352591 -0.011845 108 99 94 0 0
1.003151 0.356907 -0.007988 46 41 38 0 0
0.348882 0.461279 0.108930 53 50 46 0 0
0.365006 0.457990 0.101884 16 14 16 0 0
0.362730 0.473297 0.105029 66 59 53 0 0
0.381651 0.472955 0.105832 42 38 39 0 0
0.369328 0.460582 0.109866 41 38 38 0 0
0.364138 0.467548 0.093413 18 17 16 0 0
0.388502 0.001531 -0.305010 246 241 248 14 7
0.398041 0.017536 -0.304156 244 239 247 14 7
0.667458 0.303529 -0.289337 219 208 196 0 0
0.680652 0.325813 -0.288392 220 209 197 0 0
0.663773 0.327548 -0.288858 221 209 198 0 0
0.608695 0.302735 -0.302233 181 161 141 14 7
1.250796 0.287589 -0.301880 106 99 91 0 0
0.990886 0.394927 -0.308221 82 73 58 0 0
0.962390 0.407301 -0.309038 90 75 60 0 0
1.011636 0.299564 0.015090 200 138 124 0 0
1.005450 0.288708 0.012318 198 137 123 0 0
1.028653 0.302088 0.008536 216 166 156 0 0
1.012663 0.342874 0.022496 227 121 110 0 0
1.006437 0.375678 0.032833 221 175 160 0 0
0.869641 0.244032 0.014997 178 134 142 0 0
0.873780 0.223278 0.010468 239 227 217 0 0
0.759069 0.424114 -0.279896 163 150 51 0 0
0.754378 0.425983 -0.293828 130 116 17 0 0
0.749671 0.424629 -0.298756 128 114 19 14 7
0.753820 0.409602 -0.290518 119 105 10 0 0
0.846228 0.537454 -0.053375 117 105 98 0 0
0.854214 0.543189 -0.064294 108 97 91 0 0
0.860490 0.520959 -0.062616 91 82 75 0 0
0.602465 -0.040737 -0.468572 45 41 42 0 0
0.607938 -0.026543 -0.485063 55 48 42 0 0
0.603971 -0.046385 -0.462514 46 38 31 0 0
0.542693 -0.159307 -0.310992 223 202 180 14 7
0.493625 0.138583 -0.303697 205 183 164 14 7
0.690661 0.519900 -0.271197 54 60 88 0 0
0.468874 -0.091836 -0.308814 225 202 178 14 7
0.339979 0.517856 -0.049125 93 88 76 0 0
0.551012 0.212314 -0.292295 24 23 22 14 7
0.540645 0.221899 -0.299590 32 25 22 14 7
0.756391 0.346825 -0.002684 241 228 217 0 0
0.749550 0.351579 -0.005628 245 235 226 0 0
0.744843 0.366099 -0.000903 226 224 222 0 0
0.764674 0.339743 0.003916 243 230 221 0 0
0.396084 0.423332 -0.295839 182 159 135 14 7
0.788176 0.410409 0.041867 251 247 246 0 0
0.814690 0.396232 0.044670 251 246 246 0 0
0.777483 0.411922 0.028926 18 16 17 0 0
0.789002 0.407191 0.027374 191 186 187 0 0
0.780057 0.417664 0.023955 65 63 64 0 0
0.388806 0.075732 -0.453182 61 51 41 0 0
0.403313 0.076690 -0.455474 54 46 33 0 0
0.414781 0.076542 -0.456495 41 34 25 0 0
0.343945 -0.053692 -0.310070 217 196 166 14 7
0.343551 -0.039449 -0.331742 211 189 160 0 0
0.331154 -0.048847 -0.322951 215 192 163 14 7
0.314687 -0.036113 -0.324484 207 184 155 14 7
0.323209 -0.037200 -0.307727 209 188 163 14 7
0.914954 0.281917 0.014070 42 35 35 0 0
0.938438 0.310298 -0.004900 27 27 30 0 0
0.922325 0.301539 0.001443 35 40 53 0 0
0.824963 0.435813 0.050982 247 241 243 0 0
0.959370 0.430953 -0.252243 71 70 60 0 0
0.840603 0.245519 -0.287733 114 92 76 14 7
0.872574 0.227220 -0.295209 155 148 138 14 7
0.852590 0.208271 -0.282923 107 101 93 14 7
0.864624 0.239139 -0.296203 96 86 75 14 7
1.034043 0.358654 -0.104228 90 85 74 0 0
1.257907 0.240572 -0.308315 68 62 52 0 0
1.251936 0.254240 -0.302563 120 115 105 0 0
1.257228 0.241904 -0.302409 110 104 97 0 0
0.359843 0.112853 -0.302938 220 209 218 14 7
0.348707 0.103455 -0.303484 227 216 226 14 7
0.672396 0.044305 -0.309296 208 185 164 14 7
0.437631 -0.103812 -0.308851 222 201 177 14 7
0.467948 -0.109640 -0.308648 222 201 177 14 7
0.468479 -0.135683 -0.309801 222 201 177 14 7
0.907742 0.265439 0.018942 215 208 201 0 0
0.931491 0.242055 0.018860 232 224 214 0 0
0.902889 0.353201 0.030331 34 31 33 0 0
0.930343 0.376790 0.048112 41 38 39 0 0
0.912190 0.370509 0.050828 42 39 40 0 0
0.909359 0.353187 0.044194 38 37 38 0 0
0.905374 0.357486 0.038345 37 35 34 0 0
0.915381 0.356391 0.045588 28 26 27 0 0
0.912598 0.344834 0.012892 38 38 39 0 0
0.918279 0.376238 0.029431 132 122 111 0 0
0.907425 0.372617 0.044628 147 138 123 0 0
0.931488 0.357453 0.037204 41 39 40 0 0
0.888747 0.239633 0.018664 232 211 202 0 0
0.875561 0.234596 0.017455 243 233 225 0 0
0.632445 -0.101600 -0.312167 232 210 187 14 7
0.334671 0.087087 -0.476779 57 52 49 0 0
0.341244 0.076382 -0.470701 54 48 45 0 0
0.342606 0.070260 -0.476770 41 40 37 0 0
0.345226 0.069976 -0.489578 36 37 34 0 0
0.360802 0.075865 -0.475133 69 61 56 0 0
0.346315 0.138592 -0.301802 218 206 217 14 7
1.260406 0.148192 -0.251455 187 174 163 0 0
1.263133 0.128774 -0.249165 156 146 135 0 0
0.432260 0.486532 0.080230 17 15 16 0 0
0.425476 0.264485 -0.300020 162 138 116 14 7
0.445888 0.265069 -0.300566 160 138 116 14 7
0.436717 0.230275 -0.299329 164 140 119 14 7
1.265450 0.335343 -0.410550 107 66 61 39 10
1.261815 0.345955 -0.401202 108 81 74 39 10
1.261512 0.341820 -0.413756 114 91 86 39 10
1.261973 0.345943 -0.424634 97 66 55 39 10
1.254312 0.348781 -0.419021 106 47 42 39 10
0.715830 0.373261 -0.002332 240 230 221 0 0
0.708609 0.385046 0.000250 233 224 216 0 0
0.730417 0.379399 0.000124 236 228 219 0 0
1.262438 0.346345 -0.245533 97 88 83 0 0
1.265525 0.342656 -0.266313 98 90 80 0 0
0.914669 0.081763 -0.334900 211 189 167 14 7
0.834919 0.474372 -0.302015 59 52 42 0 0
0.795341 0.475862 -0.284918 65 64 54 0 0
0.807683 0.489455 -0.290540 82 80 71 0 0
1.260534 0.168059 -0.271634 120 112 102 0 0
1.263566 0.188537 -0.291099 101 92 84 0 0
1.263545 0.169512 -0.292170 105 98 89 0 0
1.258551 0.170117 -0.298467 128 123 119 0 0
1.260462 0.182298 -0.299958 139 133 129 0 0
0.395061 -0.025906 -0.305719 246 240 247 14 7
0.318461 0.512557 -0.236600 97 90 77 0 0
0.321298 0.491262 -0.246244 118 111 96 0 0
1.026109 0.391732 0.033975 176 165 157 0 0
1.027346 0.383662 0.030460 174 166 155 0 0
1.038654 0.384000 0.043406 121 106 98 0 0
0.846780 0.147849 -0.311316 211 190 170 14 7
0.824153 0.134346 -0.309712 210 190 159 0 0
0.835807 0.125824 -0.311209 210 189 166 14 7
0.465895 0.010628 -0.306096 226 205 184 14 7
0.496558 -0.016008 -0.307745 221 199 178 14 7
0.600541 -0.146781 -0.311902 221 201 177 14 7
0.633985 -0.173943 -0.323512 60 54 48 14 7
0.614637 -0.172639 -0.313379 66 58 47 14 7
0.474439 0.156945 -0.302934 200 179 160 14 7
0.536546 -0.230076 -0.462124 54 52 54 14 7
0.526032 -0.216926 -0.447432 52 52 54 14 7
0.607835 0.020816 -0.531319 55 50 42 0 0
0.594733 0.023167 -0.522369 57 48 45 0 0
0.934708 0.229343 0.019665 237 224 221 0 0
1.124454 0.294118 0.001328 107 97 94 0 0
1.152053 0.302045 0.001148 109 99 92 0 0
1.147459 0.302013 -0.019598 107 97 92 0 0
0.735452 0.172717 -0.305254 202 183 164 0 0
0.746719 0.205285 -0.307341 199 175 153 0 0
0.733657 0.206831 -0.304802 199 177 156 0 0
0.947686 0.449340 0.053849 47 40 37 0 0
0.936939 0.458674 0.072917 124 116 112 0 0
0.954091 0.440842 0.070709 130 122 117 0 0
0.940635 0.490084 0.074699 193 186 181 0 0
0.963266 0.445219 0.075655 135 128 125 0 0
0.954612 0.327617 0.001629 25 21 23 0 0
0.929746 0.326314 0.003891 24 19 23 0 0
0.946901 0.328793 0.014672 28 24 26 0 0
0.963655 0.323576 -0.007933 28 23 25 0 0
0.945729 0.323800 -0.002221 26 21 25 0 0
0.944268 0.316531 -0.006593 27 25 27 0 0
0.572435 0.133993 -0.300493 34 29 29 14 7
0.580123 0.134137 -0.293629 24 21 24 14 7
0.315712 0.387975 -0.247036 155 146 133 0 0
0.316883 0.403648 -0.254099 161 157 143 0 0
0.315780 0.398330 -0.252864 207 197 172 0 0
0.306272 0.394016 -0.252962 164 157 138 0 0
0.317567 0.383819 -0.255363 150 146 129 0 0
0.310997 0.413677 -0.236117 156 143 125 0 0
0.571305 0.404210 -0.299281 181 158 137 14 7
0.905423 0.488575 -0.226992 70 70 58 0 0
0.919465 0.476264 -0.202805 70 70 58 0 0
0.720553 0.526492 0.017639 191 181 178 0 0
0.875553 0.415988 -0.308035 93 81 65 0 0
0.898265 0.412710 -0.308482 92 80 65 0 0
1.030007 0.192770 -0.337867 182 160 145 14 7
1.045690 0.210361 -0.334695 182 160 143 14 7
0.769499 0.273573 -0.303562 100 83 64 0 0
1.091008 0.274737 -0.319427 36 26 21 14 7
1.068720 0.264443 -0.314458 43 35 24 14 7
1.080512 0.258018 -0.320067 72 59 48 14 7
1.088021 0.261342 -0.334035 110 96 83 14 7
1.095733 0.263164 -0.325586 105 87 73 14 7
0.926866 0.405052 -0.308686 91 77 65 0 0
0.957046 0.432645 -0.306837 84 71 57 0 0
1.272420 0.257462 -0.318479 67 61 51 0 0
1.279860 0.253945 -0.322235 85 80 73 0 0
1.277513 0.232435 -0.321268 106 100 92 0 0
0.774113 0.257918 -0.306853 92 71 53 0 0
0.743092 0.238534 -0.306284 89 71 55 0 0
0.776274 0.247932 -0.304904 83 66 53 0 0
0.763655 0.251426 -0.306394 94 76 60 0 0
0.828941 0.476482 0.046211 234 227 228 0 0
0.994257 0.398455 -0.207725 63 60 48 0 0
0.916668 0.181428 -0.030550 255 230 220 0 0
0.882915 0.188233 -0.017467 255 240 229 0 0
0.893996 0.200977 -0.029899 255 228 222 0 0
0.904531 0.177351 -0.024848 255 235 224 0 0
0.879945 0.202103 -0.024388 255 235 230 0 0
0.755532 0.357860 -0.003457 160 186 201 0 0
0.768468 0.390958 -0.001631 232 227 217 0 0
0.735782 0.463996 -0.016629 112 104 99 0 0
0.724726 0.451246 0.021080 108 97 92 0 0
0.729952 0.459352 -0.015489 104 97 90 0 0
0.730418 0.459070 0.002656 56 52 50 0 0
0.720929 0.444445 -0.001747 115 106 98 0 0
0.725914 0.439271 0.007710 122 116 109 0 0
0.719246 0.438519 -0.016966 75 70 62 0 0
0.862408 0.531830 -0.255111 76 77 65 0 0
1.027298 0.249783 -0.271030 106 95 82 14 7
1.042101 0.257181 -0.275584 106 95 82 14 7
1.037498 0.253482 -0.290980 38 33 29 14 7
1.049934 0.263025 -0.279688 39 26 17 14 7
1.055775 0.270380 -0.296753 99 92 85 14 7
0.802961 0.282503 -0.295327 101 37 26 0 0
0.799333 0.270225 -0.296268 46 30 24 0 0
0.778655 0.234228 -0.280617 18 18 14 0 0
0.784970 0.250575 -0.280544 27 17 17 0 0
0.785171 0.250955 -0.297020 27 21 19 0 0
0.785870 0.272525 -0.272343 94 34 25 0 0
0.736966 0.464226 0.021262 59 52 50 0 0
0.931180 0.176039 -0.309913 156 150 133 14 7
1.030128 0.413352 0.066380 140 132 129 0 0
1.024798 0.432832 0.065865 161 154 149 0 0
1.000647 0.428200 0.068341 148 137 131 0 0
1.000502 0.419733 0.063143 108 99 96 0 0
0.318818 0.137981 -0.301575 221 211 220 14 7
0.567553 -0.177878 -0.402104 29 29 33 14 7
0.590571 -0.177926 -0.420310 30 32 31 14 7
0.738611 0.421792 -0.300680 100 96 75 0 0
0.728678 0.437831 -0.299327 102 96 87 0 0
0.709602 0.414117 -0.292885 106 101 91 0 0
0.739444 0.403592 -0.297282 92 89 75 0 0
0.724876 -0.097368 -0.326092 106 89 82 14 7
0.729898 -0.093673 -0.338601 130 113 101 14 7
0.794808 0.334245 -0.033008 120 115 103 0 0
0.786459 0.359584 -0.037000 95 92 80 0 0
0.802493 0.355783 -0.036072 100 96 84 0 0
0.693733 0.243287 -0.276057 94 69 50 0 0
0.430826 -0.118463 -0.339172 213 192 168 0 0
0.418596 -0.111685 -0.337910 154 135 118 14 7
0.469799 0.314508 -0.299532 164 141 119 14 7
0.769121 0.155804 -0.298588 209 186 162 0 0
0.974390 0.417996 -0.266409 73 72 62 0 0
0.974459 0.415538 -0.244087 67 65 57 0 0
0.988177 0.400698 -0.256023 71 69 59 0 0
0.942131 0.455757 0.035367 44 39 41 0 0
0.958016 0.440281 0.031504 35 28 27 0 0
0.945079 0.451578 0.016428 22 18 17 0 0
0.951004 0.438155 0.021119 35 29 28 0 0
0.953335 0.447979 0.038756 37 29 30 0 0
1.266118 0.196177 -0.314452 118 112 104 0 0
1.273998 0.172038 -0.322441 62 56 48 0 0
1.269111 0.156874 -0.324359 66 60 52 0 0
0.295823 0.360613 -0.225690 156 152 138 0 0
0.321014 0.084708 -0.511985 40 38 38 0 0
0.336182 0.074426 -0.505355 42 41 39 0 0
0.452654 -0.044652 -0.307499 215 191 165 14 7
0.363339 0.078692 -0.452570 65 54 39 0 0
1.249270 0.217765 -0.134737 117 82 43 0 0
1.257286 0.212261 -0.118201 181 134 70 9 4
1.249641 0.206762 -0.126020 142 99 49 0 0
1.251904 0.209708 -0.121390 152 108 55 9 4
1.257085 0.113956 -0.265592 128 122 106 0 0
0.875216 0.046355 -0.337936 204 178 156 14 7
0.856467 0.313679 0.005430 229 213 219 0 0
0.856279 0.328822 -0.000782 218 206 207 0 0
0.335874 0.222694 -0.298979 214 202 212 14 7
0.328770 0.201879 -0.300052 214 202 212 14 7
0.887254 0.490616 -0.305263 86 76 62 0 0
1.008880 0.380889 -0.103794 94 89 76 0 0
1.016335 0.371465 -0.104107 88 85 70 0 0
0.998667 0.397839 -0.114805 78 76 64 0 0
1.004220 0.387077 -0.225452 62 60 48 0 0
0.741782 0.381966 -0.256517 124 109 37 0 0
0.633025 0.445007 -0.291830 88 77 69 0 0
0.655307 0.448771 -0.295582 82 78 72 0 0
0.317620 0.510648 -0.010525 76 74 62 0 0
0.599266 -0.236558 -0.486727 68 68 69 14 7
0.579093 -0.238174 -0.488243 59 59 58 14 7
0.594873 -0.237180 -0.456953 54 53 50 14 7
0.802152 0.509352 -0.025306 110 101 93 0 0
1.046309 0.435565 0.049710 125 115 107 0 0
1.050513 0.415077 0.062458 132 128 125 0 0
1.111285 0.292399 -0.161674 113 110 99 0 0
0.781384 0.337005 -0.237361 129 113 105 0 0
0.808696 0.333728 -0.238285 116 32 21 0 0
0.462503 0.467344 -0.296214 168 147 127 14 7
0.852471 0.475691 -0.305339 86 74 59 0 0
0.851896 0.297983 -0.259887 104 72 58 0 0
0.842263 0.286641 -0.258963 92 71 56 0 0
0.835297 0.296020 -0.250996 104 70 52 0 0
0.848712 0.309474 -0.261119 94 76 62 0 0
0.839400 0.313440 -0.254544 103 71 56 0 0
0.501102 0.084531 -0.305373 204 179 159 14 7
0.365624 0.378510 -0.297063 151 133 110 14 7
0.365787 0.363529 -0.296870 170 148 124 14 7
0.392967 0.388772 -0.296941 183 159 134 14 7
1.011153 0.381954 -0.270090 69 68 59 0 0
0.455592 0.224847 -0.300801 173 149 129 14 7
0.981640 0.335997 -0.288273 66 60 50 0 0
0.599466 -0.228687 -0.351550 60 57 53 14 7
0.597221 -0.231770 -0.357864 68 64 60 14 7
1.095839 0.297164 -0.185903 99 100 87 0 0
1.128977 0.293437 -0.211788 99 94 83 0 0
1.108949 0.290978 -0.204742 104 100 89 0 0
1.101641 0.291477 -0.207624 103 100 91 0 0
1.109468 0.289457 -0.241906 100 100 89 0 0
1.100166 0.292066 -0.229088 102 99 91 0 0
1.089507 0.298978 -0.229930 100 98 88 0 0
1.125168 0.290424 -0.229981 100 95 84 0 0
0.584020 0.216967 -0.273328 30 27 28 0 0
0.581017 0.226750 -0.279845 87 76 74 0 0
0.580287 0.216939 -0.293338 22 19 19 0 0
0.575535 0.222689 -0.297687 69 61 53 0 0
0.557743 0.218508 -0.291811 58 53 47 14 7
0.579378 0.216536 -0.279777 82 81 79 0 0
0.560404 0.203289 -0.291053 32 26 24 14 7
0.548649 0.241769 -0.292363 129 113 99 14 7
0.587491 0.242198 -0.292093 130 111 94 0 0
0.572016 0.237120 -0.299540 156 139 123 14 7
0.901070 0.269685 -0.297866 115 98 85 14 7
0.892520 0.253655 -0.296591 101 93 83 14 7
0.312586 0.504367 -0.132384 110 105 92 0 0
0.349748 0.013354 -0.304637 245 242 249 14 7
0.876842 0.245439 -0.298221 149 140 126 14 7
0.892585 0.237544 -0.297414 151 144 129 14 7
0.883645 0.227390 -0.297167 56 51 47 14 7
0.904008 0.216606 -0.298988 111 104 98 14 7
0.671992 0.284125 -0.285621 179 165 149 0 0
0.637539 0.264867 -0.294123 202 191 180 0 0
0.669882 0.268750 -0.290756 220 211 200 0 0
0.674462 0.299624 -0.285060 219 205 195 0 0
0.890178 0.404572 0.013888 32 26 26 0 0
0.409583 -0.064415 -0.307186 220 199 174 14 7
0.536173 0.464069 -0.297593 165 143 119 14 7
0.517508 0.472586 -0.297303 166 144 122 14 7
0.503733 0.169684 -0.302548 202 178 159 14 7
0.799818 0.265576 -0.012115 227 202 191 0 0
0.830479 0.272371 -0.256590 113 31 22 0 0
0.805867 0.296046 -0.243576 144 34 23 0 0
0.817848 0.270971 -0.247570 88 42 30 0 0
0.820515 0.291772 -0.244846 111 56 43 0 0
0.644878 0.355324 -0.290924 213 201 186 0 0
0.660934 0.358967 -0.288052 201 190 175 0 0
0.652125 0.320930 -0.291479 197 185 171 0 0
1.123921 0.294372 0.018887 106 99 91 0 0
1.121121 0.293411 0.039387 81 77 72 0 0
1.115907 0.306129 0.043880 87 78 73 0 0
1.117775 0.298553 0.015638 119 111 110 0 0
0.881276 0.471362 0.032724 243 239 238 0 0
0.873083 0.451511 0.034541 244 241 242 0 0
0.885589 0.449375 0.032982 247 243 242 0 0
0.884088 0.433998 0.034440 242 238 238 0 0
0.735427 0.457489 -0.022825 104 98 91 0 0
0.743415 0.448734 -0.030353 69 66 59 0 0
0.758697 0.458365 -0.032506 122 113 106 0 0
0.609576 0.475698 -0.298652 158 134 112 14 7
0.629468 0.486340 -0.289609 171 154 143 14 7
0.631196 0.470896 -0.296776 155 137 123 0 0
0.620204 0.480017 -0.295758 168 154 147 14 7
1.082017 0.309653 -0.106732 174 170 155 0 0
0.863172 0.517248 0.043076 47 40 38 0 0
0.854046 0.535294 0.051406 55 47 46 0 0
0.875682 0.522973 -0.165695 76 73 63 0 0
0.798203 0.002889 -0.312877 196 172 151 14 7
0.351992 0.434017 -0.293651 156 150 134 14 7
0.925336 0.178045 -0.025906 212 172 160 0 0
0.907987 0.173714 -0.013129 191 76 71 0 0
0.935712 0.186057 -0.023788 200 94 83 0 0
0.824535 0.269758 -0.027472 250 244 238 0 0
0.810321 0.262336 -0.018248 217 209 202 0 0
0.842065 0.245982 -0.026718 248 238 236 0 0
0.684802 0.401036 -0.010018 83 83 71 0 0
0.678781 0.499678 -0.269082 30 19 42 14 7
0.761090 0.257734 -0.237105 23 12 11 0 0
0.777600 0.254745 -0.264925 182 51 40 0 0
0.762281 0.281504 -0.241302 94 32 21 0 0
0.746108 0.258963 -0.255729 125 30 24 0 0
0.762502 0.257553 -0.258402 50 42 30 0 0
0.749559 0.263096 -0.263789 38 30 29 0 0
0.769037 0.247190 -0.256633 193 46 33 0 0
0.767586 0.236581 -0.246532 191 46 31 0 0
0.753503 0.250035 -0.245041 186 47 32 0 0
0.759057 0.245228 -0.241086 188 46 30 0 0
0.774444 0.247204 -0.241488 114 24 16 0 0
0.767616 0.272503 -0.266131 63 41 25 0 0
1.257953 0.137812 -0.267168 139 128 119 0 0
1.259637 0.142541 -0.290819 119 111 104 0 0
1.242047 0.153484 -0.301196 129 122 114 0 0
0.863899 0.296472 -0.267879 88 68 52 0 0
0.864048 0.299337 -0.280838 66 47 31 0 0
0.770248 0.478063 -0.026978 194 185 175 0 0
0.790593 0.492933 -0.027097 189 177 166 0 0
0.777851 0.470707 -0.030511 106 94 87 0 0
0.766859 0.454597 -0.034693 157 148 138 0 0
0.800423 0.482454 -0.033913 143 131 121 0 0
0.774209 0.486124 -0.021529 123 115 108 0 0
0.779319 0.492511 -0.014289 114 105 97 0 0
0.788552 0.476923 -0.030991 137 125 116 0 0
1.265297 0.205762 -0.398010 169 161 154 39 10
1.264884 0.230860 -0.411119 126 119 111 39 10
1.262487 0.199211 -0.408500 136 130 122 39 10
1.260290 0.078926 -0.306767 155 146 143 0 0
1.264011 0.233529 -0.297884 158 150 147 0 0
1.263141 0.232055 -0.269520 162 154 151 0 0
1.259361 0.264484 -0.300465 148 143 136 0 0
0.404861 0.059120 -0.468839 45 40 37 0 0
0.422204 0.063104 -0.481656 53 46 43 0 0
0.407352 0.060282 -0.463898 58 49 39 0 0
0.750040 0.261574 -0.233898 95 35 23 0 0
0.630235 -0.006123 -0.309325 213 188 167 14 7
0.429685 -0.041747 -0.307167 213 189 165 14 7
0.949364 0.295294 -0.002283 184 126 120 0 0
0.960357 0.296926 -0.000803 151 147 143 0 0
0.937211 0.290869 0.004865 229 223 205 0 0
0.948312 0.269555 0.001353 239 228 211 0 0
0.940005 0.298835 -0.000914 224 170 159 0 0
0.776235 -0.019701 -0.313320 218 197 174 14 7
0.754825 -0.048442 -0.314207 207 182 160 14 7
0.784541 -0.028955 -0.324151 204 177 154 14 7
0.700077 0.477073 -0.299439 59 59 57 0 0
0.691938 0.484415 -0.298474 40 37 38 14 7
0.685160 0.493185 -0.289290 28 22 42 14 7
0.678827 0.486857 -0.295246 25 21 36 14 7
0.700164 0.493116 -0.294293 34 28 28 14 7
0.704371 0.484907 -0.298054 47 42 29 14 7
0.630098 0.262621 -0.291501 192 183 172 0 0
0.619739 0.260031 -0.287408 205 196 187 0 0
0.632361 0.236756 -0.279377 191 184 176 0 0
0.656133 0.244352 -0.292603 189 178 166 0 0
0.563088 0.352377 -0.299807 182 160 138 14 7
0.464324 -0.135086 -0.336684 123 109 96 0 0
0.445391 -0.133731 -0.339530 160 141 123 14 7
0.459466 -0.143082 -0.342453 160 141 123 0 0
0.793166 -0.027927 -0.332119 210 183 163 14 7
0.793784 -0.029879 -0.338425 205 178 155 14 7
0.969280 0.214287 -0.001163 234 209 192 0 0
0.951872 0.205235 0.008695 233 210 198 0 0
0.980125 0.215734 0.006785 207 150 146 0 0
0.964363 0.208077 -0.008438 205 168 154 0 0
0.966817 0.218064 0.021276 225 181 175 0 0
0.945608 0.197210 -0.006992 228 171 153 0 0
0.938139 0.192647 0.003216 151 102 91 0 0
1.268233 0.223959 -0.198902 117 108 99 0 0
1.271058 0.218256 -0.179962 105 97 89 0 0
1.270363 0.201655 -0.189934 115 106 99 0 0
1.138754 0.306737 -0.157004 99 93 81 0 0
1.133419 0.301152 -0.161002 102 93 86 0 0
1.136549 0.296984 -0.173463 96 86 80 0 0
1.143972 0.312087 -0.145193 87 83 75 0 0
1.149693 0.314473 -0.167533 86 83 74 0 0
0.843743 0.384488 0.034255 188 183 182 0 0
0.848546 0.389842 0.021427 169 166 165 0 0
0.856808 0.397819 0.037462 252 247 246 0 0
1.062990 0.278116 -0.004815 209 187 182 0 0
1.050899 0.266781 -0.005370 216 192 184 0 0
1.049978 0.260331 -0.012221 217 192 185 0 0
1.031046 0.257094 0.001512 232 211 202 0 0
0.673863 0.287287 -0.267383 119 93 73 0 0
0.676754 0.274847 -0.240034 106 81 58 0 0
0.673546 0.291208 -0.250982 132 109 86 0 0
1.245132 0.348880 -0.276766 89 82 75 0 0
1.248732 0.340846 -0.298113 98 90 81 0 0
0.850661 0.546197 -0.216145 81 79 69 0 0
0.567053 -0.238100 -0.510803 53 53 51 14 7
0.539967 -0.235863 -0.509263 51 51 53 14 7
0.549478 -0.240000 -0.517442 51 50 50 14 7
0.829647 0.289319 -0.008852 233 192 182 0 0
0.813036 0.291024 0.001019 235 213 207 0 0
0.834677 0.275150 -0.011953 227 200 194 0 0
0.834202 0.301527 0.000201 240 197 188 0 0
0.774684 0.343326 -0.240636 105 94 80 0 0
0.778488 0.367896 -0.243757 90 77 61 0 0
0.797301 0.371123 -0.250371 93 80 64 0 0
1.071942 0.317537 -0.281708 42 39 35 0 0
1.070699 0.318871 -0.268993 68 66 58 0 0
1.002928 0.354760 0.027932 199 89 77 0 0
0.994670 0.333951 0.027660 230 83 68 0 0
0.971412 0.313668 0.019156 191 179 169 0 0
0.967240 0.332820 0.026214 113 98 88 0 0
0.981027 0.327957 0.035413 238 83 68 0 0
0.960914 0.323649 0.038655 204 63 54 0 0
0.707229 0.436924 -0.291950 106 102 90 0 0
0.692493 0.414604 -0.285110 154 147 137 0 0
0.685178 0.404954 -0.284737 171 161 148 0 0
0.678251 0.422876 -0.280374 140 134 122 0 0
0.867883 0.202688 -0.016091 255 228 218 0 0
0.732741 0.261555 -0.237799 184 45 33 0 0
0.841160 0.324017 0.002192 191 181 175 0 0
0.830506 0.312437 0.004371 201 192 186 0 0
0.837719 0.310640 0.004254 217 209 201 0 0
0.983818 0.297584 0.014120 178 125 111 0 0
0.981312 0.292735 0.004809 154 123 113 0 0
0.998692 0.284898 0.005406 158 112 101 0 0
0.973632 0.278776 -0.000288 174 169 162 0 0
0.978639 0.307722 0.002779 58 51 49 0 0
1.268149 0.355290 -0.369313 93 87 80 39 10
1.254953 0.355337 -0.386795 89 60 52 39 10
0.780148 0.318078 -0.027058 191 189 175 0 0
0.924977 0.166162 -0.312387 64 54 46 14 7
0.935861 0.155958 -0.312827 167 148 129 14 7
0.911477 0.172906 -0.309792 32 27 26 14 7
0.679404 0.303887 -0.263539 178 157 137 0 0
0.695148 0.317587 -0.273277 117 103 93 0 0
0.704762 0.325225 -0.249469 137 128 119 0 0
0.683430 0.311106 -0.275442 182 161 139 0 0
0.684767 0.309345 -0.249556 56 51 43 0 0
0.676514 0.294937 -0.235469 61 57 51 0 0
0.685866 0.305704 -0.235422 52 47 38 0 0
0.994767 0.425402 0.040112 111 103 99 0 0
0.973594 0.431897 0.047423 44 37 33 0 0
0.989981 0.421096 0.031469 75 70 66 0 0
0.969139 0.414726 0.028555 126 119 112 0 0
0.967775 0.427601 0.033437 91 84 75 0 0
0.969631 0.432226 0.038105 49 42 37 0 0
0.964399 0.437011 0.046056 32 25 24 0 0
1.039363 0.378921 0.059875 115 103 93 0 0
1.038492 0.395451 0.067139 135 128 128 0 0
1.021683 0.397108 0.060418 119 108 106 0 0
0.941422 0.452056 -0.305815 65 61 52 0 0
0.908081 0.488794 -0.302431 65 61 52 0 0
0.954517 0.438891 -0.274137 68 65 55 0 0
0.936172 0.463826 -0.302360 70 63 53 0 0
0.934172 0.465668 -0.298123 70 62 53 0 0
1.245382 0.303498 -0.119491 118 82 38 0 0
1.247141 0.320216 -0.119640 123 85 41 0 0
1.266076 0.240329 -0.226617 182 173 170 0 0
1.263742 0.228523 -0.230161 178 171 167 0 0
0.554358 0.142044 -0.304308 50 39 32 14 7
0.561808 0.136807 -0.303993 32 28 26 14 7
0.792712 0.089860 -0.311481 203 177 154 14 7
0.756985 0.082537 -0.311029 206 185 164 14 7
0.756492 0.113114 -0.307523 167 147 83 0 0
0.593420 0.011638 -0.504550 54 45 37 0 0
0.789818 0.279184 -0.000237 191 126 117 0 0
0.642717 0.115774 -0.307590 184 166 147 14 7
0.672409 0.136009 -0.305435 217 208 202 0 0
0.652546 0.134001 -0.306917 162 151 144 14 7
0.582949 0.002354 -0.467272 59 46 41 0 0
0.603864 -0.233578 -0.459421 69 69 71 14 7
1.247026 0.299614 -0.131763 102 71 34 0 0
1.269084 0.296511 -0.112042 178 136 77 9 4
1.270143 0.281002 -0.113104 189 141 73 9 4
1.269483 0.320122 -0.111768 184 137 68 9 4
1.252466 0.309071 -0.113315 175 130 65 9 4
0.797831 0.512652 -0.007720 106 99 94 0 0
0.824460 0.533092 0.015074 119 109 102 0 0
0.810722 0.522585 0.004523 118 109 102 0 0
0.523422 -0.211695 -0.477136 53 52 57 14 7
0.524908 -0.203614 -0.488993 49 48 47 14 7
0.779461 0.048670 -0.311781 199 176 155 14 7
0.930407 0.246397 -0.291220 143 134 124 14 7
0.914576 0.208709 -0.298939 141 131 121 14 7
1.031900 0.290513 -0.258545 58 54 50 0 0
1.039732 0.306888 -0.271150 72 64 61 0 0
0.933130 0.404057 0.020172 61 54 48 0 0
0.944552 0.399866 0.037091 101 96 89 0 0
0.940311 0.384053 0.033980 39 36 37 0 0
0.950208 0.400021 0.028370 31 31 29 0 0
0.991310 0.275387 -0.238144 78 66 61 14 7
0.995928 0.252162 -0.230559 82 65 59 14 7
0.999313 0.254983 -0.237360 65 38 28 14 7
0.904191 0.292135 0.007625 54 53 79 0 0
0.889313 0.283745 0.008008 74 71 72 0 0
0.896338 0.304193 0.004987 103 98 92 0 0
0.883245 0.299283 -0.002231 170 169 181 0 0
1.043559 0.353407 -0.147161 64 60 50 0 0
1.053651 0.343075 -0.150665 112 106 94 0 0
0.884752 0.277136 -0.038980 196 192 184 0 0
0.883042 0.247787 -0.033610 156 150 136 0 0
0.902301 0.243126 -0.035031 163 155 143 0 0
0.754861 0.473755 0.017464 81 74 70 0 0
0.735669 0.458483 0.032091 136 129 124 0 0
0.751065 0.473383 0.030668 134 126 123 0 0
0.892817 0.264880 -0.037205 198 192 184 0 0
1.243798 0.336854 -0.126803 177 134 125 0 0
1.232831 0.340992 -0.120389 170 150 142 9 4
1.246860 0.321024 -0.126648 143 118 96 0 0
1.252665 0.334303 -0.137617 135 105 83 0 0
1.244859 0.336422 -0.117077 149 124 105 9 4
1.251919 0.339006 -0.111174 192 174 155 9 4
1.252314 0.330024 -0.113407 137 109 82 9 4
1.249425 0.344934 -0.139063 189 155 146 0 0
0.431313 -0.125300 -0.332696 207 186 164 14 7
1.155269 0.309457 -0.039571 138 128 124 0 0
1.154372 0.311240 -0.018155 113 103 93 0 0
1.139171 0.298264 -0.016536 108 97 93 0 0
1.133566 0.294029 -0.030766 114 103 99 0 0
0.939139 0.457160 0.007302 124 123 121 0 0
0.949227 0.445473 0.012364 36 30 30 0 0
0.947005 0.450039 0.003060 99 95 96 0 0
0.942958 0.449498 -0.005005 33 27 25 0 0
1.037960 0.249185 -0.301163 30 27 24 14 7
1.023838 0.242109 -0.300456 29 25 22 14 7
1.002950 0.235570 -0.294460 44 40 37 14 7
1.021086 0.244938 -0.290585 33 29 25 14 7
0.574964 -0.173795 -0.530192 69 70 69 14 7
0.584243 -0.181043 -0.508484 70 74 76 14 7
0.573305 -0.173502 -0.498522 56 58 54 14 7
0.472748 -0.130913 -0.339038 220 197 170 0 0
0.478998 -0.121443 -0.340505 116 111 102 0 0
0.511197 -0.152966 -0.340981 106 95 85 0 0
0.475894 -0.144079 -0.338634 103 88 79 14 7
0.495621 -0.141438 -0.337924 113 105 94 0 0
0.845121 0.515999 -0.052543 72 61 54 0 0
0.867009 0.505782 -0.065171 73 61 56 0 0
0.836242 0.526807 -0.042457 115 103 95 0 0
0.606974 -0.228739 -0.382044 86 87 86 14 7
0.445070 0.471520 -0.296093 170 146 122 14 7
0.814669 0.360295 -0.244709 91 81 66 0 0
0.823972 0.346737 -0.245826 94 81 67 0 0
0.822078 0.369096 -0.253805 107 67 52 0 0
0.803255 0.350604 -0.237107 101 81 66 0 0
1.263045 0.186155 -0.392700 199 189 181 39 10
0.757720 0.457015 -0.273188 118 109 59 0 0
0.732296 0.455003 -0.293319 130 116 15 0 0
0.764841 0.428894 -0.273928 136 129 49 0 0
0.741969 0.447866 -0.280692 184 170 65 0 0
0.732477 0.446807 -0.298185 126 113 19 14 7
0.747973 0.449308 -0.274922 116 105 26 0 0
1.102294 0.321993 0.043123 139 128 121 0 0
1.104596 0.318859 0.028327 133 125 122 0 0
1.095400 0.325345 0.028183 241 233 229 0 0
0.872643 0.522347 -0.220203 73 71 62 0 0
0.889394 0.505192 -0.222492 73 71 59 0 0
0.881922 0.514249 -0.206688 78 77 68 0 0
0.956891 0.438334 -0.103867 97 93 80 0 0
0.973465 0.415867 -0.103364 85 78 66 0 0
0.327262 0.065577 -0.462947 42 41 37 0 0
0.328183 0.067355 -0.451523 43 41 38 0 0
0.947570 0.146383 -0.312625 191 171 150 14 7
0.945699 0.135650 -0.313954 209 185 163 14 7
0.929217 0.122343 -0.313338 211 188 166 14 7
0.902742 0.146201 -0.312544 204 184 162 14 7
1.271923 0.137457 -0.163990 104 81 57 0 0
1.271963 0.155133 -0.175900 107 98 90 0 0
1.266026 0.160289 -0.156343 101 82 66 0 0
1.267926 0.140667 -0.156958 117 85 50 0 0
0.834570 0.222014 -0.008593 199 187 181 0 0
0.832097 0.231155 -0.012648 243 230 229 0 0
0.833466 0.237250 -0.010448 225 211 215 0 0
0.834094 0.228606 0.000368 230 217 217 0 0
0.842754 0.287607 -0.033986 119 111 99 0 0
0.842829 0.295551 -0.032795 185 176 164 0 0
0.860258 0.292982 -0.034887 120 115 106 0 0
0.859995 0.527705 -0.301714 84 72 59 0 0
0.846922 0.507579 -0.302049 100 87 73 0 0
0.686405 0.101856 -0.308751 215 191 170 14 7
1.034896 0.359950 -0.179282 64 60 48 0 0
1.274140 0.136097 -0.173642 107 95 87 0 0
1.274251 0.125318 -0.179583 107 95 84 0 0
1.272367 0.110572 -0.164243 99 83 70 0 0
0.616701 -0.201513 -0.413092 60 60 63 14 7
0.618998 -0.207142 -0.421232 64 63 68 14 7
0.615328 -0.196171 -0.432863 59 60 59 14 7
0.599643 -0.191423 -0.413827 55 57 59 14 7
0.610022 -0.197215 -0.406498 60 60 62 14 7
0.780501 -0.045724 -0.336028 200 173 152 14 7
1.255557 0.218304 -0.306989 97 90 82 0 0
1.269185 0.220961 -0.317057 68 61 52 0 0
1.278448 0.213066 -0.321970 111 104 96 0 0
0.698762 0.189414 -0.289042 196 176 157 0 0
0.744468 -0.052420 -0.312517 209 184 161 14 7
0.755088 -0.070253 -0.334417 145 126 113 14 7
0.708772 -0.083850 -0.312778 215 190 169 14 7
0.762637 -0.056093 -0.324621 182 161 140 14 7
0.732492 -0.072731 -0.315530 137 120 107 14 7
0.749181 -0.073283 -0.328021 92 80 74 14 7
0.713733 0.126492 -0.307757 196 176 158 14 7
0.712367 0.106741 -0.309242 81 69 61 14 7
0.694183 0.136516 -0.305754 235 224 217 0 0
0.684665 0.127727 -0.308187 210 199 190 14 7
0.398100 -0.068634 -0.337582 99 91 82 0 0
0.396569 -0.092132 -0.335234 213 191 168 0 0
0.414513 -0.095671 -0.335307 168 150 132 0 0
0.365971 -0.067605 -0.334370 212 192 167 0 0
0.381758 -0.080114 -0.334871 205 186 162 0 0
0.391740 -0.060977 -0.338709 97 92 86 0 0
0.813371 0.054968 -0.313084 204 185 162 14 7
0.614178 0.092561 -0.306598 179 161 142 14 7
0.592199 0.087339 -0.306222 70 62 52 14 7
0.600580 0.110253 -0.300681 75 71 63 14 7
0.602037 0.098669 -0.301588 43 38 33 14 7
0.798502 0.445297 0.001588 28 27 26 0 0
1.053608 0.365992 0.055611 154 143 134 0 0
1.059046 0.373035 0.068539 148 143 139 0 0
0.743075 0.371370 -0.234433 99 87 51 0 0
0.776709 0.241542 -0.266888 25 15 14 0 0
0.989237 0.324441 0.004253 143 135 128 0 0
0.963458 0.336120 0.009696 38 33 31 0 0
0.992529 0.340326 -0.009323 47 41 38 0 0
0.979592 0.343317 -0.003708 55 48 45 0 0
0.972078 0.329400 -0.006882 19 16 17 0 0
0.982984 0.324087 -0.004117 46 39 39 0 0
0.985238 0.340090 0.012815 120 106 96 0 0
0.985192 0.330128 0.011698 101 92 84 0 0
0.990299 0.326950 -0.003068 172 164 157 0 0
0.529142 0.104468 -0.304960 205 184 164 14 7
0.573609 -0.236620 -0.438437 55 57 56 14 7
0.569412 -0.237425 -0.465111 68 69 71 14 7
1.263574 0.295209 -0.294146 178 171 166 0 0
1.264231 0.309701 -0.293683 153 145 140 0 0
1.262871 0.303002 -0.297406 146 139 134 0 0
1.254709 0.318762 -0.302271 126 121 116 0 0
1.255864 0.309341 -0.299257 129 123 117 0 0
0.929839 0.185074 -0.006541 157 105 97 0 0
0.947975 0.208018 0.014686 234 216 207 0 0
0.924978 0.188219 0.009430 159 107 96 0 0
0.927868 0.178637 -0.018469 249 225 208 0 0
0.915629 0.190895 0.015589 173 129 119 0 0
0.904503 0.178490 -0.002777 169 106 92 0 0
0.529396 -0.214726 -0.373308 56 54 57 14 7
0.528091 -0.213036 -0.390004 56 54 58 14 7
0.319371 0.486875 0.014758 96 94 83 0 0
0.780784 0.274092 -0.247586 21 5 3 0 0
0.795191 0.257969 -0.243757 153 35 23 0 0
0.798976 0.249991 -0.247496 149 34 25 0 0
0.569436 -0.242936 -0.333497 59 58 49 14 7
0.572485 -0.233045 -0.320403 59 56 48 14 7
0.586526 -0.232812 -0.329468 55 53 47 14 7
0.596961 -0.223079 -0.336927 55 55 48 14 7
0.787692 0.425773 0.046049 249 245 244 0 0
0.768002 0.449291 0.047086 247 242 243 0 0
1.267498 0.252445 -0.393999 191 184 176 39 10
1.271549 0.256944 -0.388862 222 215 206 39 10
1.268812 0.230499 -0.391421 213 203 194 39 10
0.938032 0.279878 -0.288155 70 63 55 14 7
1.263477 0.114285 -0.244505 152 143 129 0 0
1.000143 0.334429 -0.004714 161 152 146 0 0
1.002995 0.340078 0.001567 136 127 120 0 0
0.596644 -0.188826 -0.456380 63 66 66 14 7
1.047308 0.214686 -0.328278 168 146 126 14 7
1.031636 0.196537 -0.330440 174 152 136 14 7
0.664344 0.191689 -0.276336 208 199 190 0 0
0.665820 0.229557 -0.287838 221 213 205 0 0
0.648771 0.217823 -0.277173 218 209 202 0 0
0.676772 0.217438 -0.290298 223 215 207 0 0
0.731464 0.255048 -0.265750 95 77 58 0 0
0.737104 0.256556 -0.245398 189 48 36 0 0
0.712414 0.263063 -0.237123 106 29 23 0 0
0.717949 0.244687 -0.246427 25 17 16 0 0
0.728086 0.257629 -0.241884 22 16 19 0 0
0.728600 0.247455 -0.255795 51 41 35 0 0
0.911424 0.224734 -0.038572 156 152 140 0 0
0.922157 0.218278 -0.037616 128 120 111 0 0
0.842573 0.086529 -0.312339 205 184 162 14 7
0.873050 0.094264 -0.312405 205 182 157 14 7
0.887575 0.513217 -0.137679 74 71 60 0 0
0.884861 0.516286 -0.105653 82 83 68 0 0
0.878855 0.518535 -0.116679 104 100 89 0 0
1.062637 0.355322 0.028479 247 240 234 0 0
1.068776 0.354027 0.037212 193 184 180 0 0
0.900381 0.427845 -0.308334 87 74 58 0 0
0.829985 0.504090 -0.297584 80 76 61 0 0
1.093017 0.302043 -0.136576 98 98 85 0 0
1.112876 0.297935 -0.139512 84 82 70 0 0
1.119765 0.299591 -0.127477 85 77 72 0 0
1.109467 0.295287 -0.109779 97 90 85 0 0
1.101488 0.297195 -0.120449 96 91 84 0 0
0.380257 0.116688 -0.302426 222 211 221 14 7
0.911700 0.309716 -0.306349 69 51 35 14 7
1.034314 0.354249 -0.255957 62 61 52 0 0
0.869919 0.153637 -0.305986 36 31 30 14 7
0.835324 0.184274 -0.309509 43 35 29 0 0
0.858584 0.158663 -0.309536 46 39 36 14 7
0.849523 0.176311 -0.305759 41 36 33 14 7
0.757632 0.331416 0.002198 225 199 191 0 0
0.750336 0.330138 -0.007131 208 157 149 0 0
0.321152 0.424006 -0.255973 153 147 133 0 0
0.322319 0.413899 -0.261379 161 159 143 0 0
0.342623 -0.056042 -0.315987 221 200 174 14 7
0.351001 -0.048572 -0.307086 208 185 158 14 7
0.363540 -0.041498 -0.306291 209 184 157 14 7
0.322780 -0.020279 -0.305113 221 204 189 14 7
0.367950 -0.069842 -0.309497 222 200 172 14 7
0.340642 -0.052006 -0.331919 219 197 172 14 7
0.346945 -0.052967 -0.333278 224 202 175 0 0
1.268914 0.296945 -0.209810 106 99 90 0 0
1.270399 0.304040 -0.176374 99 91 82 0 0
0.499819 -0.131863 -0.341744 133 129 115 0 0
0.518005 -0.146632 -0.343890 156 157 142 0 0
0.497441 -0.186134 -0.321723 226 207 187 14 7
0.479621 -0.165175 -0.315773 227 204 180 14 7
0.483302 -0.175108 -0.328357 218 198 172 14 7
0.498738 -0.172099 -0.312768 226 203 178 14 7
0.465420 -0.163328 -0.329929 209 188 165 14 7
0.497270 -0.177873 -0.315082 228 207 183 14 7
0.499194 0.051790 -0.486163 56 48 41 0 0
0.470268 0.053130 -0.490169 60 51 43 0 0
0.474242 0.053275 -0.483413 56 48 42 0 0
0.491042 0.060078 -0.476824 60 50 40 0 0
0.488616 0.066672 -0.473104 57 48 39 0 0
0.475664 0.069489 -0.469173 58 51 41 0 0
1.000714 0.378479 -0.305314 77 67 56 0 0
1.266729 0.256464 -0.238243 178 171 166 0 0
1.265449 0.250434 -0.255262 176 167 164 0 0
1.266099 0.241880 -0.241813 175 168 160 0 0
1.261404 0.151550 -0.226671 178 165 156 0 0
1.262752 0.155927 -0.213118 215 202 191 0 0
0.519863 0.319807 -0.295846 169 148 127 14 7
0.546364 0.357899 -0.299605 177 155 132 14 7
0.523683 0.347818 -0.299258 172 152 127 14 7
0.539371 0.335865 -0.300559 175 155 131 14 7
0.592481 0.007398 -0.485667 59 47 39 0 0
0.593333 -0.012190 -0.468379 51 43 37 0 0
0.595545 -0.019485 -0.475114 49 39 35 0 0
0.596344 -0.011218 -0.485928 50 39 33 0 0
0.936859 0.458960 -0.271289 71 70 59 0 0
0.922708 0.472024 -0.271468 70 70 59 0 0
0.316806 0.509546 -0.211069 64 61 52 0 0
0.910856 0.476445 -0.094526 80 77 64 0 0
0.931636 0.461105 -0.100805 80 77 64 0 0
0.919643 0.464709 -0.095356 80 77 64 0 0
1.022845 0.367134 -0.269387 57 56 49 0 0
1.008953 0.364200 -0.292782 62 58 50 0 0
1.016465 0.375094 -0.277384 58 53 49 0 0
1.001654 0.349761 -0.284499 58 55 48 0 0
1.009760 0.371810 -0.297624 71 59 49 0 0
1.018393 0.366881 -0.276906 52 47 43 0 0
1.011581 0.357605 -0.278854 57 53 48 0 0
1.006067 0.345520 -0.270050 61 58 53 0 0
0.860832 0.359050 -0.002700 75 61 50 0 0
0.840249 0.353919 0.000988 72 61 49 0 0
0.847366 0.341384 -0.000764 85 72 63 0 0
1.252211 0.144235 -0.136974 122 85 47 0 0
1.127808 0.290139 0.039979 139 130 126 0 0
1.118718 0.295868 0.056723 103 95 91 0 0
1.112578 0.310969 0.063971 179 171 170 0 0
1.121166 0.295039 0.061287 187 180 180 0 0
1.123269 0.316529 0.069981 175 165 155 0 0
1.067433 0.327452 -0.146896 173 166 156 0 0
0.337233 0.504543 -0.025993 94 91 81 0 0
0.321358 0.501354 -0.039714 90 87 78 0 0
0.324795 0.496064 -0.022797 91 85 74 0 0
0.319322 0.512568 -0.029256 96 94 83 0 0
0.339711 0.506167 -0.046474 79 73 62 0 0
0.319576 0.496600 -0.012733 91 88 78 0 0
0.810528 0.337893 -0.034600 79 76 64 0 0
0.739058 0.371402 -0.274336 130 121 98 0 0
0.745568 0.396417 -0.278426 119 103 9 0 0
0.743315 0.379528 -0.297534 88 85 70 0 0
0.829819 0.536044 -0.033831 107 96 90 0 0
0.816633 0.501735 -0.038805 117 102 97 0 0
0.838273 0.499201 -0.049187 117 102 97 0 0
0.812709 0.511588 -0.029971 121 108 100 0 0
0.815241 0.524003 -0.025578 119 112 105 0 0
1.152561 0.303860 0.015538 110 99 94 0 0
1.142266 0.293228 0.040177 118 106 98 0 0
1.154300 0.299030 0.033579 113 100 96 0 0
1.146261 0.297820 0.014024 124 108 92 0 0
1.135883 0.295045 0.010846 118 104 93 0 0
0.782634 0.347179 -0.235901 103 90 75 0 0
0.790785 0.347030 -0.235727 103 75 60 0 0
0.819601 0.223072 -0.307145 33 26 19 14 7
0.811240 0.232828 -0.303046 24 21 20 0 0
0.594998 0.236563 -0.268386 37 33 32 0 0
0.591768 0.193722 -0.276814 40 38 39 0 0
0.602907 0.213307 -0.270472 71 70 74 0 0
0.742909 0.360244 -0.026595 234 233 225 0 0
0.778357 0.336558 -0.029411 244 237 229 0 0
0.757403 0.365443 -0.030704 149 146 131 0 0
1.123849 0.292403 -0.169454 100 96 86 0 0
1.105041 0.293061 -0.185834 107 102 93 0 0
1.116926 0.292247 -0.188246 105 101 91 0 0
0.970644 0.347564 0.019513 39 28 23 0 0
0.986466 0.371024 0.036965 128 112 104 0 0
0.973198 0.374059 0.028033 25 22 22 0 0
0.967907 0.378178 0.026749 20 18 20 0 0
0.969364 0.355759 0.026724 24 19 21 0 0
0.974000 0.345090 0.041597 174 54 46 0 0
0.970647 0.352785 0.039517 81 34 27 0 0
0.992087 0.357085 0.036818 225 64 54 0 0
0.592971 -0.182438 -0.454323 44 48 48 14 7
0.583573 -0.175284 -0.458242 50 51 53 14 7
0.589857 -0.177079 -0.439864 37 40 39 14 7
0.594424 -0.186351 -0.437721 43 45 47 14 7
0.578130 -0.172483 -0.425628 39 40 36 14 7
0.565397 -0.174047 -0.420797 48 49 46 14 7
0.594775 -0.181259 -0.427884 30 32 32 14 7
0.572478 -0.172912 -0.454823 53 52 52 14 7
1.266219 0.248432 -0.157811 92 69 45 0 0
0.660598 0.170813 -0.269612 171 166 162 0 0
0.654648 -0.132856 -0.312423 230 208 187 14 7
0.657314 -0.139865 -0.317167 92 85 79 14 7
0.626273 -0.156181 -0.312158 185 166 153 14 7
0.534900 -0.189519 -0.528334 61 60 60 14 7
0.540438 -0.183840 -0.519039 61 60 60 14 7
1.001737 0.265105 -0.238349 69 42 34 14 7
0.999423 0.270533 -0.242011 107 89 80 14 7
1.254017 0.169187 -0.309200 118 112 104 0 0
1.267265 0.178892 -0.200449 122 113 104 0 0
1.270718 0.176143 -0.183809 115 108 98 0 0
1.064776 0.278945 -0.013027 227 211 203 0 0
0.847375 0.297772 -0.002250 146 122 108 0 0
0.867659 0.283337 0.000255 128 121 129 0 0
0.855259 0.298036 -0.000549 217 198 189 0 0
0.841887 0.291463 -0.008201 159 143 156 0 0
0.778981 0.193195 -0.309085 178 160 140 0 0
0.798352 0.181104 -0.307814 188 172 153 0 0
0.999396 0.272550 -0.238535 88 75 70 0 0
1.001450 0.258665 -0.234939 76 57 52 0 0
0.315090 0.509739 -0.225940 51 50 44 0 0
0.504849 0.425344 -0.297594 166 144 120 14 7
0.565284 0.037912 -0.502694 73 63 51 0 0
0.545471 0.041026 -0.505476 74 63 54 0 0
0.558540 0.038620 -0.510821 72 62 55 0 0
0.619980 -0.197289 -0.330085 56 52 50 14 7
0.612432 -0.196214 -0.323377 55 55 49 14 7
0.602808 -0.214757 -0.329342 54 53 49 14 7
0.596974 -0.234460 -0.420242 69 67 69 14 7
0.570101 -0.234408 -0.409723 73 70 75 14 7
0.600058 -0.232209 -0.400681 66 64 67 14 7
0.490411 0.241863 -0.301793 169 144 122 14 7
0.466553 0.203920 -0.300940 179 155 135 14 7
0.482362 0.187810 -0.301908 183 161 141 14 7
0.908560 0.367235 0.037477 122 116 105 0 0
0.924289 0.404907 0.033867 47 37 35 0 0
0.921401 0.379256 0.052860 114 107 97 0 0
0.918576 0.395155 0.030313 102 95 85 0 0
0.927868 0.387845 0.023188 146 138 121 0 0
0.929766 0.389142 0.047130 99 95 89 0 0
0.919124 0.392657 0.041898 95 88 77 0 0
0.910046 0.387985 0.038198 97 92 81 0 0
0.641203 0.538058 -0.298281 164 139 117 14 7
0.353529 -0.046907 -0.331578 164 148 128 0 0
0.350251 -0.035539 -0.335530 110 99 85 0 0
0.366564 -0.040401 -0.338057 101 92 82 0 0
0.343242 -0.025470 -0.338506 107 94 80 0 0
0.697245 -0.004900 -0.310875 198 173 153 14 7
0.953847 0.190233 -0.307588 137 127 115 14 7
0.990503 0.195978 -0.312315 144 126 111 14 7
0.989348 0.207462 -0.308068 142 133 122 14 7
0.650589 0.487062 -0.269719 33 23 44 14 7
0.605087 0.164744 -0.294740 44 41 40 0 0
0.612733 0.158256 -0.282957 90 85 85 14 7
0.613943 0.147425 -0.286582 100 95 94 0 0
0.606657 0.153506 -0.298844 17 15 13 14 7
0.613891 0.147129 -0.296221 112 109 108 0 0
0.670790 -0.129935 -0.316248 176 157 141 14 7
1.272835 0.101293 -0.187678 118 108 102 0 0
1.273971 0.101993 -0.173047 111 100 91 0 0
0.922519 0.333707 0.014086 30 25 29 0 0
0.910489 0.341274 0.027483 26 24 27 0 0
0.923112 0.334873 0.031168 23 21 24 0 0
0.748879 0.479790 -0.273235 119 109 28 0 0
0.757534 0.495095 -0.279114 145 130 81 0 0
0.872059 0.285171 -0.309774 133 56 44 14 7
0.525763 -0.216885 -0.467797 53 51 55 14 7
0.536321 -0.231367 -0.491925 52 51 54 14 7
0.524516 -0.216052 -0.490734 52 51 56 14 7
0.598342 -0.065197 -0.310578 219 195 172 14 7
0.583803 -0.028876 -0.309031 212 186 167 14 7
0.773890 -0.029966 -0.316680 218 195 172 14 7
0.472423 0.039478 -0.307033 203 178 159 14 7
0.454483 0.066375 -0.305676 202 178 161 14 7
1.252440 0.346771 -0.199961 163 92 83 0 0
0.686247 -0.041768 -0.311405 206 180 159 14 7
0.708962 -0.066169 -0.312743 216 192 171 14 7
0.676954 -0.071339 -0.312342 212 186 165 14 7
0.618712 0.322991 -0.301372 167 147 125 14 7
0.624929 0.302001 -0.300678 174 157 143 0 0
0.634986 0.306977 -0.294724 205 196 187 0 0
0.648176 0.297903 -0.292865 194 182 169 0 0
0.996432 0.354103 0.005687 34 25 23 0 0
0.982726 0.351215 0.007681 66 58 55 0 0
0.970137 0.345928 0.013254 34 26 23 0 0
0.989006 0.348534 0.009688 34 25 22 0 0
0.407433 0.380450 -0.297146 179 155 131 14 7
0.926255 0.424164 0.001235 49 44 39 0 0
0.904716 0.417880 0.007768 46 42 38 0 0
0.910027 0.410533 0.006925 38 30 29 0 0
0.837765 0.250984 -0.293032 139 97 83 14 7
0.818538 0.253671 -0.273513 151 103 86 0 0
0.825073 0.249110 -0.279967 151 111 92 14 7
1.267905 0.197886 -0.160160 100 84 74 0 0
1.265777 0.219803 -0.157075 99 82 69 0 0
1.255813 0.204643 -0.142893 100 77 51 0 0
1.269979 0.219337 -0.166232 105 94 85 0 0
0.732915 0.314167 -0.237089 119 109 99 0 0
0.716739 0.304844 -0.238418 110 96 85 0 0
0.742541 0.305894 -0.231209 90 80 75 0 0
1.158057 0.310349 0.000632 114 107 101 0 0
0.447594 0.378028 -0.297520 175 153 129 14 7
0.478101 0.354212 -0.298473 173 150 123 14 7
1.252800 0.270637 -0.302992 68 61 51 0 0
1.255668 0.254555 -0.307692 68 61 51 0 0
0.320327 0.004164 -0.304119 247 242 249 14 7
0.344562 -0.028166 -0.305025 247 241 249 14 7
0.293302 -0.019684 -0.330516 206 185 156 14 7
0.774443 0.222165 -0.307974 77 62 52 0 0
1.067217 0.328263 -0.156672 67 62 53 0 0
0.348018 0.468993 -0.290742 157 153 132 14 7
0.342030 0.448930 -0.287282 161 156 137 14 7
0.917272 0.317934 0.001611 32 30 35 0 0
0.912670 0.331440 -0.002095 38 34 35 0 0
0.919253 0.331206 0.003909 34 32 35 0 0
