ply
format ascii 1.0
element vertex 1110
property float x
property float y
property float z
property uchar red
property uchar green
property uchar blue
property uchar semantic_label
property uchar instance_label
end_header
-0.327875 0.184757 -0.014345 255 0 0 61 22
-0.327101 0.171931 -0.056345 255 0 0 61 22
-0.373526 0.190587 -0.009192 255 0 0 61 22
-0.288716 0.172374 -0.068346 255 0 0 61 22
-0.284057 0.180757 -0.078346 255 0 0 61 22
-0.249747 0.203207 -0.018346 255 0 0 61 22
-0.306849 0.173583 -0.058346 255 0 0 61 22
-0.370238 0.162141 -0.093277 255 0 0 61 22
-0.235284 0.165612 -0.104346 255 0 0 61 22
-0.264756 0.214271 0.038203 255 0 0 61 22
-0.280538 0.196431 -0.030345 255 0 0 61 22
-0.260186 0.178261 -0.092345 255 0 0 61 22
-0.249115 0.168040 -0.086345 255 0 0 61 22
-0.314639 0.176155 -0.046345 255 0 0 61 22
-0.258536 0.174523 -0.102345 255 0 0 61 22
-0.339586 0.188335 -0.000345 255 0 0 61 22
-0.368936 0.175663 -0.016346 255 0 0 61 22
-0.338167 0.182202 -0.052346 255 0 0 61 22
-0.262706 0.246222 -0.098346 255 0 0 61 22
-0.352416 0.159426 -0.086345 255 0 0 61 22
-0.319741 0.206629 0.017654 255 0 0 61 22
-0.367304 0.150878 -0.106345 255 0 0 61 22
-0.267655 0.184156 -0.028346 255 0 0 61 22
-0.302373 0.178336 -0.078346 255 0 0 61 22
-0.263458 0.186016 -0.055312 255 0 0 61 22
-0.215975 0.169389 -0.104346 255 0 0 61 22
-0.291218 0.220838 -0.048346 255 0 0 61 22
-0.295768 0.205201 0.038557 255 0 0 61 22
-0.222938 0.189493 -0.076345 255 0 0 61 22
-0.300368 0.157422 -0.106626 255 0 0 61 22
-0.275080 0.232248 -0.060345 255 0 0 61 22
-0.265232 0.167586 -0.086345 255 0 0 61 22
-0.249470 0.206084 0.033654 255 0 0 61 22
-0.230528 0.214993 0.022660 255 0 0 61 22
-0.285312 0.230315 -0.111144 255 0 0 61 22
-0.219026 0.195803 -0.040345 255 0 0 61 22
-0.299205 0.221607 -0.068346 255 0 0 61 22
-0.372591 0.179437 -0.050345 255 0 0 61 22
-0.337370 0.169615 -0.062346 255 0 0 61 22
-0.220566 0.172399 -0.084346 255 0 0 61 22
-0.293916 0.213060 -0.030345 255 0 0 61 22
-0.288478 0.176573 -0.058346 255 0 0 61 22
-0.249375 0.165339 -0.098346 255 0 0 61 22
-0.228738 0.180663 -0.090345 255 0 0 61 22
-0.278796 0.172787 -0.072345 255 0 0 61 22
-0.235945 0.200472 0.005655 255 0 0 61 22
-0.302749 0.174434 -0.090345 255 0 0 61 22
-0.287843 0.218503 -0.060345 255 0 0 61 22
-0.372302 0.182432 -0.035336 255 0 0 61 22
-0.340387 0.200882 0.009655 255 0 0 61 22
-0.299557 0.207575 0.026478 255 0 0 61 22
-0.364400 0.181032 -0.002346 255 0 0 61 22
-0.255126 0.209939 0.003654 255 0 0 61 22
-0.318292 0.171204 -0.096345 255 0 0 61 22
-0.268661 0.173704 -0.068346 255 0 0 61 22
-0.238492 0.215760 0.038254 255 0 0 61 22
-0.290192 0.200511 -0.012346 255 0 0 61 22
-0.296468 0.218797 -0.082345 255 0 0 61 22
-0.251996 0.179853 -0.076345 255 0 0 61 22
-0.355610 0.188862 0.010715 255 0 0 61 22
-0.310261 0.179885 -0.038346 255 0 0 61 22
-0.282904 0.226065 -0.102345 255 0 0 61 22
-0.236447 0.174396 -0.068346 255 0 0 61 22
-0.353810 0.186680 -0.029315 255 0 0 61 22
-0.372579 0.179554 -0.008346 255 0 0 61 22
-0.316477 0.207196 0.027654 255 0 0 61 22
-0.342441 0.179557 -0.029613 255 0 0 61 22
-0.248566 0.194605 -0.006346 255 0 0 61 22
-0.224826 0.211625 -0.004345 255 0 0 61 22
-0.265610 0.163666 -0.096345 255 0 0 61 22
-0.370861 0.164210 -0.076345 255 0 0 61 22
-0.236938 0.190158 -0.024345 255 0 0 61 22
-0.283287 0.188754 -0.052346 255 0 0 61 22
-0.262426 0.175870 -0.058315 255 0 0 61 22
-0.352718 0.177153 -0.064346 255 0 0 61 22
-0.230970 0.210414 0.039654 255 0 0 61 22
-0.269082 0.190208 -0.008346 255 0 0 61 22
-0.222303 0.175222 -0.072345 255 0 0 61 22
-0.316452 0.199055 0.037654 255 0 0 61 22
-0.317786 0.185197 -0.018346 255 0 0 61 22
-0.336189 0.181891 -0.022346 255 0 0 61 22
-0.229496 0.204848 -0.011343 255 0 0 61 22
-0.310131 0.160371 -0.095875 255 0 0 61 22
-0.266347 0.239475 -0.076345 255 0 0 61 22
-0.313729 0.164737 -0.103322 255 0 0 61 22
-0.224408 0.174219 -0.113297 255 0 0 61 22
-0.308096 0.202369 0.002582 255 0 0 61 22
-0.336926 0.195099 0.029397 255 0 0 61 22
-0.230431 0.196901 -0.002346 255 0 0 61 22
-0.323375 0.195805 -0.014345 255 0 0 61 22
-0.354219 0.161569 -0.100346 255 0 0 61 22
-0.241750 0.181917 -0.090946 255 0 0 61 22
-0.271352 0.239017 -0.112345 255 0 0 61 22
-0.305636 0.207060 0.013654 255 0 0 61 22
-0.227432 0.184556 -0.042523 255 0 0 61 22
-0.235948 0.200442 -0.024345 255 0 0 61 22
-0.338332 0.191217 -0.020345 255 0 0 61 22
-0.278042 0.222351 -0.060345 255 0 0 61 22
-0.217357 0.179568 -0.100346 255 0 0 61 22
-0.349198 0.192841 0.017654 255 0 0 61 22
-0.330953 0.194525 0.015385 255 0 0 61 22
-0.284277 0.167928 -0.110346 255 0 0 61 22
-0.319105 0.192363 -0.024345 255 0 0 61 22
-0.227743 0.223066 0.029655 255 0 0 61 22
-0.257206 0.188347 -0.048346 255 0 0 61 22
-0.342250 0.160667 -0.086345 255 0 0 61 22
-0.219464 0.203882 -0.000345 255 0 0 61 22
-0.218797 0.203818 -0.022346 255 0 0 61 22
-0.314441 0.178214 -0.076345 255 0 0 61 22
-0.227735 0.181409 -0.080345 255 0 0 61 22
-0.218704 0.191730 -0.058346 255 0 0 61 22
-0.295099 0.170418 -0.074346 255 0 0 61 22
-0.275400 0.228922 -0.098346 255 0 0 61 22
-0.218553 0.193301 -0.030345 255 0 0 61 22
-0.324092 0.203180 0.009655 255 0 0 61 22
-0.342082 0.162414 -0.104346 255 0 0 61 22
-0.263984 0.201407 0.023654 255 0 0 61 22
-0.300501 0.185564 -0.022346 255 0 0 61 22
-0.273322 0.187899 -0.044345 255 0 0 61 22
-0.328889 0.174233 -0.080935 255 0 0 61 22
-0.265964 0.228452 -0.060345 255 0 0 61 22
-0.327190 0.171001 -0.096345 255 0 0 61 22
-0.363664 0.188674 -0.016346 255 0 0 61 22
-0.366084 0.184412 0.005655 255 0 0 61 22
-0.287495 0.228516 -0.079390 255 0 0 61 22
-0.257991 0.217638 0.033654 255 0 0 61 22
-0.291368 0.180667 -0.042346 255 0 0 61 22
-0.267295 0.229631 -0.072345 255 0 0 61 22
-0.348448 0.200639 0.039654 255 0 0 61 22
-0.324715 0.175841 -0.048548 255 0 0 61 22
-0.321606 0.163486 -0.084346 255 0 0 61 22
-0.249389 0.186058 -0.036345 255 0 0 61 22
-0.372578 0.179571 -0.026345 255 0 0 61 22
-0.295551 0.171023 -0.110346 255 0 0 61 22
-0.353057 0.173638 -0.042346 255 0 0 61 22
-0.242518 0.173953 -0.113045 255 0 0 61 22
-0.325126 0.191955 0.007654 255 0 0 61 22
-0.265243 0.198244 -0.016346 255 0 0 61 22
-0.300058 0.181503 -0.068387 255 0 0 61 22
-0.258016 0.235724 -0.074346 255 0 0 61 22
-0.223910 0.179399 -0.056345 255 0 0 61 22
-0.279152 0.169099 -0.082345 255 0 0 61 22
-0.233321 0.185993 -0.062346 255 0 0 61 22
-0.365755 0.187830 0.021445 255 0 0 61 22
-0.360166 0.183272 -0.037316 255 0 0 61 22
-0.362963 0.163449 -0.102345 255 0 0 61 22
-0.233438 0.195182 -0.040345 255 0 0 61 22
-0.358866 0.181139 -0.050345 255 0 0 61 22
-0.273102 0.211056 0.026412 255 0 0 61 22
-0.288576 0.213329 0.029948 255 0 0 61 22
-0.355226 0.192843 -0.012106 255 0 0 61 22
-0.334551 0.198889 0.003208 255 0 0 61 22
-0.267897 0.202518 -0.006790 255 0 0 61 22
-0.241870 0.180677 -0.050345 255 0 0 61 22
-0.337675 0.166449 -0.070345 255 0 0 61 22
-0.366194 0.162397 -0.062346 255 0 0 61 22
-0.244567 0.215267 0.031655 255 0 0 61 22
-0.233363 0.206421 0.031655 255 0 0 61 22
-0.267365 0.166300 -0.105316 255 0 0 61 22
-0.274945 0.171049 -0.099315 255 0 0 61 22
-0.220919 0.210455 0.023654 255 0 0 61 22
-0.354980 0.180764 -0.018346 255 0 0 61 22
-0.308744 0.195642 -0.022346 255 0 0 61 22
-0.246100 0.199343 0.005655 255 0 0 61 22
-0.240536 0.183809 -0.068346 255 0 0 61 22
-0.360353 0.169226 -0.074346 255 0 0 61 22
-0.324617 0.155990 -0.098346 255 0 0 61 22
-0.263991 0.180468 -0.044345 255 0 0 61 22
-0.218289 0.187695 -0.044345 255 0 0 61 22
-0.369394 0.191773 0.037654 255 0 0 61 22
-0.292560 0.166717 -0.084346 255 0 0 61 22
-0.219419 0.199859 -0.014345 255 0 0 61 22
-0.225982 0.168343 -0.098346 255 0 0 61 22
-0.251450 0.174814 -0.062346 255 0 0 61 22
-0.253238 0.166949 -0.106936 255 0 0 61 22
-0.225753 0.201998 -0.038346 255 0 0 61 22
-0.226381 0.216332 0.007654 255 0 0 61 22
-0.275594 0.185175 -0.032947 255 0 0 61 22
-0.261750 0.203759 0.031655 255 0 0 61 22
-0.264977 0.191107 -0.036345 255 0 0 61 22
-0.285597 0.185631 -0.028346 255 0 0 61 22
-0.279475 0.186602 -0.060345 255 0 0 61 22
-0.285490 0.224305 -0.094346 255 0 0 61 22
-0.366699 0.198896 0.023654 255 0 0 61 22
-0.354774 0.162661 -0.068346 255 0 0 61 22
-0.350734 0.197763 0.003654 255 0 0 61 22
-0.250171 0.198802 -0.035764 255 0 0 61 22
-0.329950 0.163205 -0.102345 255 0 0 61 22
-0.347263 0.192077 -0.020766 255 0 0 61 22
-0.271377 0.228973 -0.082151 255 0 0 61 22
-0.344122 0.203830 0.016622 255 0 0 61 22
-0.241036 0.205959 -0.008346 255 0 0 61 22
-0.277202 0.189349 -0.014869 255 0 0 61 22
-0.290048 0.160266 -0.098346 255 0 0 61 22
-0.280135 0.200617 0.029655 255 0 0 61 22
-0.291762 0.205066 0.001654 255 0 0 61 22
-0.250057 0.179124 -0.052346 255 0 0 61 22
-0.238468 0.195138 -0.010345 255 0 0 61 22
-0.241755 0.216075 0.023654 255 0 0 61 22
-0.236214 0.176809 -0.060345 255 0 0 61 22
-0.347674 0.187804 0.001654 255 0 0 61 22
-0.272477 0.196678 0.009655 255 0 0 61 22
-0.258691 0.214658 0.021655 255 0 0 61 22
-0.302080 0.181375 -0.038346 255 0 0 61 22
-0.318241 0.201340 0.001654 255 0 0 61 22
-0.224696 0.192105 -0.014345 255 0 0 61 22
-0.282024 0.201869 -0.011709 255 0 0 61 22
-0.284559 0.217266 -0.044345 255 0 0 61 22
-0.356100 0.183764 -0.006346 255 0 0 61 22
-0.278275 0.229638 -0.068346 255 0 0 61 22
-0.300301 0.193583 0.001654 255 0 0 61 22
-0.369016 0.178097 -0.058346 255 0 0 61 22
-0.229099 0.188104 -0.034345 255 0 0 61 22
-0.370586 0.166193 -0.068346 255 0 0 61 22
-0.371462 0.170296 -0.051254 255 0 0 61 22
-0.318322 0.179638 -0.068346 255 0 0 61 22
-0.276361 0.177212 -0.081114 255 0 0 61 22
-0.225930 0.200151 0.013654 255 0 0 61 22
-0.232829 0.191105 -0.049268 255 0 0 61 22
-0.329692 0.186752 -0.042346 255 0 0 61 22
-0.287530 0.207281 0.015655 255 0 0 61 22
-0.332089 0.203595 0.029655 255 0 0 61 22
-0.363985 0.164473 -0.088346 255 0 0 61 22
-0.328046 0.182975 -0.022346 255 0 0 61 22
-0.255605 0.184101 -0.060345 255 0 0 61 22
-0.256556 0.185351 -0.072345 255 0 0 61 22
-0.338570 0.178021 -0.066345 255 0 0 61 22
-0.297062 0.191752 -0.036345 255 0 0 61 22
-0.260036 0.242413 -0.106345 255 0 0 61 22
-0.281938 0.161021 -0.098346 255 0 0 61 22
-0.253887 0.181076 -0.088020 255 0 0 61 22
-0.338411 0.155058 -0.096345 255 0 0 61 22
-0.335560 0.188408 -0.034345 255 0 0 61 22
-0.303638 0.206925 -0.014345 255 0 0 61 22
-0.262280 0.208005 0.007654 255 0 0 61 22
-0.249595 0.176645 -0.106345 255 0 0 61 22
-0.288592 0.175397 -0.092345 255 0 0 61 22
-0.321450 0.168008 -0.070345 255 0 0 61 22
-0.270482 0.175667 -0.060345 255 0 0 61 22
-0.254355 0.239390 -0.092345 255 0 0 61 22
-0.227528 0.204423 -0.028346 255 0 0 61 22
-0.287784 0.225510 -0.056345 255 0 0 61 22
-0.285673 0.220303 -0.068346 255 0 0 61 22
-0.219640 0.202881 0.007654 255 0 0 61 22
-0.345058 0.173243 -0.078346 255 0 0 61 22
-0.293703 0.184911 -0.063870 255 0 0 61 22
-0.351553 0.168378 -0.090657 255 0 0 61 22
-0.369265 0.193108 0.007654 255 0 0 61 22
-0.294624 0.227193 -0.088346 255 0 0 61 22
-0.247340 0.186473 -0.059304 255 0 0 61 22
-0.301209 0.169559 -0.097131 255 0 0 61 22
-0.352775 0.155698 -0.108346 255 0 0 61 22
-0.302375 0.209856 0.037654 255 0 0 61 22
-0.319700 0.165312 -0.113306 255 0 0 61 22
-0.249051 0.189572 -0.048346 255 0 0 61 22
-0.244424 0.175016 -0.094346 255 0 0 61 22
-0.368943 0.204210 0.031655 255 0 0 61 22
-0.261747 0.195898 0.005655 255 0 0 61 22
-0.294793 0.215322 -0.066345 255 0 0 61 22
-0.274827 0.193139 -0.003767 255 0 0 61 22
-0.314186 0.180855 -0.031554 255 0 0 61 22
-0.327945 0.163167 -0.110346 255 0 0 61 22
-0.356281 0.202757 0.021655 255 0 0 61 22
-0.276697 0.236330 -0.102345 255 0 0 61 22
-0.252030 0.200370 -0.026345 255 0 0 61 22
-0.320791 0.174869 -0.080345 255 0 0 61 22
-0.321116 0.171476 -0.062691 255 0 0 61 22
-0.248873 0.170547 -0.078899 255 0 0 61 22
-0.287979 0.202619 0.037654 255 0 0 61 22
-0.297414 0.208973 0.017654 255 0 0 61 22
-0.265442 0.196254 -0.024345 255 0 0 61 22
-0.357072 0.194542 0.027654 255 0 0 61 22
-0.358504 0.158797 -0.076345 255 0 0 61 22
-0.370334 0.161138 -0.084346 255 0 0 61 22
-0.306389 0.199224 0.025655 255 0 0 61 22
-0.373935 0.196654 0.019655 255 0 0 61 22
-0.236695 0.192693 -0.056345 255 0 0 61 22
-0.308479 0.198389 -0.011165 255 0 0 61 22
-0.267571 0.236643 -0.086345 255 0 0 61 22
-0.321224 0.197607 0.023654 255 0 0 61 22
-0.338250 0.202210 0.037654 255 0 0 61 22
-0.366639 0.157776 -0.077890 255 0 0 61 22
-0.274741 0.177057 -0.092345 255 0 0 61 22
-0.358970 0.174831 -0.068346 255 0 0 61 22
-0.338650 0.177183 -0.036309 255 0 0 61 22
-0.345033 0.183825 -0.044345 255 0 0 61 22
-0.235525 0.204838 0.023654 255 0 0 61 22
-0.357537 0.168849 -0.046345 255 0 0 61 22
-0.345364 0.170060 -0.056345 255 0 0 61 22
-0.274065 0.180197 -0.046345 255 0 0 61 22
-0.365867 0.175785 -0.050345 255 0 0 61 22
-0.275826 0.235429 -0.094346 255 0 0 61 22
-0.316295 0.158956 -0.109266 255 0 0 61 22
-0.345838 0.165131 -0.072345 255 0 0 61 22
-0.316532 0.156494 -0.100346 255 0 0 61 22
-0.361949 0.189472 -0.024345 255 0 0 61 22
-0.228006 0.178584 -0.097619 255 0 0 61 22
-0.354369 0.201743 0.029655 255 0 0 61 22
-0.276480 0.179233 -0.056345 255 0 0 61 22
-0.314952 0.172892 -0.089066 255 0 0 61 22
-0.297021 0.223405 -0.076345 255 0 0 61 22
-0.361760 0.208447 0.035655 255 0 0 61 22
-0.262349 0.176662 -0.078346 255 0 0 61 22
-0.300592 0.175961 -0.054346 255 0 0 61 22
-0.353088 0.152452 -0.100677 255 0 0 61 22
-0.344815 0.175767 -0.070544 255 0 0 61 22
-0.274732 0.194123 -0.038346 255 0 0 61 22
-0.354747 0.178732 -0.026345 255 0 0 61 22
-0.294160 0.201029 0.023005 255 0 0 61 22
-0.311494 0.187943 -0.010345 255 0 0 61 22
-0.292994 0.223018 -0.064346 255 0 0 61 22
-0.337044 0.173009 -0.081660 255 0 0 61 22
-0.229279 0.212864 0.001654 255 0 0 61 22
-0.255708 0.207372 -0.004345 255 0 0 61 22
-0.253095 0.189296 -0.066345 255 0 0 61 22
-0.291422 0.196746 -0.024345 255 0 0 61 22
-0.262879 0.171154 -0.072345 255 0 0 61 22
-0.296750 0.165111 -0.090345 255 0 0 61 22
-0.237667 0.182583 -0.044345 255 0 0 61 22
-0.270910 0.233819 -0.066345 255 0 0 61 22
-0.268857 0.202610 0.001654 255 0 0 61 22
-0.290204 0.168499 -0.100346 255 0 0 61 22
-0.291597 0.216855 -0.036345 255 0 0 61 22
-0.254915 0.212135 0.029655 255 0 0 61 22
-0.259553 0.239890 -0.080345 255 0 0 61 22
-0.339338 0.170044 -0.092345 255 0 0 61 22
-0.247797 0.202592 0.019918 255 0 0 61 22
-0.252790 0.171605 -0.072345 255 0 0 61 22
-0.313723 0.182820 -0.024345 255 0 0 61 22
-0.280285 0.219930 -0.036345 255 0 0 61 22
-0.283936 0.202869 0.023654 255 0 0 61 22
-0.362381 0.193532 0.039654 255 0 0 61 22
-0.277659 0.205467 0.012681 255 0 0 61 22
-0.230912 0.211012 0.014735 255 0 0 61 22
-0.237369 0.206556 0.001654 255 0 0 61 22
-0.267823 0.182418 -0.078648 255 0 0 61 22
-0.349061 0.194259 0.035306 255 0 0 61 22
-0.308033 0.188299 -0.046345 255 0 0 61 22
-0.326636 0.197624 -0.006346 255 0 0 61 22
-0.230765 0.170813 -0.107044 255 0 0 61 22
-0.223660 0.181988 -0.048346 255 0 0 61 22
-0.285603 0.227293 -0.072345 255 0 0 61 22
-0.330596 0.177357 -0.070345 255 0 0 61 22
-0.346224 0.202868 0.031655 255 0 0 61 22
-0.279630 0.226724 -0.082345 255 0 0 61 22
-0.325821 0.206086 0.032662 255 0 0 61 22
-0.291666 0.210834 -0.016346 255 0 0 61 22
-0.301693 0.206267 -0.006346 255 0 0 61 22
-0.354921 0.182768 -0.044345 255 0 0 61 22
-0.221101 0.212077 0.011655 255 0 0 61 22
-0.237872 0.180463 -0.078346 255 0 0 61 22
-0.268888 0.233957 -0.106345 255 0 0 61 22
-0.361870 0.186438 0.013654 255 0 0 61 22
-0.314924 0.194053 0.011655 255 0 0 61 22
-0.301932 0.203785 0.006941 255 0 0 61 22
-0.233935 0.221350 0.036015 255 0 0 61 22
-0.226800 0.180478 -0.110346 255 0 0 61 22
-0.238869 0.211839 0.007654 255 0 0 61 22
-0.267513 0.206499 0.012686 255 0 0 61 22
-0.320637 0.197331 0.031655 255 0 0 61 22
-0.257822 0.244542 -0.086345 255 0 0 61 22
-0.283366 0.187933 -0.018851 255 0 0 61 22
-0.251032 0.189854 -0.024345 255 0 0 61 22
-0.259454 0.193668 -0.040345 255 0 0 61 22
-0.296538 0.197196 0.013654 255 0 0 61 22
-0.262726 0.172745 -0.096345 255 0 0 61 22
-0.365206 0.172660 -0.062346 255 0 0 61 22
-0.366506 0.189911 -0.002346 255 0 0 61 22
-0.236080 0.178202 -0.088346 255 0 0 61 22
-0.274937 0.192004 -0.028346 255 0 0 61 22
-0.263745 0.183029 -0.034345 255 0 0 61 22
-0.330614 0.156316 -0.094294 255 0 0 61 22
-0.262658 0.193976 -0.002346 255 0 0 61 22
-0.305745 0.164194 -0.090345 255 0 0 61 22
-0.219018 0.188467 -0.070345 255 0 0 61 22
-0.310418 0.199121 0.033654 255 0 0 61 22
-0.303583 0.165769 -0.113261 255 0 0 61 22
-0.270649 0.173935 -0.106345 255 0 0 61 22
-0.218820 0.169662 -0.110992 255 0 0 61 22
-0.361193 0.151738 -0.100346 255 0 0 61 22
-0.241309 0.165627 -0.100346 255 0 0 61 22
-0.331793 0.185800 -0.008346 255 0 0 61 22
-0.264804 0.234631 -0.096345 255 0 0 61 22
-0.252767 0.192709 -0.012346 255 0 0 61 22
-0.310702 0.175302 -0.052346 255 0 0 61 22
-0.231989 0.178968 -0.103877 255 0 0 61 22
-0.370695 0.178259 -0.041332 255 0 0 61 22
-0.324358 0.179553 -0.032346 255 0 0 61 22
-0.245040 0.210363 0.037800 255 0 0 61 22
-0.294140 0.201235 -0.006346 255 0 0 61 22
-0.277683 0.184351 -0.068346 255 0 0 61 22
-0.336664 0.197814 -0.004345 255 0 0 61 22
-0.286655 0.195503 0.003654 255 0 0 61 22
-0.321468 0.188696 -0.038346 255 0 0 61 22
-0.259975 0.180447 -0.066345 255 0 0 61 22
-0.368886 0.155313 -0.088346 255 0 0 61 22
-0.311282 0.190149 -0.038346 255 0 0 61 22
-0.271111 0.210864 0.038162 255 0 0 61 22
-0.282844 0.235085 -0.106345 255 0 0 61 22
-0.310105 0.192517 0.001654 255 0 0 61 22
-0.373683 0.196630 0.031655 255 0 0 61 22
-0.338638 0.156435 -0.106345 255 0 0 61 22
-0.346120 0.171874 -0.048346 255 0 0 61 22
-0.244844 0.191523 -0.054346 255 0 0 61 22
-0.352476 0.179659 -0.056345 255 0 0 61 22
-0.228012 0.188631 -0.066345 255 0 0 61 22
-0.280522 0.175731 -0.096345 255 0 0 61 22
-0.351496 0.182437 -0.012346 255 0 0 61 22
-0.331332 0.182506 -0.054346 255 0 0 61 22
-0.244508 0.174145 -0.064607 255 0 0 61 22
-0.257220 0.167333 -0.085248 255 0 0 61 22
-0.327887 0.205502 0.019655 255 0 0 61 22
-0.303537 0.171792 -0.064346 255 0 0 61 22
-0.339300 0.191310 0.012469 255 0 0 61 22
-0.309487 0.167048 -0.080345 255 0 0 61 22
-0.361007 0.195409 -0.002343 255 0 0 61 22
-0.275843 0.224318 -0.072345 255 0 0 61 22
-0.285696 0.226333 -0.047319 255 0 0 61 22
-0.296608 0.217338 -0.089252 255 0 0 61 22
-0.304335 0.157968 -0.100346 255 0 0 61 22
-0.271822 0.161758 -0.108346 255 0 0 61 22
-0.277776 0.183377 -0.040689 255 0 0 61 22
-0.323683 0.165695 -0.099339 255 0 0 61 22
-0.224266 0.196565 -0.052346 255 0 0 61 22
-0.250862 0.212485 0.009655 255 0 0 61 22
-0.342243 0.187575 -0.036345 255 0 0 61 22
-0.306033 0.161192 -0.108346 255 0 0 61 22
-0.258362 0.176330 -0.084346 255 0 0 61 22
-0.270708 0.215051 0.031655 255 0 0 61 22
-0.231871 0.201058 -0.017267 255 0 0 61 22
-0.219604 0.182377 -0.106345 255 0 0 61 22
-0.268692 0.173383 -0.092345 255 0 0 61 22
-0.304689 0.196014 0.014229 255 0 0 61 22
-0.234554 0.173187 -0.075161 255 0 0 61 22
-0.284813 0.193775 -0.036345 255 0 0 61 22
-0.252383 0.175833 -0.092345 255 0 0 61 22
-0.263112 0.185983 -0.022346 255 0 0 61 22
-0.281677 0.205468 0.001654 255 0 0 61 22
-0.276845 0.221463 -0.050345 255 0 0 61 22
-0.225054 0.209244 -0.014345 255 0 0 61 22
-0.286543 0.190248 -0.046345 255 0 0 61 22
-0.335318 0.190926 -0.026579 255 0 0 61 22
-0.312082 0.181829 -0.060345 255 0 0 61 22
-0.365421 0.171723 -0.078346 255 0 0 61 22
-0.290341 0.228790 -0.096345 255 0 0 61 22
-0.326126 0.161180 -0.092345 255 0 0 61 22
-0.309811 0.205428 0.027654 255 0 0 61 22
-0.259594 0.163543 -0.099709 255 0 0 61 22
-0.357718 0.166962 -0.053653 255 0 0 61 22
-0.366448 0.159767 -0.113278 255 0 0 61 22
-0.342918 0.195466 0.025655 255 0 0 61 22
-0.243816 0.202208 -0.021797 255 0 0 61 22
-0.368028 0.185087 -0.024345 255 0 0 61 22
-0.351170 0.172360 -0.081297 255 0 0 61 22
-0.277576 0.197422 -0.016346 255 0 0 61 22
-0.282105 0.211923 0.033654 255 0 0 61 22
-0.233079 0.167643 -0.096345 255 0 0 61 22
-0.360100 0.155137 -0.106345 255 0 0 61 22
-0.321341 0.190010 -0.002346 255 0 0 61 22
-0.317784 0.185220 -0.050720 255 0 0 61 22
-0.293320 0.188892 -0.015544 255 0 0 61 22
-0.373580 0.190028 0.017654 255 0 0 61 22
-0.270708 0.235919 -0.080345 255 0 0 61 22
-0.309304 0.168957 -0.106345 255 0 0 61 22
-0.288328 0.219856 -0.080345 255 0 0 61 22
-0.305248 0.211079 0.027654 255 0 0 61 22
-0.217367 0.184753 -0.084346 255 0 0 61 22
-0.235781 0.202177 -0.010345 255 0 0 61 22
-0.339019 0.194226 -0.012346 255 0 0 61 22
-0.344165 0.161640 -0.111327 255 0 0 61 22
-0.366809 0.169848 -0.036345 255 0 0 61 22
-0.297803 0.184059 -0.028346 255 0 0 61 22
-0.282310 0.198894 0.013654 255 0 0 61 22
-0.336834 0.175187 -0.046345 255 0 0 61 22
-0.339088 0.203346 0.029655 255 0 0 61 22
-0.290252 0.179024 -0.080345 255 0 0 61 22
-0.231801 0.170912 -0.084346 255 0 0 61 22
-0.368439 0.159958 -0.099360 255 0 0 61 22
-0.371078 0.174277 -0.065155 255 0 0 61 22
-0.217669 0.181608 -0.058558 255 0 0 61 22
-0.287412 0.229374 -0.090345 255 0 0 61 22
-0.255442 0.177207 -0.056345 255 0 0 61 22
-0.218366 0.174379 -0.078346 255 0 0 61 22
-0.226044 0.219842 0.023654 255 0 0 61 22
-0.256983 0.211513 0.037999 255 0 0 61 22
-0.334780 0.196514 0.035655 255 0 0 61 22
-0.230371 0.195770 -0.010345 255 0 0 61 22
-0.365870 0.186634 -0.010345 255 0 0 61 22
-0.361969 0.177418 -0.018346 255 0 0 61 22
-0.335628 0.166846 -0.106000 255 0 0 61 22
-0.322221 0.201730 0.039654 255 0 0 61 22
-0.259019 0.169515 -0.109277 255 0 0 61 22
-0.374100 0.205495 0.035655 255 0 0 61 22
-0.297325 0.168159 -0.102345 255 0 0 61 22
-0.221454 0.184033 -0.092345 255 0 0 61 22
-0.348099 0.162523 -0.082345 255 0 0 61 22
-0.236460 0.174258 -0.102345 255 0 0 61 22
-0.364646 0.178485 -0.038346 255 0 0 61 22
-0.281341 0.167227 -0.088346 255 0 0 61 22
-0.278265 0.199175 -0.024345 255 0 0 61 22
-0.325280 0.190836 -0.028346 255 0 0 61 22
-0.367086 0.194871 0.013654 255 0 0 61 22
-0.277578 0.227168 -0.092345 255 0 0 61 22
-0.268415 0.198549 0.019655 255 0 0 61 22
-0.356582 0.199630 0.009655 255 0 0 61 22
-0.296817 0.194298 -0.028346 255 0 0 61 22
-0.242887 0.170116 -0.088346 255 0 0 61 22
-0.332481 0.157781 -0.108346 255 0 0 61 22
-0.267196 0.240626 -0.106345 255 0 0 61 22
-0.252116 0.199463 0.009655 255 0 0 61 22
-0.293393 0.208991 0.028668 255 0 0 61 22
-0.245230 0.208373 -0.003699 255 0 0 61 22
-0.244983 0.196293 -0.044345 255 0 0 61 22
-0.335584 0.209036 0.030941 255 0 0 61 22
-0.336352 0.180185 -0.058346 255 0 0 61 22
-0.269321 0.187724 -0.060345 255 0 0 61 22
-0.278883 0.213622 0.024060 255 0 0 61 22
-0.304689 0.196014 -0.017179 255 0 0 61 22
-0.367474 0.175940 -0.024345 255 0 0 61 22
-0.251937 0.186917 -0.030345 255 0 0 61 22
-0.273102 0.211056 0.014510 255 0 0 61 22
-0.246636 0.196452 -0.000345 255 0 0 61 22
-0.330310 0.201207 0.007654 255 0 0 61 22
-0.330985 0.173322 -0.050345 255 0 0 61 22
-0.344123 0.182948 -0.014345 255 0 0 61 22
-0.356450 0.200998 0.038105 255 0 0 61 22
-0.298334 0.178544 -0.044345 255 0 0 61 22
-0.331646 0.166462 -0.072891 255 0 0 61 22
-0.373615 0.189670 0.003654 255 0 0 61 22
-0.242134 0.177935 -0.100305 255 0 0 61 22
-0.369476 0.190914 -0.014345 255 0 0 61 22
-0.343780 0.195759 -0.006346 255 0 0 61 22
-0.292817 0.225010 -0.082345 255 0 0 61 22
-0.311694 0.206735 0.036760 255 0 0 61 22
-0.260015 0.242635 -0.092345 255 0 0 61 22
-0.247165 0.170382 -0.108346 255 0 0 61 22
-0.251237 0.208599 0.039654 255 0 0 61 22
-0.353544 0.168570 -0.058753 255 0 0 61 22
-0.243400 0.185658 -0.040345 255 0 0 61 22
-0.298650 0.216997 -0.074346 255 0 0 61 22
-0.363128 0.173376 -0.030345 255 0 0 61 22
-0.234596 0.189265 -0.030345 255 0 0 61 22
-0.263071 0.169160 -0.080345 255 0 0 61 22
-0.271265 0.188407 -0.024345 255 0 0 61 22
-0.333996 0.162919 -0.082345 255 0 0 61 22
-0.274889 0.234240 -0.086345 255 0 0 61 22
-0.341776 0.186458 -0.006346 255 0 0 61 22
-0.256476 0.195931 -0.002346 255 0 0 61 22
-0.220620 0.214039 0.037654 255 0 0 61 22
-0.221719 0.220173 0.033654 255 0 0 61 22
-0.275590 0.206081 0.039654 255 0 0 61 22
-0.311771 0.205934 0.015655 255 0 0 61 22
-0.366049 0.165756 -0.056345 255 0 0 61 22
-0.253887 0.181076 -0.044997 255 0 0 61 22
-0.238668 0.193068 -0.018346 255 0 0 61 22
-0.333043 0.193683 -0.016346 255 0 0 61 22
-0.294264 0.158211 -0.104346 255 0 0 61 22
-0.295476 0.208240 -0.026345 255 0 0 61 22
-0.230352 0.175095 -0.070345 255 0 0 61 22
-0.230046 0.220000 0.017654 255 0 0 61 22
-0.267347 0.187358 -0.050345 255 0 0 61 22
-0.266350 0.239442 -0.092345 255 0 0 61 22
-0.344258 0.181550 -0.054346 255 0 0 61 22
-0.243057 0.190080 -0.022346 255 0 0 61 22
-0.297962 0.209431 -0.016346 255 0 0 61 22
-0.264416 0.176062 -0.087312 255 0 0 61 22
-0.308358 0.178779 -0.074346 255 0 0 61 22
-0.255826 0.202671 -0.016346 255 0 0 61 22
-0.236794 0.212524 0.021655 255 0 0 61 22
-0.296991 0.171631 -0.068346 255 0 0 61 22
-0.274698 0.173613 -0.086345 255 0 0 61 22
-0.313262 0.200858 -0.002346 255 0 0 61 22
-0.237811 0.201965 0.011655 255 0 0 61 22
-0.326461 0.196101 0.019655 255 0 0 61 22
-0.278237 0.195476 0.001654 255 0 0 61 22
-0.314699 0.188941 -0.004345 255 0 0 61 22
-0.241750 0.181917 -0.084296 255 0 0 61 22
-0.286811 0.214751 -0.028346 255 0 0 61 22
-0.288070 0.178340 -0.050345 255 0 0 61 22
-0.279420 0.199609 -0.006346 255 0 0 61 22
-0.220031 0.201927 -0.008346 255 0 0 61 22
-0.252770 0.171808 -0.102345 255 0 0 61 22
-0.280136 0.233835 -0.112345 255 0 0 61 22
-0.231310 0.217078 0.029655 255 0 0 61 22
-0.247197 0.167085 -0.092345 255 0 0 61 22
-0.271933 0.202336 -0.014345 255 0 0 61 22
-0.285614 0.185452 -0.058346 255 0 0 61 22
-0.301257 0.189930 -0.006346 255 0 0 61 22
-0.324356 0.179825 -0.066345 255 0 0 61 22
-0.300443 0.177518 -0.084346 255 0 0 61 22
-0.262755 0.235053 -0.102345 255 0 0 61 22
-0.355626 0.174799 -0.036345 255 0 0 61 22
-0.359974 0.185264 0.007170 255 0 0 61 22
-0.285072 0.211950 0.023654 255 0 0 61 22
-0.229931 0.179469 -0.058346 255 0 0 61 22
-0.291042 0.191682 -0.038346 255 0 0 61 22
-0.252213 0.219328 0.031655 255 0 0 61 22
-0.222106 0.177269 -0.066345 255 0 0 61 22
-0.366653 0.178505 -0.010345 255 0 0 61 22
-0.230179 0.197750 -0.026345 255 0 0 61 22
-0.258542 0.233765 -0.084346 255 0 0 61 22
-0.356055 0.163364 -0.106345 255 0 0 61 22
-0.363791 0.166493 -0.082345 255 0 0 61 22
-0.264922 0.212546 0.015655 255 0 0 61 22
-0.229183 0.187239 -0.078346 255 0 0 61 22
-0.238077 0.199203 -0.030345 255 0 0 61 22
-0.323692 0.186464 -0.044345 255 0 0 61 22
-0.247939 0.180246 -0.090345 255 0 0 61 22
-0.271605 0.164003 -0.094346 255 0 0 61 22
-0.224142 0.197850 -0.000345 255 0 0 61 22
-0.217484 0.179581 -0.072345 255 0 0 61 22
-0.280046 0.222414 -0.066345 255 0 0 61 22
-0.303479 0.208584 0.019655 255 0 0 61 22
-0.291477 0.228900 -0.111244 255 0 0 61 22
-0.348256 0.160895 -0.102345 255 0 0 61 22
-0.238964 0.189992 -0.068346 255 0 0 61 22
-0.296739 0.174243 -0.092345 255 0 0 61 22
-0.293372 0.188345 -0.050345 255 0 0 61 22
-0.264699 0.173128 -0.102345 255 0 0 61 22
-0.264654 0.246409 -0.104346 255 0 0 61 22
-0.216681 0.173475 -0.098346 255 0 0 61 22
-0.263099 0.189735 -0.012346 255 0 0 61 22
-0.287874 0.182843 -0.072345 255 0 0 61 22
-0.216886 0.177513 -0.084346 255 0 0 61 22
-0.258549 0.189562 -0.058346 255 0 0 61 22
-0.277122 0.190170 -0.050345 255 0 0 61 22
-0.260316 0.197770 -0.027669 255 0 0 61 22
-0.277243 0.168045 -0.104346 255 0 0 61 22
-0.224877 0.190216 -0.020345 255 0 0 61 22
-0.290685 0.198685 -0.018346 255 0 0 61 22
-0.227676 0.202876 0.019655 255 0 0 61 22
-0.259934 0.201751 0.018413 255 0 0 61 22
-0.272297 0.177687 -0.076345 255 0 0 61 22
-0.290895 0.172341 -0.106345 255 0 0 61 22
-0.362300 0.153339 -0.092345 255 0 0 61 22
-0.242039 0.220647 0.033654 255 0 0 61 22
-0.363603 0.168442 -0.044345 255 0 0 61 22
-0.220120 0.205955 -0.016346 255 0 0 61 22
-0.249516 0.205607 0.025655 255 0 0 61 22
-0.221194 0.165872 -0.101599 255 0 0 61 22
-0.324140 0.181813 -0.055324 255 0 0 61 22
-0.240223 0.203871 0.019655 255 0 0 61 22
-0.344784 0.176082 -0.036345 255 0 0 61 22
-0.279409 0.166427 -0.094346 255 0 0 61 22
-0.220331 0.212002 0.029655 255 0 0 61 22
-0.299352 0.188846 -0.044345 255 0 0 61 22
-0.271185 0.168373 -0.084346 255 0 0 61 22
-0.348531 0.178900 -0.026345 255 0 0 61 22
-0.224447 0.194686 -0.060345 255 0 0 61 22
-0.347720 0.208195 0.035100 255 0 0 61 22
-0.338314 0.159811 -0.092345 255 0 0 61 22
-0.320807 0.209621 0.031655 255 0 0 61 22
-0.255569 0.205349 0.034584 255 0 0 61 22
-0.244797 0.212885 0.011655 255 0 0 61 22
-0.300209 0.200804 0.037654 255 0 0 61 22
-0.236824 0.170481 -0.108346 255 0 0 61 22
-0.317237 0.170035 -0.102345 255 0 0 61 22
-0.300214 0.200756 0.025655 255 0 0 61 22
-0.311045 0.192608 -0.028248 255 0 0 61 22
-0.308981 0.172316 -0.091944 255 0 0 61 22
-0.348585 0.188185 -0.026345 255 0 0 61 22
-0.357486 0.193060 0.033654 255 0 0 61 22
-0.279724 0.225759 -0.045786 255 0 0 61 22
-0.292902 0.193228 0.001654 255 0 0 61 22
-0.264278 0.177502 -0.050345 255 0 0 61 22
-0.234326 0.196421 -0.046345 255 0 0 61 22
-0.260946 0.191231 -0.052346 255 0 0 61 22
-0.241387 0.206561 0.031655 255 0 0 61 22
-0.330546 0.177882 -0.036345 255 0 0 61 22
-0.353676 0.167210 -0.096345 255 0 0 61 22
-0.271010 0.232779 -0.100346 255 0 0 61 22
-0.245255 0.187253 -0.070345 255 0 0 61 22
-0.327856 0.164088 -0.084934 255 0 0 61 22
-0.321613 0.166327 -0.078346 255 0 0 61 22
-0.253877 0.202047 -0.008346 255 0 0 61 22
-0.278101 0.200867 0.023654 255 0 0 61 22
-0.364174 0.162509 -0.094346 255 0 0 61 22
-0.297802 0.163203 -0.107160 255 0 0 61 22
-0.271844 0.224124 -0.058346 255 0 0 61 22
-0.281448 0.207841 0.038909 255 0 0 61 22
-0.243266 0.187045 -0.034345 255 0 0 61 22
-0.345477 0.168892 -0.092345 255 0 0 61 22
-0.356984 0.174590 -0.030345 255 0 0 61 22
-0.280527 0.227845 -0.058346 255 0 0 61 22
-0.294538 0.176238 -0.056345 255 0 0 61 22
-0.338064 0.204147 0.017654 255 0 0 61 22
-0.325579 0.187741 -0.008346 255 0 0 61 22
-0.331997 0.183682 -0.048346 255 0 0 61 22
-0.258060 0.179469 -0.073312 255 0 0 61 22
-0.290341 0.219831 -0.054346 255 0 0 61 22
-0.218636 0.189737 -0.064346 255 0 0 61 22
-0.246033 0.179179 -0.078346 255 0 0 61 22
-0.295932 0.224364 -0.102345 255 0 0 61 22
-0.282279 0.178362 -0.054346 255 0 0 61 22
-0.293417 0.211003 0.037654 255 0 0 61 22
-0.218182 0.189693 -0.052346 255 0 0 61 22
-0.293952 0.224058 -0.070345 255 0 0 61 22
-0.275860 0.203285 0.004680 255 0 0 61 22
-0.288447 0.197759 0.011655 255 0 0 61 22
-0.228375 0.195623 -0.036345 255 0 0 61 22
-0.305421 0.188414 -0.012346 255 0 0 61 22
-0.288175 0.158847 -0.104346 255 0 0 61 22
-0.356417 0.201344 0.015655 255 0 0 61 22
-0.351878 0.158363 -0.092345 255 0 0 61 22
-0.275487 0.228022 -0.054346 255 0 0 61 22
-0.357154 0.172816 -0.078346 255 0 0 61 22
-0.264436 0.196721 -0.032346 255 0 0 61 22
-0.278864 0.192954 -0.008346 255 0 0 61 22
-0.372163 0.183875 0.005655 255 0 0 61 22
-0.287214 0.231439 -0.102345 255 0 0 61 22
-0.303654 0.206765 0.031655 255 0 0 61 22
-0.298728 0.195325 0.007654 255 0 0 61 22
-0.291730 0.184540 -0.028346 255 0 0 61 22
-0.274534 0.175324 -0.068346 255 0 0 61 22
-0.315257 0.211461 0.033654 255 0 0 61 22
-0.261085 0.210662 0.025655 255 0 0 61 22
-0.328771 0.196324 0.032012 255 0 0 61 22
-0.269734 0.234843 -0.074346 255 0 0 61 22
-0.326150 0.202664 0.027654 255 0 0 61 22
-0.339453 0.189715 0.005655 255 0 0 61 22
-0.343006 0.194553 0.031655 255 0 0 61 22
-0.251821 0.181670 -0.082345 255 0 0 61 22
-0.258205 0.198837 0.011655 255 0 0 61 22
-0.332714 0.176243 -0.076345 255 0 0 61 22
-0.219094 0.197819 -0.026345 255 0 0 61 22
-0.265404 0.228398 -0.066376 255 0 0 61 22
-0.279868 0.182522 -0.074346 255 0 0 61 22
-0.230838 0.190913 -0.021352 255 0 0 61 22
-0.350346 0.201789 0.017654 255 0 0 61 22
-0.286384 0.219183 -0.038346 255 0 0 61 22
-0.281764 0.225424 -0.088346 255 0 0 61 22
-0.221098 0.187737 -0.030345 255 0 0 61 22
-0.224238 0.186258 -0.104346 255 0 0 61 22
-0.229422 0.184748 -0.085943 255 0 0 61 22
-0.269546 0.185385 -0.070345 255 0 0 61 22
-0.369402 0.191694 0.029655 255 0 0 61 22
-0.305668 0.185850 -0.054346 255 0 0 61 22
-0.222061 0.198604 -0.046345 255 0 0 61 22
-0.253763 0.160972 -0.106345 255 0 0 61 22
-0.235867 0.180415 -0.054346 255 0 0 61 22
-0.256394 0.217645 0.027654 255 0 0 61 22
-0.276784 0.214547 0.029655 255 0 0 61 22
-0.234784 0.191664 -0.064346 255 0 0 61 22
-0.245567 0.204878 -0.014345 255 0 0 61 22
-0.366888 0.196930 0.003654 255 0 0 61 22
-0.322075 0.161522 -0.107255 255 0 0 61 22
-0.286543 0.196668 -0.028346 255 0 0 61 22
-0.305988 0.182522 -0.064346 255 0 0 61 22
-0.287006 0.191860 -0.006346 255 0 0 61 22
-0.362331 0.202523 0.021655 255 0 0 61 22
-0.289909 0.224315 -0.100346 255 0 0 61 22
-0.240222 0.176929 -0.108346 255 0 0 61 22
-0.361502 0.177374 -0.046345 255 0 0 61 22
-0.247025 0.189742 -0.064346 255 0 0 61 22
-0.289879 0.220709 -0.092345 255 0 0 61 22
-0.273751 0.225183 -0.046371 255 0 0 61 22
-0.230250 0.206930 0.001654 255 0 0 61 22
-0.264867 0.213121 0.021655 255 0 0 61 22
-0.289572 0.206945 0.009655 255 0 0 61 22
-0.321497 0.188399 -0.032346 255 0 0 61 22
-0.344563 0.199253 0.005655 255 0 0 61 22
-0.269960 0.170568 -0.112345 255 0 0 61 22
-0.227368 0.206081 0.031655 255 0 0 61 22
-0.305868 0.183763 -0.024345 255 0 0 61 22
-0.305490 0.166841 -0.100346 255 0 0 61 22
-0.296245 0.179379 -0.080345 255 0 0 61 22
-0.372596 0.179386 -0.020345 255 0 0 61 22
-0.284516 0.175988 -0.062866 255 0 0 61 22
-0.221202 0.212087 0.017654 255 0 0 61 22
-0.288420 0.177171 -0.086345 255 0 0 61 22
-0.292224 0.210888 -0.036345 255 0 0 61 22
-0.265330 0.208299 0.038209 255 0 0 61 22
-0.297606 0.186116 -0.056345 255 0 0 61 22
-0.256555 0.174229 -0.096345 255 0 0 61 22
-0.361436 0.190948 0.025655 255 0 0 61 22
-0.269504 0.206691 -0.002795 255 0 0 61 22
-0.275384 0.208221 0.021655 255 0 0 61 22
-0.311306 0.169025 -0.072345 255 0 0 61 22
-0.372002 0.185549 -0.006346 255 0 0 61 22
-0.315475 0.167471 -0.108346 255 0 0 61 22
-0.269156 0.189443 -0.040345 255 0 0 61 22
-0.275950 0.202343 0.033654 255 0 0 61 22
-0.322902 0.194664 -0.020345 255 0 0 61 22
-0.332856 0.195625 0.021655 255 0 0 61 22
-0.235341 0.185877 -0.078346 255 0 0 61 22
-0.242901 0.169973 -0.077964 255 0 0 61 22
-0.275485 0.237405 -0.108346 255 0 0 61 22
-0.296343 0.199229 -0.016442 255 0 0 61 22
-0.303525 0.218003 -0.070345 255 0 0 61 22
-0.329326 0.190559 0.003654 255 0 0 61 22
-0.260877 0.212816 0.031655 255 0 0 61 22
-0.298780 0.225584 -0.094346 255 0 0 61 22
-0.235917 0.169300 -0.088346 255 0 0 61 22
-0.343855 0.206599 0.027654 255 0 0 61 22
-0.264386 0.218104 0.033654 255 0 0 61 22
-0.230741 0.217024 0.011655 255 0 0 61 22
-0.241183 0.166948 -0.106345 255 0 0 61 22
-0.347749 0.187032 -0.032346 255 0 0 61 22
-0.346956 0.153527 -0.098346 255 0 0 61 22
-0.368423 0.180991 -0.030345 255 0 0 61 22
-0.344089 0.162432 -0.098346 255 0 0 61 22
-0.255585 0.184307 -0.078346 255 0 0 61 22
-0.219509 0.209914 -0.002346 255 0 0 61 22
-0.320618 0.176658 -0.044345 255 0 0 61 22
-0.287740 0.225969 -0.106345 255 0 0 61 22
-0.278190 0.191454 -0.034345 255 0 0 61 22
-0.265866 0.202734 -0.012346 255 0 0 61 22
-0.312962 0.172700 -0.061079 255 0 0 61 22
-0.346539 0.157849 -0.107121 255 0 0 61 22
-0.365797 0.166527 -0.074346 255 0 0 61 22
-0.333224 0.170947 -0.058346 255 0 0 61 22
-0.231799 0.201799 0.009655 255 0 0 61 22
-0.370995 0.175143 -0.046345 255 0 0 61 22
-0.299257 0.168961 -0.078346 255 0 0 61 22
-0.318781 0.174870 -0.050345 255 0 0 61 22
-0.233698 0.183151 -0.092345 255 0 0 61 22
-0.329399 0.210668 0.033654 255 0 0 61 22
-0.316633 0.197173 0.019655 255 0 0 61 22
-0.364729 0.198480 0.009655 255 0 0 61 22
-0.304229 0.200793 -0.006346 255 0 0 61 22
-0.314452 0.198963 -0.010530 255 0 0 61 22
-0.356550 0.158220 -0.082345 255 0 0 61 22
-0.315607 0.207828 0.021655 255 0 0 61 22
-0.275499 0.227902 -0.086345 255 0 0 61 22
-0.276725 0.173436 -0.108346 255 0 0 61 22
-0.315614 0.166017 -0.082345 255 0 0 61 22
-0.301143 0.221793 -0.080345 255 0 0 61 22
-0.351304 0.191833 -0.016346 255 0 0 61 22
-0.322086 0.185634 -0.014345 255 0 0 61 22
-0.291156 0.190490 -0.010345 255 0 0 61 22
-0.220851 0.218080 0.021655 255 0 0 61 22
-0.331167 0.198563 -0.002346 255 0 0 61 22
-0.273546 0.185577 -0.050345 255 0 0 61 22
-0.294160 0.201029 0.033772 255 0 0 61 22
-0.373602 0.189799 0.009655 255 0 0 61 22
-0.290774 0.224813 -0.076345 255 0 0 61 22
-0.313442 0.167711 -0.098346 255 0 0 61 22
-0.245832 0.181258 -0.072345 255 0 0 61 22
-0.236270 0.217960 0.023654 255 0 0 61 22
-0.271398 0.228754 -0.076345 255 0 0 61 22
-0.288751 0.173741 -0.098346 255 0 0 61 22
-0.273708 0.183896 -0.058346 255 0 0 61 22
-0.216511 0.171450 -0.088346 255 0 0 61 22
-0.267863 0.202871 0.031655 255 0 0 61 22
-0.264575 0.174402 -0.064346 255 0 0 61 22
-0.267321 0.208490 0.004909 255 0 0 61 22
-0.272763 0.172848 -0.073261 255 0 0 61 22
-0.356744 0.156208 -0.088346 255 0 0 61 22
-0.301326 0.210076 -0.042346 255 0 0 61 22
-0.360160 0.162468 -0.066345 255 0 0 61 22
-0.237009 0.210299 0.015655 255 0 0 61 22
-0.273442 0.207518 0.001654 255 0 0 61 22
-0.265110 0.231461 -0.086345 255 0 0 61 22
-0.216839 0.175499 -0.104346 255 0 0 61 22
-0.360240 0.203372 0.032868 255 0 0 61 22
-0.311287 0.210960 0.027654 255 0 0 61 22
-0.281618 0.226954 -0.108346 255 0 0 61 22
-0.251203 0.208947 -0.001184 255 0 0 61 22
-0.273869 0.203093 -0.006810 255 0 0 61 22
-0.266628 0.194834 -0.040345 255 0 0 61 22
-0.282231 0.230018 -0.076345 255 0 0 61 22
-0.233705 0.182008 -0.074346 255 0 0 61 22
-0.351848 0.186184 -0.002346 255 0 0 61 22
-0.262166 0.232105 -0.072345 255 0 0 61 22
-0.350215 0.166240 -0.102345 255 0 0 61 22
-0.313920 0.162746 -0.091444 255 0 0 61 22
-0.353707 0.166883 -0.064346 255 0 0 61 22
-0.268894 0.171298 -0.098346 255 0 0 61 22
-0.335645 0.187527 -0.004345 255 0 0 61 22
-0.311147 0.204673 -0.048346 255 0 0 61 22
-0.226881 0.190282 -0.072345 255 0 0 61 22
-0.283963 0.202603 0.033654 255 0 0 61 22
-0.248654 0.172820 -0.068346 255 0 0 61 22
-0.254738 0.213975 0.017654 255 0 0 61 22
-0.282753 0.173430 -0.068346 255 0 0 61 22
-0.368778 0.198167 0.038238 255 0 0 61 22
-0.341682 0.166572 -0.066345 255 0 0 61 22
-0.281639 0.185000 -0.032346 255 0 0 61 22
-0.372029 0.185280 -0.028346 255 0 0 61 22
-0.344122 0.203830 0.036820 255 0 0 61 22
-0.285309 0.167759 -0.084346 255 0 0 61 22
0.649244 0.358171 -0.050345 255 0 255 44 23
0.538827 0.323755 -0.134346 255 0 255 44 23
0.703874 0.362112 -0.147328 255 0 255 44 23
0.558236 0.352025 -0.050114 255 0 255 44 23
0.627413 0.319243 -0.127191 255 0 255 44 23
0.700378 0.320255 -0.086345 255 0 255 44 23
0.583421 0.363170 -0.108346 255 0 255 44 23
0.707327 0.375844 -0.060345 255 0 255 44 23
0.656412 0.370006 -0.110346 255 0 255 44 23
0.597845 0.314054 -0.074346 255 0 255 44 23
0.545572 0.311050 -0.082345 255 0 255 44 23
0.678144 0.320386 -0.132345 255 0 255 44 23
0.644875 0.311534 -0.064346 255 0 255 44 23
0.603636 0.364445 -0.064346 255 0 255 44 23
0.619585 0.363148 -0.142345 255 0 255 44 23
0.582246 0.309235 -0.118345 255 0 255 44 23
0.714902 0.361050 -0.102345 255 0 255 44 23
0.541318 0.353653 -0.096345 255 0 255 44 23
0.562601 0.355623 -0.143296 255 0 255 44 23
0.639284 0.338193 -0.093379 255 0 255 44 23
0.680633 0.350285 -0.071287 255 0 255 44 23
0.567701 0.312937 -0.052346 255 0 255 44 23
0.593962 0.336529 -0.140346 255 0 255 44 23
0.619905 0.366462 -0.106345 255 0 255 44 23
0.668231 0.367554 -0.143327 255 0 255 44 23
0.601251 0.333818 -0.102345 255 0 255 44 23
0.620997 0.336072 -0.056345 255 0 255 44 23
0.673774 0.334872 -0.102345 255 0 255 44 23
0.677566 0.318433 -0.062047 255 0 255 44 23
0.688992 0.374496 -0.118345 255 0 255 44 23
0.640338 0.368230 -0.080345 255 0 255 44 23
0.588261 0.339088 -0.050345 255 0 255 44 23
0.571144 0.360828 -0.078346 255 0 255 44 23
0.534007 0.338284 -0.066345 255 0 255 44 23
0.703181 0.334050 -0.115254 255 0 255 44 23
0.711484 0.347315 -0.074346 255 0 255 44 23
0.567307 0.321012 -0.145082 255 0 255 44 23
0.551967 0.307773 -0.112345 255 0 255 44 23
0.690985 0.374325 -0.086345 255 0 255 44 23
0.678761 0.372568 -0.051423 255 0 255 44 23
0.573180 0.319417 -0.090345 255 0 255 44 23
0.538229 0.352908 -0.126345 255 0 255 44 23
0.651804 0.343015 -0.119296 255 0 255 44 23
0.624839 0.313373 -0.094346 255 0 255 44 23
0.684423 0.347911 -0.132010 255 0 255 44 23
0.651878 0.322915 -0.141239 255 0 255 44 23
0.593533 0.363855 -0.134346 255 0 255 44 23
0.613787 0.344666 -0.081237 255 0 255 44 23
0.537321 0.329927 -0.108346 255 0 255 44 23
0.660373 0.327684 -0.080345 255 0 255 44 23
0.698934 0.352542 -0.050617 255 0 255 44 23
0.666617 0.371661 -0.076345 255 0 255 44 23
0.643878 0.365044 -0.132345 255 0 255 44 23
0.657010 0.334477 -0.056330 255 0 255 44 23
0.715298 0.352975 -0.126345 255 0 255 44 23
0.559008 0.360032 -0.114346 255 0 255 44 23
0.599586 0.364117 -0.089582 255 0 255 44 23
0.542720 0.316083 -0.058346 255 0 255 44 23
0.628082 0.367923 -0.058346 255 0 255 44 23
0.647680 0.321062 -0.110346 255 0 255 44 23
0.581249 0.361487 -0.056345 255 0 255 44 23
0.546714 0.357557 -0.072345 255 0 255 44 23
0.693994 0.342971 -0.089315 255 0 255 44 23
0.602055 0.321685 -0.122345 255 0 255 44 23
0.593527 0.312460 -0.098346 255 0 255 44 23
0.671824 0.351134 -0.050345 255 0 255 44 23
0.709106 0.374713 -0.128345 255 0 255 44 23
0.591004 0.316721 -0.053164 255 0 255 44 23
0.712719 0.370504 -0.082345 255 0 255 44 23
0.588821 0.314922 -0.140346 255 0 255 44 23
0.638060 0.346348 -0.065232 255 0 255 44 23
0.595988 0.336334 -0.070345 255 0 255 44 23
0.538733 0.331801 -0.086345 255 0 255 44 23
0.673140 0.367081 -0.096345 255 0 255 44 23
0.565076 0.307163 -0.074346 255 0 255 44 23
0.628682 0.321130 -0.074346 255 0 255 44 23
0.554019 0.308227 -0.133543 255 0 255 44 23
0.556197 0.330844 -0.050345 255 0 255 44 23
0.627393 0.329292 -0.108346 255 0 255 44 23
0.692608 0.333058 -0.070345 255 0 255 44 23
0.619856 0.365964 -0.084346 255 0 255 44 23
0.606207 0.349415 -0.049932 255 0 255 44 23
0.639698 0.363353 -0.100346 255 0 255 44 23
0.711545 0.335253 -0.096345 255 0 255 44 23
0.602153 0.359852 -0.116345 255 0 255 44 23
0.688787 0.372365 -0.138345 255 0 255 44 23
0.579346 0.320851 -0.070345 255 0 255 44 23
0.574854 0.357669 -0.126345 255 0 255 44 23
0.690111 0.323513 -0.104346 255 0 255 44 23
0.701234 0.376432 -0.102988 255 0 255 44 23
0.680377 0.326752 -0.084346 255 0 255 44 23
0.560717 0.356921 -0.094346 255 0 255 44 23
0.666349 0.323531 -0.116345 255 0 255 44 23
0.672121 0.366217 -0.124346 255 0 255 44 23
0.688431 0.368667 -0.068346 255 0 255 44 23
0.625992 0.367086 -0.124346 255 0 255 44 23
0.660555 0.371301 -0.058346 255 0 255 44 23
0.657776 0.342440 -0.095495 255 0 255 44 23
0.698185 0.354623 -0.118345 255 0 255 44 23
0.683081 0.333976 -0.119543 255 0 255 44 23
0.567016 0.317998 -0.108346 255 0 255 44 23
0.559928 0.306993 -0.094346 255 0 255 44 23
0.571213 0.340728 -0.057335 255 0 255 44 23
0.588969 0.358188 -0.074346 255 0 255 44 23
0.539936 0.349768 -0.053365 255 0 255 44 23
0.714583 0.359072 -0.060345 255 0 255 44 23
0.656019 0.365927 -0.090345 255 0 255 44 23
0.628489 0.351288 -0.049830 255 0 255 44 23
0.595274 0.328366 -0.086345 255 0 255 44 23
0.677301 0.336542 -0.059086 255 0 255 44 23
0.567016 0.318002 -0.126345 255 0 255 44 23
0.672478 0.349061 -0.145133 255 0 255 44 23
0.642395 0.328761 -0.126345 255 0 255 44 23
0.643406 0.323732 -0.084346 255 0 255 44 23
0.701752 0.348252 -0.136345 255 0 255 44 23
0.580808 0.356904 -0.092345 255 0 255 44 23
0.547980 0.318855 -0.098346 255 0 255 44 23
0.640316 0.328047 -0.063593 255 0 255 44 23
0.618344 0.350255 -0.065362 255 0 255 44 23
0.644314 0.369564 -0.062346 255 0 255 44 23
0.661448 0.317975 -0.057343 255 0 255 44 23
0.596992 0.337175 -0.118345 255 0 255 44 23
0.552933 0.359552 -0.130346 255 0 255 44 23
0.561010 0.359959 -0.064346 255 0 255 44 23
0.584265 0.309333 -0.082412 255 0 255 44 23
0.693934 0.321484 -0.120346 255 0 255 44 23
0.703617 0.348072 -0.104346 255 0 255 44 23
0.658543 0.350403 -0.061317 255 0 255 44 23
0.640198 0.368244 -0.116345 255 0 255 44 23
0.708424 0.355647 -0.088346 255 0 255 44 23
0.577836 0.326026 -0.050503 255 0 255 44 23
0.599660 0.344018 -0.089343 255 0 255 44 23
0.653270 0.316510 -0.126345 255 0 255 44 23
0.662599 0.329920 -0.131258 255 0 255 44 23
0.535632 0.336118 -0.124346 255 0 255 44 23
0.539769 0.323664 -0.072345 255 0 255 44 23
0.600851 0.329838 -0.056345 255 0 255 44 23
0.632994 0.314606 -0.112345 255 0 255 44 23
0.694495 0.369043 -0.052217 255 0 255 44 23
0.545216 0.321130 -0.119339 255 0 255 44 23
0.613714 0.364766 -0.051733 255 0 255 44 23
0.590586 0.322789 -0.110346 255 0 255 44 23
0.689629 0.339373 -0.105319 255 0 255 44 23
0.578154 0.308478 -0.102345 255 0 255 44 23
0.687919 0.353603 -0.146345 255 0 255 44 23
0.639763 0.343169 -0.108346 255 0 255 44 23
0.609797 0.365824 -0.130346 255 0 255 44 23
0.658555 0.371393 -0.130346 255 0 255 44 23
0.580902 0.357879 -0.141287 255 0 255 44 23
0.541185 0.331565 -0.054346 255 0 255 44 23
0.551188 0.320556 -0.143146 255 0 255 44 23
0.554878 0.317141 -0.068346 255 0 255 44 23
0.693345 0.357098 -0.077343 255 0 255 44 23
0.544416 0.354559 -0.112345 255 0 255 44 23
0.643841 0.343782 -0.050720 255 0 255 44 23
0.686114 0.373869 -0.102345 255 0 255 44 23
0.581006 0.327730 -0.146345 255 0 255 44 23
0.685382 0.357865 -0.057281 255 0 255 44 23
0.651922 0.365105 -0.145314 255 0 255 44 23
0.664026 0.344743 -0.110346 255 0 255 44 23
0.574199 0.309130 -0.136345 255 0 255 44 23
0.689651 0.318737 -0.074346 255 0 255 44 23
0.701214 0.376224 -0.074346 255 0 255 44 23
0.712701 0.370319 -0.114346 255 0 255 44 23
0.587501 0.322074 -0.126345 255 0 255 44 23
0.637827 0.323066 -0.098346 255 0 255 44 23
0.580220 0.309062 -0.060345 255 0 255 44 23
0.594553 0.353584 -0.058346 255 0 255 44 23
0.672698 0.372209 -0.110346 255 0 255 44 23
0.708164 0.323201 -0.106345 255 0 255 44 23
0.570666 0.355912 -0.106345 255 0 255 44 23
0.604120 0.348603 -0.070345 255 0 255 44 23
0.625467 0.361625 -0.071368 255 0 255 44 23
0.534414 0.340253 -0.098346 255 0 255 44 23
0.704139 0.344003 -0.061295 255 0 255 44 23
0.619175 0.317153 -0.108346 255 0 255 44 23
0.607279 0.360539 -0.102345 255 0 255 44 23
0.625368 0.339732 -0.072345 255 0 255 44 23
0.672456 0.327961 -0.072345 255 0 255 44 23
0.674310 0.368075 -0.064346 255 0 255 44 23
0.629368 0.329101 -0.088346 255 0 255 44 23
0.654023 0.366061 -0.072345 255 0 255 44 23
0.599734 0.323918 -0.136724 255 0 255 44 23
0.705363 0.335848 -0.083442 255 0 255 44 23
0.557963 0.317894 -0.084346 255 0 255 44 23
0.553063 0.306310 -0.058346 255 0 255 44 23
0.654060 0.324715 -0.067374 255 0 255 44 23
0.607273 0.360483 -0.078346 255 0 255 44 23
0.712562 0.363285 -0.136345 255 0 255 44 23
0.680281 0.367493 -0.080345 255 0 255 44 23
0.588973 0.358232 -0.122345 255 0 255 44 23
0.565964 0.307077 -0.117651 255 0 255 44 23
0.558538 0.355153 -0.080345 255 0 255 44 23
0.572364 0.352673 -0.050203 255 0 255 44 23
0.639468 0.319239 -0.136345 255 0 255 44 23
0.714430 0.351049 -0.112345 255 0 255 44 23
0.668954 0.333326 -0.089510 255 0 255 44 23
0.690661 0.329227 -0.131196 255 0 255 44 23
0.703465 0.368179 -0.092345 255 0 255 44 23
0.651120 0.335911 -0.106345 255 0 255 44 23
0.708048 0.363720 -0.071359 255 0 255 44 23
0.635804 0.364648 -0.143265 255 0 255 44 23
0.592951 0.357809 -0.100346 255 0 255 44 23
0.693537 0.359089 -0.135354 255 0 255 44 23
0.679483 0.338340 -0.077408 255 0 255 44 23
0.681567 0.339114 -0.092345 255 0 255 44 23
0.638190 0.358391 -0.058346 255 0 255 44 23
0.666197 0.325555 -0.143328 255 0 255 44 23
0.551210 0.341648 -0.056345 255 0 255 44 23
0.692922 0.349102 -0.066345 255 0 255 44 23
0.591673 0.323667 -0.066345 255 0 255 44 23
0.609119 0.337922 -0.064346 255 0 255 44 23
0.615445 0.361883 -0.118345 255 0 255 44 23
0.628032 0.367406 -0.094543 255 0 255 44 23
0.688198 0.345386 -0.054346 255 0 255 44 23
0.565699 0.325186 -0.057322 255 0 255 44 23
0.667848 0.363572 -0.050333 255 0 255 44 23
0.702913 0.373002 -0.140346 255 0 255 44 23
0.548752 0.357847 -0.058346 255 0 255 44 23
0.583323 0.320428 -0.098346 255 0 255 44 23
0.696585 0.369877 -0.128345 255 0 255 44 23
0.670104 0.345271 -0.065285 255 0 255 44 23
0.570032 0.307584 -0.086345 255 0 255 44 23
0.680085 0.323721 -0.112345 255 0 255 44 23
0.550934 0.359646 -0.102345 255 0 255 44 23
0.581934 0.347733 -0.057343 255 0 255 44 23
0.692553 0.341101 -0.124346 255 0 255 44 23
0.641178 0.316127 -0.122345 255 0 255 44 23
0.554977 0.318182 -0.051054 255 0 255 44 23
