ply
format ascii 1.0
element vertex 1085
property float x
property float y
property float z
property uchar red
property uchar green
property uchar blue
property uchar semantic_label
property uchar instance_label
end_header
1.156059 1.209978 -0.650792 0 255 0 45 20
1.196299 1.211648 -0.554900 0 255 0 45 20
1.149130 1.268701 -0.575814 0 255 0 45 20
1.320623 1.209758 -0.500106 255 125 0 45 21
1.274333 1.242089 -0.693777 255 125 0 45 21
1.334931 1.257834 -0.599730 255 125 0 45 21
1.269148 1.249325 -0.550792 255 125 0 45 21
1.275212 1.217366 -0.622706 255 125 0 45 21
1.335874 1.220829 -0.662792 255 125 0 45 21
1.304790 1.279564 -0.496792 255 125 0 45 21
1.313171 1.203559 -0.568792 255 125 0 45 21
1.337759 1.251901 -0.538792 255 125 0 45 21
1.268599 1.234351 -0.494792 255 125 0 45 21
1.324356 1.208965 -0.616792 255 125 0 45 21
1.291178 1.205903 -0.666792 255 125 0 45 21
1.285595 1.208496 -0.530792 255 125 0 45 21
1.334003 1.263087 -0.644792 255 125 0 45 21
1.338368 1.250969 -0.494792 255 125 0 45 21
1.270959 1.255074 -0.593718 255 125 0 45 21
1.269296 1.247249 -0.651823 255 125 0 45 21
1.336471 1.255462 -0.685783 255 125 0 45 21
1.275212 1.217366 -0.577567 255 125 0 45 21
1.330202 1.213856 -0.536792 255 125 0 45 21
1.339307 1.230323 -0.572930 255 125 0 45 21
1.313629 1.215334 -0.693776 255 125 0 45 21
1.303202 1.243235 -0.500792 255 125 0 45 21
1.296904 1.203985 -0.598792 255 125 0 45 21
1.340361 1.235284 -0.628792 255 125 0 45 21
1.271142 1.255936 -0.518792 255 125 0 45 21
1.300885 1.203473 -0.636792 255 125 0 45 21
1.290447 1.212083 -0.494190 255 125 0 45 21
1.271081 1.250959 -0.622792 255 125 0 45 21
1.340179 1.232182 -0.516792 255 125 0 45 21
1.271045 1.226430 -0.670792 255 125 0 45 21
1.339157 1.228310 -0.600792 255 125 0 45 21
1.282820 1.262776 -0.494314 255 125 0 45 21
1.272005 1.221516 -0.550792 255 125 0 45 21
1.286650 1.216979 -0.690792 255 125 0 45 21
1.270039 1.228689 -0.520792 255 125 0 45 21
1.284064 1.220534 -0.646792 255 125 0 45 21
1.319688 1.214978 -0.590792 255 125 0 45 21
1.315487 1.204836 -0.658792 255 125 0 45 21
1.333146 1.230199 -0.686792 255 125 0 45 21
1.311044 1.203174 -0.522792 255 125 0 45 21
1.269882 1.230767 -0.601791 255 125 0 45 21
1.304758 1.212079 -0.546792 255 125 0 45 21
1.339122 1.246720 -0.662792 255 125 0 45 21
1.324849 1.220023 -0.640792 255 125 0 45 21
1.271961 1.240548 -0.573807 255 125 0 45 21
1.333806 1.262162 -0.559761 255 125 0 45 21
1.289072 1.205614 -0.562792 255 125 0 45 21
1.325058 1.269103 -0.500792 255 125 0 45 21
1.339307 1.230323 -0.549867 255 125 0 45 21
1.323656 1.233650 -0.497551 255 125 0 45 21
1.337764 1.251924 -0.578792 255 125 0 45 21
1.330309 1.213833 -0.560792 255 125 0 45 21
1.336471 1.255462 -0.515524 255 125 0 45 21
1.296929 1.213721 -0.618792 255 125 0 45 21
1.269833 1.232822 -0.636792 255 125 0 45 21
1.327086 1.210429 -0.678792 255 125 0 45 21
1.322907 1.220505 -0.518792 255 125 0 45 21
1.296925 1.213702 -0.580792 255 125 0 45 21
1.285600 1.218142 -0.512792 255 125 0 45 21
1.307072 1.203723 -0.678792 255 125 0 45 21
1.334753 1.251738 -0.618792 255 125 0 45 21
1.305095 1.223282 -0.501560 255 125 0 45 21
1.271038 1.245826 -0.674792 255 125 0 45 21
1.286031 1.220169 -0.598792 255 125 0 45 21
1.340138 1.234236 -0.648082 255 125 0 45 21
1.288320 1.230937 -0.497316 255 125 0 45 21
1.269679 1.243078 -0.532792 255 125 0 45 21
1.302805 1.202890 -0.504792 255 125 0 45 21
1.307127 1.261699 -0.501744 255 125 0 45 21
1.338750 1.244754 -0.560792 255 125 0 45 21
1.269161 1.251367 -0.500792 255 125 0 45 21
1.329264 1.226324 -0.616792 255 125 0 45 21
1.280995 1.225334 -0.534792 255 125 0 45 21
1.300839 1.212879 -0.652792 255 125 0 45 21
1.333355 1.235677 -0.532792 255 125 0 45 21
1.335271 1.220957 -0.504030 255 125 0 45 21
1.321114 1.250547 -0.501747 255 125 0 45 21
1.332105 1.215683 -0.578792 255 125 0 45 21
1.309895 1.212038 -0.606792 255 125 0 45 21
1.273527 1.234081 -0.618792 255 125 0 45 21
1.312237 1.213585 -0.628792 255 125 0 45 21
1.308871 1.202567 -0.586792 255 125 0 45 21
1.285778 1.247835 -0.501572 255 125 0 45 21
1.275628 1.219322 -0.497391 255 125 0 45 21
1.285735 1.209154 -0.632792 255 125 0 45 21
1.289522 1.217350 -0.550792 255 125 0 45 21
1.270954 1.230539 -0.654792 255 125 0 45 21
1.339895 1.242713 -0.592792 255 125 0 45 21
1.320053 1.205790 -0.546792 255 125 0 45 21
1.335891 1.247406 -0.638792 255 125 0 45 21
1.277497 1.228118 -0.564792 255 125 0 45 21
1.284072 1.220572 -0.662792 255 125 0 45 21
1.315587 1.205306 -0.642792 255 125 0 45 21
1.339825 1.234302 -0.672792 255 125 0 45 21
1.298883 1.213297 -0.520792 255 125 0 45 21
1.280369 1.212769 -0.676792 255 125 0 45 21
1.275335 1.227563 -0.687227 255 125 0 45 21
1.271028 1.245781 -0.606792 255 125 0 45 21
1.329888 1.213923 -0.602792 255 125 0 45 21
1.341013 1.238353 -0.612792 255 125 0 45 21
1.332161 1.229797 -0.586792 255 125 0 45 21
1.273990 1.230857 -0.586792 255 125 0 45 21
1.284004 1.210632 -0.610792 255 125 0 45 21
1.300851 1.203316 -0.534792 255 125 0 45 21
1.315364 1.213877 -0.532792 255 125 0 45 21
1.333444 1.217256 -0.628792 255 125 0 45 21
1.338598 1.236608 -0.502532 255 125 0 45 21
1.302799 1.212482 -0.562792 255 125 0 45 21
1.268755 1.241230 -0.512792 255 125 0 45 21
1.284817 1.209190 -0.588792 255 125 0 45 21
1.326492 1.222823 -0.548792 255 125 0 45 21
1.305952 1.212876 -0.666792 255 125 0 45 21
1.292724 1.270895 -0.501754 255 125 0 45 21
1.294970 1.214127 -0.678792 255 125 0 45 21
1.328273 1.212221 -0.652792 255 125 0 45 21
1.272867 1.235192 -0.544792 255 125 0 45 21
1.306153 1.202610 -0.620792 255 125 0 45 21
1.320908 1.215832 -0.666792 255 125 0 45 21
1.320115 1.216991 -0.570792 255 125 0 45 21
1.277707 1.229104 -0.507773 255 125 0 45 21
1.333976 1.243724 -0.693720 255 125 0 45 21
1.335910 1.220822 -0.524792 255 125 0 45 21
1.289068 1.205596 -0.506792 255 125 0 45 21
1.311462 1.214758 -0.512792 255 125 0 45 21
1.287559 1.217738 -0.570792 255 125 0 45 21
1.289419 1.207248 -0.646792 255 125 0 45 21
1.328917 1.224353 -0.674792 255 125 0 45 21
1.279730 1.224584 -0.610792 255 125 0 45 21
1.316589 1.214705 -0.556792 255 125 0 45 21
1.340277 1.244508 -0.524792 255 125 0 45 21
1.290998 1.205058 -0.544792 255 125 0 45 21
1.269096 1.237068 -0.558792 255 125 0 45 21
1.276099 1.217177 -0.524792 255 125 0 45 21
1.300644 1.211960 -0.691564 255 125 0 45 21
1.275013 1.219453 -0.636792 255 125 0 45 21
1.278562 1.213886 -0.560792 255 125 0 45 21
1.331739 1.227842 -0.560792 255 125 0 45 21
1.308469 1.210297 -0.494278 255 125 0 45 21
1.326614 1.218708 -0.689458 255 125 0 45 21
1.295682 1.255953 -0.497481 255 125 0 45 21
1.314659 1.268277 -0.492590 255 125 0 45 21
1.322067 1.207406 -0.516792 255 125 0 45 21
1.274605 1.217495 -0.590792 255 125 0 45 21
1.271034 1.245806 -0.638792 255 125 0 45 21
1.329294 1.226317 -0.652792 255 125 0 45 21
1.270543 1.253118 -0.663867 255 125 0 45 21
1.280320 1.212538 -0.542792 255 125 0 45 21
1.319944 1.206567 -0.580792 255 125 0 45 21
1.300781 1.202988 -0.572792 255 125 0 45 21
1.269489 1.243118 -0.588792 255 125 0 45 21
1.337368 1.224601 -0.638792 255 125 0 45 21
1.276535 1.262068 -0.505661 255 125 0 45 21
1.334973 1.243512 -0.680792 255 125 0 45 21
1.326197 1.220841 -0.494792 255 125 0 45 21
1.336249 1.254416 -0.672792 255 125 0 45 21
1.309089 1.213215 -0.576792 255 125 0 45 21
1.311578 1.273021 -0.505750 255 125 0 45 21
1.310307 1.203772 -0.554792 255 125 0 45 21
1.331747 1.258511 -0.502792 255 125 0 45 21
1.335013 1.243504 -0.548792 255 125 0 45 21
1.337677 1.224535 -0.538792 255 125 0 45 21
1.317677 1.205519 -0.598792 255 125 0 45 21
1.294963 1.214093 -0.536792 255 125 0 45 21
1.299103 1.214332 -0.507787 255 125 0 45 21
1.315370 1.213904 -0.680792 255 125 0 45 21
1.270817 1.240792 -0.662792 255 125 0 45 21
1.337354 1.249997 -0.650792 255 125 0 45 21
1.334982 1.243510 -0.512792 255 125 0 45 21
1.286023 1.220132 -0.582792 255 125 0 45 21
1.311503 1.234188 -0.501769 255 125 0 45 21
1.334930 1.218985 -0.592792 255 125 0 45 21
1.313417 1.214336 -0.650792 255 125 0 45 21
1.306700 1.211592 -0.594792 255 125 0 45 21
1.336614 1.246512 -0.604792 255 125 0 45 21
1.335391 1.235245 -0.660792 255 125 0 45 21
1.298656 1.202607 -0.610792 255 125 0 45 21
1.285287 1.207046 -0.518683 255 125 0 45 21
1.334584 1.241550 -0.572792 255 125 0 45 21
1.270041 1.230733 -0.532792 255 125 0 45 21
1.323323 1.222464 -0.506792 255 125 0 45 21
1.294973 1.214138 -0.606792 255 125 0 45 21
1.276072 1.240650 -0.502792 255 125 0 45 21
1.324535 1.208927 -0.628892 255 125 0 45 21
1.277497 1.228114 -0.628792 255 125 0 45 21
1.296714 1.203089 -0.586792 255 125 0 45 21
1.316211 1.204562 -0.670792 255 125 0 45 21
1.296937 1.213762 -0.630792 255 125 0 45 21
1.294964 1.214096 -0.592792 255 125 0 45 21
1.321726 1.219747 -0.624792 255 125 0 45 21
1.337403 1.255264 -0.550792 255 125 0 45 21
1.275391 1.219372 -0.654792 255 125 0 45 21
1.302893 1.203303 -0.660508 255 125 0 45 21
1.300549 1.269231 -0.492894 255 125 0 45 21
1.287548 1.217687 -0.624792 255 125 0 45 21
1.271291 1.228423 -0.574792 255 125 0 45 21
1.283878 1.210039 -0.656792 255 125 0 45 21
1.292925 1.204503 -0.624792 255 125 0 45 21
1.304792 1.202616 -0.648792 255 125 0 45 21
1.269479 1.234942 -0.678792 255 125 0 45 21
1.311821 1.203450 -0.538792 255 125 0 45 21
1.298783 1.203204 -0.556792 255 125 0 45 21
1.329673 1.228281 -0.628792 255 125 0 45 21
1.310917 1.250670 -0.496333 255 125 0 45 21
1.313133 1.203378 -0.510792 255 125 0 45 21
1.276589 1.215028 -0.602792 255 125 0 45 21
1.326930 1.224775 -0.534792 255 125 0 45 21
1.333940 1.229419 -0.494792 255 125 0 45 21
1.322481 1.218503 -0.610792 255 125 0 45 21
1.287540 1.208026 -0.576792 255 125 0 45 21
1.328063 1.225526 -0.574792 255 125 0 45 21
1.277187 1.251706 -0.492792 255 125 0 45 21
1.296756 1.203288 -0.514792 255 125 0 45 21
1.278293 1.212622 -0.506133 255 125 0 45 21
1.298933 1.232771 -0.501699 255 125 0 45 21
1.328700 1.212131 -0.524792 255 125 0 45 21
1.290357 1.221283 -0.502792 255 125 0 45 21
1.329684 1.213908 -0.510792 255 125 0 45 21
1.287557 1.217726 -0.524792 255 125 0 45 21
1.269294 1.241115 -0.628792 255 125 0 45 21
1.314600 1.219904 -0.496792 255 125 0 45 21
1.330501 1.242418 -0.496792 255 125 0 45 21
1.315792 1.215891 -0.544792 255 125 0 45 21
1.340560 1.238235 -0.540792 255 125 0 45 21
1.329677 1.228280 -0.514792 255 125 0 45 21
1.325149 1.259913 -0.494048 255 125 0 45 21
1.340599 1.238227 -0.582792 255 125 0 45 21
1.307925 1.212457 -0.638792 255 125 0 45 21
1.335890 1.220826 -0.568792 255 125 0 45 21
1.340459 1.234167 -0.562792 255 125 0 45 21
1.334269 1.235483 -0.637792 255 125 0 45 21
1.329304 1.226315 -0.604792 255 125 0 45 21
1.328552 1.212162 -0.548792 255 125 0 45 21
1.277494 1.228103 -0.642792 255 125 0 45 21
1.280578 1.223370 -0.674792 255 125 0 45 21
1.337999 1.224172 -0.610792 255 125 0 45 21
1.292488 1.240928 -0.496792 255 125 0 45 21
1.322224 1.207673 -0.564792 255 125 0 45 21
1.339527 1.248678 -0.628792 255 125 0 45 21
1.273827 1.220468 -0.512792 255 125 0 45 21
1.296935 1.213752 -0.642792 255 125 0 45 21
1.293234 1.215580 -0.659805 255 125 0 45 21
1.282536 1.222963 -0.556792 255 125 0 45 21
1.339288 1.228282 -0.620792 255 125 0 45 21
1.272456 1.238398 -0.646792 255 125 0 45 21
1.306853 1.202692 -0.602792 255 125 0 45 21
1.316220 1.204560 -0.610792 255 125 0 45 21
1.271751 1.239559 -0.522792 255 125 0 45 21
1.309092 1.213229 -0.618792 255 125 0 45 21
1.287630 1.208451 -0.600792 255 125 0 45 21
1.271036 1.245819 -0.564792 255 125 0 45 21
1.335178 1.253692 -0.588792 255 125 0 45 21
1.287659 1.208586 -0.683828 255 125 0 45 21
1.334576 1.241552 -0.622792 255 125 0 45 21
1.272131 1.222110 -0.539223 255 125 0 45 21
1.282527 1.222923 -0.544792 255 125 0 45 21
1.332067 1.215504 -0.613473 255 125 0 45 21
1.277707 1.229104 -0.494638 255 125 0 45 21
1.304750 1.212041 -0.530792 255 125 0 45 21
1.339406 1.248704 -0.504792 255 125 0 45 21
1.320652 1.209752 -0.688792 255 125 0 45 21
1.283939 1.272762 -0.496792 255 125 0 45 21
1.309177 1.204010 -0.630792 255 125 0 45 21
1.296970 1.204295 -0.680792 255 125 0 45 21
1.322487 1.218529 -0.580792 255 125 0 45 21
1.294948 1.204400 -0.524792 255 125 0 45 21
1.293051 1.205099 -0.656792 255 125 0 45 21
1.320110 1.216964 -0.600792 255 125 0 45 21
1.289521 1.217350 -0.670792 255 125 0 45 21
1.339968 1.230182 -0.526792 255 125 0 45 21
1.313419 1.214344 -0.522792 255 125 0 45 21
1.334685 1.237439 -0.599791 255 125 0 45 21
1.283379 1.209496 -0.552792 255 125 0 45 21
1.299519 1.216289 -0.496016 255 125 0 45 21
1.300734 1.202764 -0.546792 255 125 0 45 21
1.269647 1.243085 -0.684792 255 125 0 45 21
1.267951 1.243445 -0.616792 255 125 0 45 21
1.316591 1.206526 -0.622792 255 125 0 45 21
1.334780 1.219017 -0.646792 255 125 0 45 21
1.318477 1.276619 -0.496792 255 125 0 45 21
1.319830 1.206030 -0.526792 255 125 0 45 21
1.300970 1.203873 -0.670792 255 125 0 45 21
1.317079 1.241182 -0.496580 255 125 0 45 21
1.275303 1.217794 -0.666792 255 125 0 45 21
1.322249 1.207791 -0.536792 255 125 0 45 21
1.296927 1.213711 -0.570792 255 125 0 45 21
1.334673 1.251755 -0.528792 255 125 0 45 21
1.277491 1.228085 -0.662792 255 125 0 45 21
1.331480 1.215629 -0.670792 255 125 0 45 21
1.329525 1.232402 -0.505758 255 125 0 45 21
1.277067 1.226092 -0.596792 255 125 0 45 21
1.289527 1.217378 -0.636792 255 125 0 45 21
1.336676 1.256423 -0.634792 255 125 0 45 21
1.292999 1.214473 -0.560792 255 125 0 45 21
1.335406 1.221592 -0.552792 255 125 0 45 21
1.333839 1.221262 -0.682792 255 125 0 45 21
1.317588 1.262816 -0.500792 255 125 0 45 21
1.268034 1.243428 -0.542792 255 125 0 45 21
1.332516 1.231766 -0.542792 255 125 0 45 21
1.324857 1.220061 -0.658792 255 125 0 45 21
1.329685 1.228279 -0.524792 255 125 0 45 21
1.270022 1.226648 -0.558792 255 125 0 45 21
1.274050 1.236015 -0.608792 255 125 0 45 21
1.333744 1.237639 -0.522792 255 125 0 45 21
1.286782 1.218996 -0.614792 255 125 0 45 21
1.337633 1.224545 -0.580792 255 125 0 45 21
1.278415 1.218730 -0.684792 255 125 0 45 21
1.337346 1.249956 -0.568792 255 125 0 45 21
1.317542 1.214502 -0.637793 255 125 0 45 21
1.310010 1.207925 -0.686912 255 125 0 45 21
1.282944 1.211633 -0.666792 255 125 0 45 21
1.273288 1.260713 -0.496792 255 125 0 45 21
1.273216 1.219835 -0.566792 255 125 0 45 21
1.326478 1.222826 -0.590792 255 125 0 45 21
1.329434 1.212732 -0.636792 255 125 0 45 21
1.266508 1.243752 -0.495811 255 125 0 45 21
1.279029 1.225702 -0.520792 255 125 0 45 21
1.270127 1.251161 -0.583837 255 125 0 45 21
1.271748 1.239545 -0.598792 255 125 0 45 21
1.305960 1.212875 -0.676792 255 125 0 45 21
1.282212 1.211821 -0.642792 255 125 0 45 21
1.327794 1.212323 -0.586792 255 125 0 45 21
1.323424 1.211207 -0.644792 255 125 0 45 21
1.322486 1.218523 -0.528792 255 125 0 45 21
1.333632 1.232485 -0.610792 255 125 0 45 21
1.340317 1.232153 -0.590792 255 125 0 45 21
1.288689 1.261529 -0.501527 255 125 0 45 21
1.335476 1.220914 -0.514792 255 125 0 45 21
1.291427 1.267081 -0.492792 255 125 0 45 21
1.328783 1.212113 -0.570792 255 125 0 45 21
1.340094 1.243647 -0.672792 255 125 0 45 21
1.270834 1.225627 -0.622792 255 125 0 45 21
1.269116 1.230930 -0.510792 255 125 0 45 21
1.335517 1.241352 -0.653806 255 125 0 45 21
1.313213 1.213378 -0.565763 255 125 0 45 21
1.322702 1.219540 -0.561792 255 125 0 45 21
1.280125 1.212232 -0.570792 255 125 0 45 21
1.269915 1.250162 -0.510792 255 125 0 45 21
1.311550 1.205553 -0.501976 255 125 0 45 21
1.285822 1.209566 -0.620792 255 125 0 45 21
1.328484 1.212176 -0.662792 255 125 0 45 21
1.311042 1.212781 -0.586792 255 125 0 45 21
1.332103 1.229809 -0.644792 255 125 0 45 21
1.323689 1.219330 -0.680792 255 125 0 45 21
1.268543 1.235141 -0.580792 255 125 0 45 21
1.332468 1.265484 -0.496792 255 125 0 45 21
1.279028 1.225701 -0.580792 255 125 0 45 21
1.302921 1.270772 -0.501605 255 125 0 45 21
1.322163 1.207386 -0.555678 255 125 0 45 21
1.278506 1.213625 -0.516792 255 125 0 45 21
1.269702 1.232850 -0.566792 255 125 0 45 21
1.331788 1.227832 -0.666792 255 125 0 45 21
1.287611 1.237222 -0.503776 255 125 0 45 21
1.308988 1.203121 -0.576792 255 125 0 45 21
1.291278 1.215996 -0.649780 255 125 0 45 21
1.271268 1.227667 -0.500792 255 125 0 45 21
1.295572 1.207336 -0.500792 255 125 0 45 21
1.338453 1.228460 -0.654792 255 125 0 45 21
1.297243 1.224951 -0.496792 255 125 0 45 21
1.304875 1.203009 -0.564792 255 125 0 45 21
1.290990 1.205020 -0.614792 255 125 0 45 21
1.338629 1.228422 -0.508792 255 125 0 45 21
1.309889 1.212040 -0.658792 255 125 0 45 21
1.278784 1.253411 -0.501616 255 125 0 45 21
1.337630 1.224545 -0.672792 255 125 0 45 21
1.287482 1.207755 -0.674792 255 125 0 45 21
1.296731 1.212792 -0.667833 255 125 0 45 21
1.271317 1.227899 -0.612792 255 125 0 45 21
1.278652 1.214309 -0.532792 255 125 0 45 21
1.286797 1.218993 -0.536792 255 125 0 45 21
1.277056 1.216422 -0.612792 255 125 0 45 21
1.339795 1.238398 -0.554792 255 125 0 45 21
1.296131 1.277302 -0.496792 255 125 0 45 21
1.339845 1.242477 -0.644891 255 125 0 45 21
1.278623 1.214176 -0.630792 255 125 0 45 21
1.309716 1.216166 -0.503767 255 125 0 45 21
1.323777 1.209088 -0.606792 255 125 0 45 21
1.319501 1.205907 -0.678792 255 125 0 45 21
1.332878 1.233734 -0.678792 255 125 0 45 21
1.284285 1.221571 -0.496503 255 125 0 45 21
1.282947 1.224897 -0.690792 255 125 0 45 21
1.336147 1.244315 -0.534792 255 125 0 45 21
1.279721 1.224586 -0.620792 255 125 0 45 21
1.309089 1.213213 -0.538792 255 125 0 45 21
1.323777 1.219311 -0.540792 255 125 0 45 21
1.303323 1.253425 -0.500792 255 125 0 45 21
1.272876 1.235236 -0.670792 255 125 0 45 21
1.329960 1.248667 -0.502792 255 125 0 45 21
1.327826 1.214790 -0.500792 255 125 0 45 21
1.275873 1.239717 -0.494177 255 125 0 45 21
1.321349 1.217783 -0.650792 255 125 0 45 21
1.337378 1.250108 -0.596792 255 125 0 45 21
1.273112 1.221901 -0.678792 255 125 0 45 21
1.329748 1.252692 -0.494792 255 125 0 45 21
1.335056 1.219945 -0.620792 255 125 0 45 21
1.273069 1.232134 -0.552792 255 125 0 45 21
1.290897 1.204582 -0.638792 255 125 0 45 21
1.295975 1.247712 -0.501755 255 125 0 45 21
1.334062 1.234506 -0.578792 255 125 0 45 21
1.317096 1.206418 -0.632792 255 125 0 45 21
1.302781 1.202775 -0.520792 255 125 0 45 21
1.324728 1.209834 -0.596792 255 125 0 45 21
1.287572 1.217798 -0.680792 255 125 0 45 21
1.280563 1.223303 -0.572792 255 125 0 45 21
1.307135 1.213640 -0.554792 255 125 0 45 21
1.270739 1.240808 -0.550792 255 125 0 45 21
1.268434 1.239253 -0.654792 255 125 0 45 21
1.318528 1.214293 -0.658792 255 125 0 45 21
1.297345 1.263778 -0.501658 255 125 0 45 21
1.302752 1.202639 -0.592792 255 125 0 45 21
1.296930 1.213727 -0.552792 255 125 0 45 21
1.292996 1.214459 -0.514792 255 125 0 45 21
1.302792 1.212445 -0.624792 255 125 0 45 21
1.300838 1.212873 -0.600792 255 125 0 45 21
1.302794 1.212456 -0.612792 255 125 0 45 21
1.333901 1.219204 -0.544792 255 125 0 45 21
1.287567 1.217773 -0.590792 255 125 0 45 21
1.300937 1.203719 -0.628315 255 125 0 45 21
1.330507 1.265879 -0.506792 255 125 0 45 21
1.331716 1.227847 -0.596792 255 125 0 45 21
1.290992 1.205028 -0.592792 255 125 0 45 21
1.339316 1.246678 -0.612792 255 125 0 45 21
1.316167 1.212750 -0.612792 255 125 0 45 21
1.321249 1.207580 -0.652792 255 125 0 45 21
1.274058 1.221556 -0.646792 255 125 0 45 21
1.317657 1.205426 -0.588792 255 125 0 45 21
1.329475 1.212929 -0.622792 255 125 0 45 21
1.319989 1.226014 -0.498792 255 125 0 45 21
1.272440 1.223564 -0.528792 255 125 0 45 21
1.269072 1.232984 -0.626792 255 125 0 45 21
1.337471 1.224579 -0.628792 255 125 0 45 21
1.309178 1.204012 -0.665968 255 125 0 45 21
1.336557 1.246246 -0.584792 255 125 0 45 21
1.280410 1.212961 -0.594792 255 125 0 45 21
1.305218 1.233479 -0.496259 255 125 0 45 21
1.278238 1.226946 -0.652792 255 125 0 45 21
1.323725 1.209099 -0.670792 255 125 0 45 21
1.332924 1.233724 -0.554792 255 125 0 45 21
1.297048 1.204663 -0.644792 255 125 0 45 21
1.272131 1.222110 -0.583633 255 125 0 45 21
1.291179 1.205909 -0.554792 255 125 0 45 21
1.313381 1.204549 -0.650792 255 125 0 45 21
1.294894 1.204147 -0.578792 255 125 0 45 21
1.340988 1.238144 -0.530792 255 125 0 45 21
1.275042 1.235804 -0.687814 255 125 0 45 21
1.309015 1.203248 -0.530792 255 125 0 45 21
1.293071 1.205193 -0.536792 255 125 0 45 21
1.302799 1.212479 -0.586792 255 125 0 45 21
1.332879 1.233734 -0.620792 255 125 0 45 21
1.304759 1.202461 -0.512792 255 125 0 45 21
1.286032 1.220172 -0.654792 255 125 0 45 21
1.332143 1.229801 -0.568792 255 125 0 45 21
1.285602 1.218151 -0.562792 255 125 0 45 21
1.296923 1.213695 -0.528792 255 125 0 45 21
1.329281 1.226320 -0.636792 255 125 0 45 21
1.292962 1.204679 -0.570792 255 125 0 45 21
1.314218 1.213164 -0.670792 255 125 0 45 21
1.338891 1.228367 -0.680492 255 125 0 45 21
1.334354 1.221152 -0.600792 255 125 0 45 21
1.323415 1.217343 -0.632792 255 125 0 45 21
1.275947 1.230441 -0.538792 255 125 0 45 21
1.272718 1.221985 -0.604792 255 125 0 45 21
1.269986 1.230745 -0.644792 255 125 0 45 21
1.284503 1.212979 -0.500792 255 125 0 45 21
1.336471 1.255462 -0.643085 255 125 0 45 21
1.268386 1.247442 -0.576792 255 125 0 45 21
1.269416 1.230866 -0.662792 255 125 0 45 21
1.315755 1.204659 -0.560792 255 125 0 45 21
1.311625 1.244385 -0.501707 255 125 0 45 21
1.280220 1.212212 -0.582792 255 125 0 45 21
1.306704 1.211614 -0.646792 255 125 0 45 21
1.285593 1.218109 -0.606792 255 125 0 45 21
1.279802 1.224569 -0.588792 255 125 0 45 21
1.335087 1.253711 -0.664792 255 125 0 45 21
1.317958 1.216459 -0.507776 255 125 0 45 21
1.309088 1.203588 -0.546792 255 125 0 45 21
1.268751 1.235067 -0.592792 255 125 0 45 21
1.321222 1.207586 -0.572792 255 125 0 45 21
1.306956 1.203181 -0.612792 255 125 0 45 21
1.337594 1.238866 -0.686792 255 125 0 45 21
1.270959 1.255074 -0.629682 255 125 0 45 21
1.335233 1.220778 -0.654792 255 125 0 45 21
1.338981 1.228347 -0.662792 255 125 0 45 21
1.322189 1.207510 -0.508792 255 125 0 45 21
1.271147 1.255959 -0.554792 255 125 0 45 21
1.294973 1.214140 -0.544792 255 125 0 45 21
1.276204 1.227378 -0.546792 255 125 0 45 21
1.310377 1.203757 -0.594792 255 125 0 45 21
1.281325 1.222200 -0.632792 255 125 0 45 21
1.339467 1.240699 -0.634792 255 125 0 45 21
1.334615 1.241544 -0.666792 255 125 0 45 21
1.323579 1.242907 -0.500792 255 125 0 45 21
1.292968 1.214327 -0.686792 255 125 0 45 21
1.308861 1.204079 -0.638792 255 125 0 45 21
1.275122 1.231698 -0.526792 255 125 0 45 21
1.282523 1.222904 -0.506792 255 125 0 45 21
1.332906 1.233728 -0.652792 255 125 0 45 21
1.279961 1.214312 -0.650792 255 125 0 45 21
1.323669 1.258183 -0.502792 255 125 0 45 21
1.340970 1.238148 -0.569638 255 125 0 45 21
1.317387 1.255429 -0.496792 255 125 0 45 21
1.300838 1.212872 -0.660792 255 125 0 45 21
1.327361 1.226728 -0.690792 255 125 0 45 21
1.313213 1.213378 -0.599785 255 125 0 45 21
1.333729 1.237642 -0.564792 255 125 0 45 21
1.277936 1.214742 -0.550792 255 125 0 45 21
1.340516 1.236014 -0.604792 255 125 0 45 21
1.340970 1.238148 -0.511838 255 125 0 45 21
1.312211 1.227904 -0.497234 255 125 0 45 21
1.273946 1.221029 -0.504792 255 125 0 45 21
1.283830 1.209815 -0.510792 255 125 0 45 21
1.328593 1.222377 -0.566792 255 125 0 45 21
1.327229 1.221601 -0.666792 255 125 0 45 21
1.309739 1.273989 -0.494792 255 125 0 45 21
1.285622 1.208625 -0.538792 255 125 0 45 21
1.334898 1.238443 -0.588792 255 125 0 45 21
1.335201 1.220972 -0.560792 255 125 0 45 21
1.292767 1.205456 -0.606792 255 125 0 45 21
1.273593 1.219366 -0.558792 255 125 0 45 21
1.334048 1.234441 -0.512792 255 125 0 45 21
1.271204 1.226396 -0.632792 255 125 0 45 21
1.274688 1.229745 -0.676792 255 125 0 45 21
1.276718 1.229314 -0.604792 255 125 0 45 21
1.298945 1.203969 -0.618792 255 125 0 45 21
1.332211 1.240010 -0.504792 255 125 0 45 21
1.273569 1.234073 -0.516792 255 125 0 45 21
1.272273 1.222779 -0.660792 255 125 0 45 21
1.332313 1.235899 -0.691701 255 125 0 45 21
1.334618 1.221096 -0.532792 255 125 0 45 21
1.280495 1.232600 -0.501690 255 125 0 45 21
1.282574 1.242382 -0.497487 255 125 0 45 21
1.338510 1.226403 -0.646792 255 125 0 45 21
1.304748 1.212031 -0.514792 255 125 0 45 21
1.317136 1.270311 -0.500792 255 125 0 45 21
1.327653 1.223595 -0.582792 255 125 0 45 21
1.278762 1.267728 -0.498792 255 125 0 45 21
1.321315 1.217790 -0.550792 255 125 0 45 21
1.326484 1.222825 -0.598792 255 125 0 45 21
1.304754 1.212058 -0.570792 255 125 0 45 21
1.282102 1.211301 -0.524792 255 125 0 45 21
1.273282 1.237144 -0.536792 255 125 0 45 21
1.315372 1.213913 -0.580792 255 125 0 45 21
1.317741 1.215439 -0.516792 255 125 0 45 21
1.282093 1.220881 -0.528792 255 125 0 45 21
1.270713 1.234680 -0.503297 255 125 0 45 21
1.270337 1.244983 -0.504792 255 125 0 45 21
1.271519 1.224285 -0.590792 255 125 0 45 21
1.336288 1.249367 -0.520792 255 125 0 45 21
1.340151 1.244456 -0.576792 255 125 0 45 21
1.285069 1.254120 -0.497648 255 125 0 45 21
1.335471 1.237272 -0.494792 255 125 0 45 21
1.278847 1.215228 -0.660792 255 125 0 45 21
1.301808 1.207818 -0.496792 255 125 0 45 21
1.273792 1.221757 -0.616792 255 125 0 45 21
1.321067 1.207619 -0.662792 255 125 0 45 21
1.331177 1.215694 -0.518792 255 125 0 45 21
1.321690 1.214779 -0.494792 255 125 0 45 21
1.269888 1.245078 -0.556792 255 125 0 45 21
1.325718 1.210720 -0.578792 255 125 0 45 21
1.305981 1.212870 -0.522792 255 125 0 45 21
1.334791 1.219015 -0.584792 255 125 0 45 21
1.338096 1.248983 -0.554792 255 125 0 45 21
1.340794 1.232051 -0.536792 255 125 0 45 21
1.280580 1.223381 -0.602792 255 125 0 45 21
1.335640 1.251549 -0.657772 255 125 0 45 21
1.302849 1.203097 -0.580792 255 125 0 45 21
1.322620 1.209334 -0.636792 255 125 0 45 21
1.323733 1.219320 -0.672792 255 125 0 45 21
1.334931 1.257834 -0.495133 255 125 0 45 21
1.291278 1.215996 -0.507748 255 125 0 45 21
1.338263 1.226455 -0.564792 255 125 0 45 21
1.337281 1.224619 -0.588792 255 125 0 45 21
1.340468 1.240299 -0.518792 255 125 0 45 21
1.317958 1.216459 -0.687796 255 125 0 45 21
1.296663 1.202852 -0.564792 255 125 0 45 21
1.301538 1.206548 -0.686792 255 125 0 45 21
1.319263 1.212983 -0.620792 255 125 0 45 21
1.334569 1.241553 -0.614792 255 125 0 45 21
1.338092 1.226492 -0.520792 255 125 0 45 21
1.294949 1.204992 -0.632792 255 125 0 45 21
1.339202 1.249072 -0.546792 255 125 0 45 21
1.339196 1.249042 -0.678792 255 125 0 45 21
1.340044 1.238345 -0.678792 255 125 0 45 21
1.299005 1.204250 -0.652792 255 125 0 45 21
1.322484 1.266614 -0.494368 255 125 0 45 21
1.304828 1.202786 -0.540792 255 125 0 45 21
1.341312 1.236031 -0.596792 255 125 0 45 21
1.291045 1.214898 -0.600792 255 125 0 45 21
1.338664 1.230460 -0.634792 255 125 0 45 21
1.300845 1.212905 -0.682792 255 125 0 45 21
1.331729 1.227844 -0.550792 255 125 0 45 21
1.300842 1.212894 -0.636792 255 125 0 45 21
1.291475 1.216922 -0.576792 255 125 0 45 21
1.300838 1.212873 -0.540792 255 125 0 45 21
1.338865 1.228372 -0.556792 255 125 0 45 21
1.340684 1.238209 -0.664792 255 125 0 45 21
1.312164 1.256539 -0.501630 255 125 0 45 21
1.308659 1.240048 -0.496792 255 125 0 45 21
1.277499 1.228124 -0.556792 255 125 0 45 21
1.275279 1.217682 -0.544792 255 125 0 45 21
1.289199 1.206214 -0.583930 255 125 0 45 21
1.271157 1.256004 -0.506792 255 125 0 45 21
1.329695 1.213964 -0.593697 255 125 0 45 21
1.339510 1.236414 -0.620792 255 125 0 45 21
1.337389 1.255267 -0.506792 255 125 0 45 21
1.269072 1.236574 -0.528792 255 125 0 45 21
1.308197 1.266734 -0.496792 255 125 0 45 21
1.327862 1.224577 -0.555807 255 125 0 45 21
1.316327 1.204537 -0.532792 255 125 0 45 21
1.329996 1.213900 -0.644792 255 125 0 45 21
1.300181 1.238639 -0.496322 255 125 0 45 21
1.333336 1.235681 -0.630792 255 125 0 45 21
1.273875 1.220694 -0.628792 255 125 0 45 21
1.290938 1.252872 -0.501665 255 125 0 45 21
1.340970 1.238148 -0.656879 255 125 0 45 21
1.285702 1.209002 -0.567983 255 125 0 45 21
1.286023 1.268229 -0.501722 255 125 0 45 21
1.269896 1.247121 -0.658792 255 125 0 45 21
1.335104 1.253708 -0.626792 255 125 0 45 21
1.269673 1.228767 -0.544792 255 125 0 45 21
1.340511 1.236201 -0.640792 255 125 0 45 21
1.272975 1.221931 -0.520792 255 125 0 45 21
1.292110 1.219908 -0.496230 255 125 0 45 21
1.327213 1.221525 -0.628792 255 125 0 45 21
1.270195 1.241860 -0.580792 255 125 0 45 21
1.307787 1.216707 -0.496792 255 125 0 45 21
1.312871 1.205272 -0.616792 255 125 0 45 21
1.315116 1.212710 -0.494792 255 125 0 45 21
1.283746 1.209418 -0.560166 255 125 0 45 21
1.336432 1.245247 -0.498792 255 125 0 45 21
1.330000 1.225018 -0.660792 255 125 0 45 21
1.277186 1.216946 -0.642792 255 125 0 45 21
1.334160 1.239596 -0.542792 255 125 0 45 21
1.271455 1.247787 -0.538792 255 125 0 45 21
1.326475 1.222827 -0.646792 255 125 0 45 21
1.340770 1.242280 -0.626792 255 125 0 45 21
1.269291 1.239071 -0.640792 255 125 0 45 21
1.338948 1.246757 -0.620792 255 125 0 45 21
1.309094 1.203616 -0.656792 255 125 0 45 21
1.281318 1.222202 -0.640792 255 125 0 45 21
1.275584 1.233644 -0.580792 255 125 0 45 21
1.327648 1.223572 -0.610792 255 125 0 45 21
1.325430 1.213135 -0.684792 255 125 0 45 21
1.329269 1.226322 -0.682792 255 125 0 45 21
1.334598 1.241547 -0.528792 255 125 0 45 21
1.333854 1.233527 -0.593761 255 125 0 45 21
1.273208 1.246417 -0.494271 255 125 0 45 21
1.324864 1.220095 -0.618792 255 125 0 45 21
1.336555 1.246236 -0.686792 255 125 0 45 21
1.334479 1.236470 -0.548792 255 125 0 45 21
1.277765 1.225002 -0.668792 255 125 0 45 21
1.280442 1.213110 -0.618792 255 125 0 45 21
1.290342 1.273446 -0.494792 255 125 0 45 21
1.294043 1.205184 -0.674792 255 125 0 45 21
1.317974 1.235773 -0.500792 255 125 0 45 21
1.283483 1.211518 -0.626792 255 125 0 45 21
1.271032 1.245800 -0.526792 255 125 0 45 21
1.326907 1.210467 -0.541561 255 125 0 45 21
1.288527 1.206357 -0.524792 255 125 0 45 21
1.302260 1.248421 -0.496455 255 125 0 45 21
1.293442 1.216557 -0.586792 255 125 0 45 21
1.269315 1.247338 -0.516792 255 125 0 45 21
1.313342 1.204366 -0.604792 255 125 0 45 21
1.291483 1.216961 -0.530792 255 125 0 45 21
1.328904 1.224355 -0.542792 255 125 0 45 21
1.271743 1.239522 -0.566792 255 125 0 45 21
1.277496 1.228110 -0.514792 255 125 0 45 21
1.284066 1.220542 -0.518792 255 125 0 45 21
1.340040 1.230167 -0.608792 255 125 0 45 21
1.337123 1.224653 -0.546792 255 125 0 45 21
1.324856 1.220056 -0.604792 255 125 0 45 21
1.289523 1.217357 -0.542792 255 125 0 45 21
1.313418 1.214340 -0.550792 255 125 0 45 21
1.275879 1.217224 -0.674792 255 125 0 45 21
1.318535 1.214291 -0.606792 255 125 0 45 21
1.331095 1.215711 -0.678792 255 125 0 45 21
1.326338 1.210588 -0.530792 255 125 0 45 21
1.272565 1.224151 -0.640792 255 125 0 45 21
1.279032 1.225718 -0.680792 255 125 0 45 21
1.339986 1.242447 -0.600792 255 125 0 45 21
1.326501 1.222822 -0.512792 255 125 0 45 21
1.309092 1.213226 -0.682792 255 125 0 45 21
1.271199 1.226398 -0.566792 255 125 0 45 21
1.332465 1.231777 -0.602792 255 125 0 45 21
1.275171 1.231687 -0.648792 255 125 0 45 21
1.313421 1.214354 -0.592792 255 125 0 45 21
1.336934 1.228782 -0.502419 255 125 0 45 21
1.337042 1.248528 -0.668792 255 125 0 45 21
1.298395 1.220617 -0.501624 255 125 0 45 21
1.274009 1.236024 -0.656792 255 125 0 45 21
1.282621 1.213746 -0.683853 255 125 0 45 21
1.293773 1.227733 -0.501653 255 125 0 45 21
1.270623 1.243874 -0.622792 255 125 0 45 21
1.291402 1.206958 -0.512792 255 125 0 45 21
1.321636 1.214526 -0.676792 255 125 0 45 21
1.339358 1.230565 -0.582792 255 125 0 45 21
1.334830 1.218879 -0.636792 255 125 0 45 21
1.269507 1.243114 -0.668792 255 125 0 45 21
1.273725 1.219989 -0.596792 255 125 0 45 21
1.282112 1.211351 -0.602792 255 125 0 45 21
1.340719 1.242291 -0.506792 255 125 0 45 21
1.272911 1.232168 -0.560792 255 125 0 45 21
1.313413 1.204697 -0.676792 255 125 0 45 21
1.332454 1.223601 -0.498792 255 125 0 45 21
1.317312 1.213423 -0.644792 255 125 0 45 21
1.325401 1.227145 -0.502792 255 125 0 45 21
1.315387 1.204364 -0.516792 255 125 0 45 21
1.269347 1.239059 -0.604792 255 125 0 45 21
1.296140 1.204739 -0.662792 255 125 0 45 21
1.334143 1.239599 -0.642792 255 125 0 45 21
1.335137 1.253701 -0.544792 255 125 0 45 21
1.339089 1.232414 -0.614792 255 125 0 45 21
1.332303 1.216615 -0.658792 255 125 0 45 21
1.275952 1.230465 -0.570792 255 125 0 45 21
1.285600 1.208519 -0.546792 255 125 0 45 21
1.332156 1.215922 -0.566792 255 125 0 45 21
1.317840 1.220573 -0.502792 255 125 0 45 21
1.340304 1.244637 -0.656792 255 125 0 45 21
1.315394 1.204397 -0.574792 255 125 0 45 21
1.337124 1.243055 -0.566792 255 125 0 45 21
1.300835 1.212861 -0.672792 255 125 0 45 21
1.271276 1.226381 -0.514792 255 125 0 45 21
1.336471 1.255462 -0.557147 255 125 0 45 21
1.315331 1.204104 -0.550792 255 125 0 45 21
1.333632 1.232484 -0.670792 255 125 0 45 21
1.276002 1.235600 -0.506792 255 125 0 45 21
1.340970 1.238148 -0.576166 255 125 0 45 21
1.274210 1.231891 -0.593771 255 125 0 45 21
1.269460 1.228785 -0.582792 255 125 0 45 21
1.292663 1.217746 -0.692792 255 125 0 45 21
1.295846 1.208629 -0.688792 255 125 0 45 21
1.281081 1.216118 -0.495651 255 125 0 45 21
1.304339 1.258202 -0.496685 255 125 0 45 21
1.329941 1.234358 -0.496069 255 125 0 45 21
1.295021 1.233602 -0.496729 255 125 0 45 21
1.334891 1.238408 -0.608792 255 125 0 45 21
1.331463 1.215633 -0.554792 255 125 0 45 21
1.335003 1.243506 -0.596792 255 125 0 45 21
1.312410 1.276934 -0.499767 255 125 0 45 21
1.339180 1.248965 -0.590792 255 125 0 45 21
1.278123 1.231060 -0.691757 255 125 0 45 21
1.334460 1.219085 -0.608792 255 125 0 45 21
1.282088 1.220858 -0.550792 255 125 0 45 21
1.300851 1.203316 -0.604792 255 125 0 45 21
1.289085 1.215297 -0.664792 255 125 0 45 21
1.270464 1.240867 -0.610792 255 125 0 45 21
1.295900 1.208879 -0.493569 255 125 0 45 21
1.300685 1.202535 -0.526792 255 125 0 45 21
1.340471 1.235803 -0.546792 255 125 0 45 21
1.273073 1.221910 -0.572792 255 125 0 45 21
1.331710 1.227848 -0.530792 255 125 0 45 21
1.336678 1.256436 -0.678792 255 125 0 45 21
1.331106 1.215709 -0.530792 255 125 0 45 21
1.338143 1.226481 -0.594792 255 125 0 45 21
1.338484 1.226408 -0.532792 255 125 0 45 21
1.282168 1.211612 -0.576792 255 125 0 45 21
1.271452 1.247774 -0.612792 255 125 0 45 21
1.271041 1.245840 -0.598792 255 125 0 45 21
1.333627 1.232460 -0.518792 255 125 0 45 21
1.302977 1.203695 -0.642792 255 125 0 45 21
1.268735 1.237145 -0.586792 255 125 0 45 21
1.336495 1.222742 -0.574792 255 125 0 45 21
1.326473 1.222828 -0.524792 255 125 0 45 21
1.341104 1.236075 -0.524792 255 125 0 45 21
1.328983 1.224339 -0.622792 255 125 0 45 21
1.307109 1.213517 -0.688792 255 125 0 45 21
1.296908 1.204005 -0.506792 255 125 0 45 21
1.314829 1.249839 -0.501655 255 125 0 45 21
1.280280 1.212351 -0.636792 255 125 0 45 21
1.336279 1.249369 -0.510792 255 125 0 45 21
1.293001 1.214481 -0.612792 255 125 0 45 21
1.281988 1.258864 -0.501691 255 125 0 45 21
1.279493 1.247126 -0.501615 255 125 0 45 21
1.317737 1.215419 -0.538792 255 125 0 45 21
1.302789 1.212434 -0.576792 255 125 0 45 21
1.293007 1.214511 -0.522792 255 125 0 45 21
1.306844 1.202654 -0.570792 255 125 0 45 21
1.294969 1.214122 -0.624792 255 125 0 45 21
1.287562 1.217751 -0.556792 255 125 0 45 21
1.309085 1.213194 -0.560792 255 125 0 45 21
1.304386 1.229567 -0.501716 255 125 0 45 21
1.332113 1.229807 -0.536792 255 125 0 45 21
1.304749 1.212034 -0.630792 255 125 0 45 21
1.340410 1.230089 -0.542792 255 125 0 45 21
1.276995 1.216134 -0.538792 255 125 0 45 21
1.339866 1.244517 -0.540792 255 125 0 45 21
1.335493 1.235223 -0.570792 255 125 0 45 21
1.280361 1.257165 -0.492792 255 125 0 45 21
1.314686 1.206931 -0.682792 255 125 0 45 21
1.317577 1.205049 -0.540792 255 125 0 45 21
1.271358 1.230453 -0.682792 255 125 0 45 21
1.277045 1.225990 -0.636792 255 125 0 45 21
1.326321 1.226949 -0.496248 255 125 0 45 21
1.285116 1.225484 -0.501695 255 125 0 45 21
1.327099 1.211368 -0.516792 255 125 0 45 21
1.335640 1.251549 -0.500368 255 125 0 45 21
1.283296 1.221782 -0.626792 255 125 0 45 21
1.272171 1.254816 -0.494792 255 125 0 45 21
1.268319 1.237233 -0.616792 255 125 0 45 21
1.301674 1.264903 -0.497191 255 125 0 45 21
1.291137 1.205712 -0.530792 255 125 0 45 21
1.322286 1.217583 -0.693742 255 125 0 45 21
1.330855 1.229041 -0.580792 255 125 0 45 21
1.312990 1.212326 -0.664792 255 125 0 45 21
1.306050 1.237392 -0.501726 255 125 0 45 21
1.305969 1.212873 -0.508792 255 125 0 45 21
1.338060 1.234077 -0.682792 255 125 0 45 21
1.285040 1.209143 -0.650792 255 125 0 45 21
1.330427 1.227026 -0.508792 255 125 0 45 21
1.327937 1.263410 -0.501750 255 125 0 45 21
1.270707 1.240815 -0.634792 255 125 0 45 21
1.270959 1.255074 -0.669702 255 125 0 45 21
1.303631 1.216392 -0.502792 255 125 0 45 21
1.284797 1.219418 -0.576792 255 125 0 45 21
1.271758 1.244681 -0.646792 255 125 0 45 21
1.290294 1.216205 -0.630792 255 125 0 45 21
1.269363 1.241101 -0.678792 255 125 0 45 21
1.290284 1.216207 -0.642792 255 125 0 45 21
1.284285 1.221571 -0.685794 255 125 0 45 21
1.276678 1.229322 -0.532792 255 125 0 45 21
1.317741 1.215439 -0.626792 255 125 0 45 21
1.287611 1.237222 -0.497229 255 125 0 45 21
1.281278 1.222210 -0.566792 255 125 0 45 21
1.324098 1.221288 -0.572792 255 125 0 45 21
1.338121 1.248977 -0.644792 255 125 0 45 21
1.323685 1.209107 -0.590792 255 125 0 45 21
1.339153 1.229602 -0.668792 255 125 0 45 21
1.323732 1.272482 -0.495851 255 125 0 45 21
1.270012 1.234829 -0.572792 255 125 0 45 21
1.333637 1.232507 -0.526792 255 125 0 45 21
1.327094 1.211343 -0.554792 255 125 0 45 21
1.335053 1.219931 -0.676792 255 125 0 45 21
1.273574 1.234072 -0.630792 255 125 0 45 21
1.317835 1.206261 -0.504281 255 125 0 45 21
1.332252 1.223644 -0.688792 255 125 0 45 21
1.298732 1.202966 -0.540792 255 125 0 45 21
1.326444 1.237146 -0.501697 255 125 0 45 21
1.281306 1.222204 -0.594792 255 125 0 45 21
1.312287 1.266736 -0.501631 255 125 0 45 21
1.328637 1.212144 -0.608792 255 125 0 45 21
1.285627 1.208646 -0.594792 255 125 0 45 21
1.322621 1.207289 -0.622792 255 125 0 45 21
1.272280 1.226168 -0.650792 255 125 0 45 21
1.276708 1.229316 -0.616792 255 125 0 45 21
1.191664 1.014299 -0.674792 0 255 255 60 22
1.121765 1.145703 -0.670792 0 255 255 60 22
1.204242 1.105681 -0.686792 0 255 255 60 22
1.120106 0.959005 -0.686792 0 255 255 60 22
1.122531 1.061708 -0.688792 0 255 255 60 22
1.209088 0.954374 -0.698792 0 255 255 60 22
1.136987 1.009563 -0.674395 0 255 255 60 22
1.152618 1.102341 -0.674550 0 255 255 60 22
1.167503 0.970362 -0.674433 0 255 255 60 22
1.183134 1.063140 -0.674461 0 255 255 60 22
1.176544 1.142238 -0.678792 0 255 255 60 22
1.152297 1.043113 -0.674757 0 255 255 60 22
1.200643 0.979676 -0.676792 0 255 255 60 22
1.200911 1.040959 -0.693291 0 255 255 60 22
1.120364 1.109197 -0.680792 0 255 255 60 22
1.146881 0.969537 -0.696792 0 255 255 60 22
1.165704 1.000375 -0.680792 0 255 255 60 22
1.146381 1.072997 -0.674415 0 255 255 60 22
1.123335 1.031913 -0.688792 0 255 255 60 22
1.148658 1.131808 -0.679750 0 255 255 60 22
1.205356 1.144293 -0.684792 0 255 255 60 22
1.181131 1.092191 -0.674583 0 255 255 60 22
1.205505 1.076787 -0.686792 0 255 255 60 22
1.124172 0.987751 -0.687470 0 255 255 60 22
1.181613 0.969408 -0.697691 0 255 255 60 22
1.177729 1.037708 -0.679647 0 255 255 60 22
1.184580 1.118039 -0.674110 0 255 255 60 22
1.146107 0.985133 -0.674303 0 255 255 60 22
1.197632 0.996673 -0.695740 0 255 255 60 22
1.124371 1.084882 -0.678792 0 255 255 60 22
1.160292 1.023012 -0.681791 0 255 255 60 22
1.191688 0.959087 -0.679776 0 255 255 60 22
1.139577 0.964030 -0.675783 0 255 255 60 22
1.130778 1.047688 -0.674180 0 255 255 60 22
1.125671 1.129475 -0.684792 0 255 255 60 22
1.167607 1.076663 -0.679691 0 255 255 60 22
1.200250 1.018608 -0.693683 0 255 255 60 22
1.184647 0.993299 -0.674788 0 255 255 60 22
1.199423 1.125107 -0.692792 0 255 255 60 22
1.202556 1.056967 -0.678792 0 255 255 60 22
1.164186 1.118284 -0.679749 0 255 255 60 22
1.197756 1.033451 -0.674792 0 255 255 60 22
1.140938 1.028154 -0.680792 0 255 255 60 22
1.165405 1.056685 -0.679701 0 255 255 60 22
1.165424 0.960581 -0.691063 0 255 255 60 22
1.195288 1.062601 -0.695751 0 255 255 60 22
1.195241 1.091237 -0.695659 0 255 255 60 22
1.137090 1.115865 -0.674200 0 255 255 60 22
1.123112 1.006379 -0.686792 0 255 255 60 22
1.200253 0.970527 -0.696792 0 255 255 60 22
1.202376 0.999754 -0.678386 0 255 255 60 22
1.199153 1.090405 -0.675736 0 255 255 60 22
1.194192 1.134398 -0.674494 0 255 255 60 22
1.183061 0.976219 -0.680792 0 255 255 60 22
1.190650 0.954203 -0.698792 0 255 255 60 22
1.135304 1.097842 -0.674526 0 255 255 60 22
1.125174 0.973225 -0.678190 0 255 255 60 22
1.130607 1.066126 -0.674374 0 255 255 60 22
1.176358 1.021642 -0.674256 0 255 255 60 22
1.136204 0.957783 -0.690792 0 255 255 60 22
1.188417 1.078374 -0.679744 0 255 255 60 22
1.145010 1.056930 -0.679727 0 255 255 60 22
1.149232 0.999837 -0.680792 0 255 255 60 22
1.201062 1.118625 -0.677447 0 255 255 60 22
1.124956 1.020299 -0.677582 0 255 255 60 22
1.162554 0.985727 -0.674792 0 255 255 60 22
1.164649 1.091605 -0.674073 0 255 255 60 22
1.131704 0.994329 -0.674724 0 255 255 60 22
1.155227 0.960703 -0.678331 0 255 255 60 22
1.135311 1.140779 -0.678792 0 255 255 60 22
1.190005 1.047366 -0.674647 0 255 255 60 22
1.191867 1.104222 -0.674973 0 255 255 60 22
1.173844 1.106008 -0.673866 0 255 255 60 22
1.163600 1.134766 -0.675286 0 255 255 60 22
1.145379 1.087522 -0.679709 0 255 255 60 22
1.205151 0.966449 -0.682792 0 255 255 60 22
1.179517 1.007642 -0.680792 0 255 255 60 22
1.124493 1.046979 -0.687711 0 255 255 60 22
1.154225 0.975229 -0.681727 0 255 255 60 22
1.151928 1.012522 -0.673908 0 255 255 60 22
1.177316 0.958809 -0.682792 0 255 255 60 22
1.164744 1.034334 -0.674074 0 255 255 60 22
1.201699 0.983540 -0.690792 0 255 255 60 22
1.192118 1.076543 -0.696792 0 255 255 60 22
1.123497 1.143290 -0.686792 0 255 255 60 22
1.124446 1.075614 -0.689741 0 255 255 60 22
1.176462 1.127943 -0.679655 0 255 255 60 22
1.204162 1.017776 -0.679852 0 255 255 60 22
1.198908 1.070010 -0.675657 0 255 255 60 22
1.151616 1.116867 -0.674231 0 255 255 60 22
1.187596 1.026414 -0.680792 0 255 255 60 22
1.176311 1.050277 -0.674309 0 255 255 60 22
1.204621 1.029552 -0.686792 0 255 255 60 22
1.127867 1.033993 -0.676231 0 255 255 60 22
1.126005 1.097774 -0.684792 0 255 255 60 22
1.175158 0.987137 -0.681783 0 255 255 60 22
1.135078 0.981344 -0.681749 0 255 255 60 22
1.126061 0.967782 -0.694792 0 255 255 60 22
1.153308 1.144064 -0.680792 0 255 255 60 22
1.166038 1.011567 -0.673975 0 255 255 60 22
1.135059 1.077448 -0.679725 0 255 255 60 22
1.204444 1.044297 -0.680792 0 255 255 60 22
1.156969 1.065096 -0.674792 0 255 255 60 22
1.156285 1.081115 -0.674184 0 255 255 60 22
1.133717 1.128850 -0.674512 0 255 255 60 22
1.194428 0.991220 -0.683780 0 255 255 60 22
1.139519 1.040717 -0.680792 0 255 255 60 22
1.198034 1.137670 -0.692792 0 255 255 60 22
1.166823 1.044115 -0.681788 0 255 255 60 22
1.196211 1.052181 -0.688792 0 255 255 60 22
1.148942 0.959995 -0.689113 0 255 255 60 22
1.190456 0.967528 -0.688792 0 255 255 60 22
1.151342 1.029004 -0.674151 0 255 255 60 22
1.204927 1.132116 -0.682792 0 255 255 60 22
1.124540 1.018343 -0.689759 0 255 255 60 22
1.134539 0.969190 -0.685767 0 255 255 60 22
1.192226 0.971241 -0.673954 0 255 255 60 22
1.198743 1.006660 -0.688792 0 255 255 60 22
1.204006 1.089373 -0.686792 0 255 255 60 22
1.171397 1.065635 -0.674235 0 255 255 60 22
1.173578 0.970082 -0.684792 0 255 255 60 22
1.163231 1.104174 -0.679714 0 255 255 60 22
1.203945 1.064850 -0.687865 0 255 255 60 22
1.128548 0.960240 -0.678079 0 255 255 60 22
1.190639 1.002249 -0.679677 0 255 255 60 22
1.199800 0.959408 -0.692792 0 255 255 60 22
1.120588 0.994647 -0.678792 0 255 255 60 22
1.142563 1.016557 -0.681791 0 255 255 60 22
1.124392 1.056124 -0.678792 0 255 255 60 22
1.178220 1.078497 -0.674350 0 255 255 60 22
1.143252 1.106376 -0.679751 0 255 255 60 22
1.182462 0.965138 -0.674792 0 255 255 60 22
1.164683 1.144759 -0.680792 0 255 255 60 22
1.126878 1.120080 -0.676792 0 255 255 60 22
1.163370 0.970156 -0.696792 0 255 255 60 22
1.193659 1.040456 -0.682792 0 255 255 60 22
1.123396 1.118776 -0.687452 0 255 255 60 22
1.191542 1.059308 -0.680792 0 255 255 60 22
1.138848 1.066419 -0.681780 0 255 255 60 22
1.198098 1.114298 -0.694792 0 255 255 60 22
1.131099 1.106915 -0.679665 0 255 255 60 22
1.192112 1.124616 -0.679738 0 255 255 60 22
1.171737 1.028758 -0.681772 0 255 255 60 22
1.174874 1.116012 -0.678792 0 255 255 60 22
1.190809 0.983810 -0.674330 0 255 255 60 22
1.205428 0.992971 -0.686792 0 255 255 60 22
1.141486 0.992250 -0.681783 0 255 255 60 22
1.166087 0.960440 -0.678792 0 255 255 60 22
1.145568 0.972980 -0.674475 0 255 255 60 22
1.157968 0.992836 -0.681788 0 255 255 60 22
1.209417 0.965542 -0.699735 0 255 255 60 22
1.155916 1.050523 -0.681786 0 255 255 60 22
1.127152 1.005520 -0.676792 0 255 255 60 22
1.119940 1.039768 -0.680792 0 255 255 60 22
1.175697 0.999291 -0.674159 0 255 255 60 22
1.157608 1.125817 -0.674247 0 255 255 60 22
1.173495 0.979312 -0.674460 0 255 255 60 22
1.156664 0.967462 -0.688792 0 255 255 60 22
1.196701 1.098105 -0.682792 0 255 255 60 22
1.135153 1.020177 -0.674284 0 255 255 60 22
1.182501 1.108257 -0.679733 0 255 255 60 22
1.175938 0.961946 -0.692792 0 255 255 60 22
1.122925 1.071848 -0.678792 0 255 255 60 22
1.142666 1.122858 -0.679783 0 255 255 60 22
1.126628 0.985184 -0.676792 0 255 255 60 22
1.156502 1.034041 -0.681786 0 255 255 60 22
1.124903 0.977372 -0.688792 0 255 255 60 22
1.144937 0.970008 -0.684792 0 255 255 60 22
1.187510 1.035629 -0.674713 0 255 255 60 22
1.136496 0.968774 -0.697740 0 255 255 60 22
1.195534 1.082996 -0.685790 0 255 255 60 22
1.183994 1.134521 -0.676277 0 255 255 60 22
1.195862 1.021585 -0.684792 0 255 255 60 22
1.193474 0.977110 -0.683789 0 255 255 60 22
1.154867 1.093684 -0.679689 0 255 255 60 22
1.158090 1.003033 -0.674398 0 255 255 60 22
1.202180 1.104642 -0.676792 0 255 255 60 22
1.191526 1.141098 -0.681787 0 255 255 60 22
1.134820 0.973220 -0.674792 0 255 255 60 22
1.135182 1.087645 -0.674225 0 255 255 60 22
1.149046 1.066296 -0.681767 0 255 255 60 22
1.171642 1.086029 -0.679701 0 255 255 60 22
1.134813 1.057053 -0.679752 0 255 255 60 22
1.199030 1.080208 -0.675756 0 255 255 60 22
1.186291 1.097228 -0.681790 0 255 255 60 22
1.171765 1.096226 -0.679708 0 255 255 60 22
1.197169 1.023352 -0.674936 0 255 255 60 22
1.196524 1.111411 -0.682792 0 255 255 60 22
1.202253 0.989557 -0.677692 0 255 255 60 22
1.159754 1.010858 -0.681786 0 255 255 60 22
1.169242 1.017020 -0.681783 0 255 255 60 22
1.141192 1.000491 -0.674189 0 255 255 60 22
1.145086 1.095763 -0.674063 0 255 255 60 22
1.196476 1.072572 -0.686792 0 255 255 60 22
1.126534 1.136511 -0.676792 0 255 255 60 22
1.199276 1.100602 -0.693655 0 255 255 60 22
1.124814 1.106206 -0.689760 0 255 255 60 22
1.176018 1.058518 -0.679641 0 255 255 60 22
1.178513 1.070256 -0.679679 0 255 255 60 22
1.140610 1.049687 -0.674792 0 255 255 60 22
1.198183 1.028121 -0.694792 0 255 255 60 22
1.167805 1.125694 -0.674495 0 255 255 60 22
1.190081 1.086199 -0.674126 0 255 255 60 22
1.150095 1.023135 -0.681779 0 255 255 60 22
1.131534 1.012767 -0.681722 0 255 255 60 22
1.152836 1.055267 -0.673944 0 255 255 60 22
1.166577 1.023721 -0.674545 0 255 255 60 22
1.182180 1.049030 -0.681788 0 255 255 60 22
1.203025 1.118238 -0.686792 0 255 255 60 22
1.184711 0.958526 -0.688792 0 255 255 60 22
1.161370 1.047319 -0.674720 0 255 255 60 22
1.142440 1.006360 -0.681751 0 255 255 60 22
1.134908 0.999782 -0.681764 0 255 255 60 22
1.142393 1.034995 -0.673840 0 255 255 60 22
1.203853 0.974904 -0.686792 0 255 255 60 22
1.157306 0.970485 -0.674169 0 255 255 60 22
1.152099 0.994083 -0.673891 0 255 255 60 22
1.126251 0.997533 -0.685742 0 255 255 60 22
1.194712 1.031034 -0.684792 0 255 255 60 22
1.197461 1.006933 -0.674792 0 255 255 60 22
1.163591 0.971194 -0.683785 0 255 255 60 22
1.183352 1.016066 -0.679696 0 255 255 60 22
1.159437 1.111115 -0.674792 0 255 255 60 22
1.198804 0.963709 -0.675936 0 255 255 60 22
1.151125 1.076077 -0.681791 0 255 255 60 22
1.195260 0.995132 -0.674688 0 255 255 60 22
1.193946 1.114003 -0.673837 0 255 255 60 22
1.144452 1.140881 -0.679729 0 255 255 60 22
1.196630 1.011199 -0.697727 0 255 255 60 22
1.123256 1.089254 -0.686792 0 255 255 60 22
1.123926 0.967357 -0.685904 0 255 255 60 22
1.127053 1.093462 -0.676792 0 255 255 60 22
1.130532 1.027293 -0.681732 0 255 255 60 22
1.168185 0.992806 -0.674792 0 255 255 60 22
1.137074 0.987053 -0.674792 0 255 255 60 22
1.140391 0.958244 -0.682792 0 255 255 60 22
1.172364 0.969329 -0.696792 0 255 255 60 22
1.165670 0.980975 -0.681786 0 255 255 60 22
