ply
format ascii 1.0
element vertex 1133
property float x
property float y
property float z
property uchar red
property uchar green
property uchar blue
property uchar semantic_label
property uchar instance_label
end_header
0.738930 1.044347 -0.297249 58 59 55 24 2
0.732596 1.036941 -0.305350 63 60 53 24 2
0.732183 1.025523 -0.296304 93 91 83 24 2
0.735078 1.041309 -0.285689 80 80 78 24 2
0.869296 1.109757 -0.310640 132 105 73 1 4
0.869881 1.144401 -0.300765 131 105 68 1 4
0.869169 1.147137 -0.275937 136 110 72 1 4
0.678380 1.118053 0.107298 89 68 45 24 2
0.678558 1.136434 0.120923 79 64 43 24 2
0.869628 1.376680 -0.211702 118 102 68 1 4
0.736932 1.699336 -0.184807 36 31 30 0 0
0.726434 1.694305 -0.183126 36 31 30 0 0
0.710004 1.687164 -0.168679 35 36 37 0 0
0.711309 1.697190 -0.153407 31 30 31 0 0
0.722793 1.692615 -0.166993 17 19 23 0 0
0.719115 1.683546 -0.190884 41 38 36 0 0
0.733542 1.697118 -0.175388 37 33 32 0 0
0.868723 1.367397 -0.185609 119 101 68 1 4
0.868164 1.402159 -0.174452 118 101 68 1 4
0.748417 0.997031 -0.278410 141 133 129 24 2
0.741486 1.003320 -0.265615 144 137 133 24 2
0.680610 1.178851 0.130923 50 42 29 24 2
0.681579 1.196809 0.103297 54 44 36 24 2
0.868004 1.385665 -0.158301 121 102 70 1 4
0.867348 1.411532 -0.140639 119 100 68 1 4
0.875527 1.018393 -0.624952 150 133 119 1 4
0.752171 1.101855 -0.172619 92 97 108 24 2
0.678406 1.000786 -0.108702 162 137 105 24 2
0.678617 0.977286 -0.106702 159 144 112 24 2
0.872108 1.239704 -0.395452 123 97 63 1 4
0.725617 1.031760 -0.059246 136 132 119 24 2
0.724414 1.055094 -0.034666 65 58 46 24 2
0.729303 1.017959 -0.045547 154 145 128 24 2
0.723962 1.036940 -0.033822 69 64 51 24 2
0.742410 1.005949 -0.593012 135 128 112 24 2
0.740347 1.011985 -0.596648 145 140 130 24 2
0.710682 1.290005 -0.405579 24 24 24 24 2
0.710203 1.263055 -0.385066 25 25 25 24 2
0.709930 1.288921 -0.392878 24 24 24 24 2
0.678237 1.160932 -0.002952 72 57 39 24 2
0.746296 1.064666 0.022256 55 43 29 24 2
0.741893 1.057151 0.026641 77 72 62 24 2
0.722846 1.053987 0.026932 54 54 48 24 2
0.724311 1.055954 0.009874 35 38 41 24 2
0.745871 1.059093 0.005705 55 42 30 24 2
0.741204 1.054463 0.007782 61 47 35 24 2
0.705465 1.198463 -0.613792 31 27 22 24 2
0.705803 1.202761 -0.626518 32 30 24 24 2
0.749957 1.112081 -0.100011 52 35 18 24 2
0.748847 1.106159 -0.124992 38 29 18 24 2
0.879605 1.273339 -0.606327 120 97 66 1 4
0.880872 1.309866 -0.639202 121 100 65 1 4
0.883878 1.398933 -0.691702 122 97 66 1 4
0.747694 1.116315 -0.162691 32 22 10 24 2
0.863140 1.310558 -0.004702 125 103 71 1 4
0.862568 1.322549 0.038298 123 104 70 1 4
0.685101 1.055161 -0.262203 130 113 97 24 2
0.680510 1.203729 -0.001452 53 48 33 24 2
0.679126 1.180764 0.030110 59 49 34 24 2
0.706271 1.155796 -0.725327 31 28 19 24 2
0.710455 1.193865 -0.739679 31 28 20 24 2
0.879312 1.291524 -0.593827 123 97 68 1 4
0.881248 1.396636 -0.596202 118 96 67 1 4
0.880283 1.365097 -0.582452 118 97 67 1 4
0.880151 1.383793 -0.572827 117 97 62 1 4
0.870076 1.322180 -0.227203 118 101 68 1 4
0.715685 1.295288 -0.436219 24 23 22 24 2
0.714100 1.296273 -0.417417 24 24 24 24 2
0.746514 1.123918 -0.122808 42 30 20 24 2
0.747679 1.116405 -0.110399 27 19 10 24 2
0.675646 1.085252 0.078297 116 93 60 24 2
0.882641 1.483924 -0.609702 113 94 66 1 4
0.680792 1.109231 -0.139202 106 91 64 24 2
0.872043 1.516369 -0.263047 115 97 66 1 4
0.678489 1.171313 -0.101202 60 52 37 24 2
0.706256 1.239342 -0.513883 26 26 25 24 2
0.712367 1.248268 -0.513739 26 25 24 24 2
0.749746 1.055192 -0.606711 23 20 14 24 2
0.750251 1.054064 -0.618651 26 24 20 24 2
0.741771 1.053006 -0.624011 24 20 15 24 2
0.747070 1.044014 -0.627810 25 22 17 24 2
0.741197 1.048047 -0.632307 25 21 17 24 2
0.872169 1.418231 -0.296703 114 96 65 1 4
0.743390 1.088117 -0.005497 33 26 15 24 2
0.727723 1.063114 -0.020474 36 40 38 24 2
0.725014 1.057779 -0.001100 39 42 42 24 2
0.743750 1.059358 -0.005283 79 64 46 24 2
0.745123 1.072467 -0.021384 42 31 19 24 2
0.745885 1.060240 -0.037405 41 29 18 24 2
0.743915 1.088275 -0.020105 47 35 23 24 2
0.723168 1.050629 -0.012829 42 38 35 24 2
0.732554 1.056738 -0.012957 88 76 64 24 2
0.743927 1.054054 -0.017614 51 40 23 24 2
0.724663 1.052857 -0.024642 38 38 33 24 2
0.730026 1.057184 -0.027753 54 52 52 24 2
0.723964 1.045116 -0.003654 68 68 66 24 2
0.737491 1.053585 -0.022887 86 75 63 24 2
0.864328 1.105545 0.146325 148 121 83 1 4
0.859661 1.107605 0.129186 149 122 87 1 4
0.863999 1.092285 0.145777 148 121 82 1 4
0.861714 1.096354 0.150460 113 91 61 1 4
0.865951 1.078731 0.147982 141 114 81 1 4
0.742934 1.124601 0.030405 47 34 23 24 2
0.749465 1.060299 -0.674932 46 44 43 24 2
0.752623 1.052748 -0.694238 32 28 25 24 2
0.749465 1.055221 -0.685146 26 22 19 24 2
0.752983 1.063577 -0.688798 26 22 19 24 2
0.881048 1.289991 -0.640952 118 97 62 1 4
-0.059449 1.413171 -0.146143 114 98 75 24 2
-0.061318 1.576448 -0.153044 100 84 63 24 2
-0.061183 1.554115 -0.158785 101 85 64 24 2
-0.061357 1.554815 -0.137612 98 82 62 24 2
0.727360 1.104370 -0.163554 61 61 67 24 2
0.748520 1.083278 -0.169958 63 52 48 24 2
0.746730 1.089252 -0.185256 62 51 47 24 2
0.731668 1.088407 -0.170285 144 134 124 24 2
0.738435 1.086975 -0.168653 80 67 51 24 2
0.748144 1.095752 -0.167892 54 44 38 24 2
0.741162 1.095519 -0.196522 54 40 31 24 2
0.730622 1.105025 -0.173540 45 46 49 24 2
0.737574 1.101804 -0.181728 86 70 60 24 2
0.738664 1.093972 -0.162454 83 70 58 24 2
0.737654 1.105161 -0.162741 78 70 69 24 2
0.739306 1.096956 -0.189402 105 94 91 24 2
0.732784 1.098556 -0.182308 51 52 56 24 2
0.734837 1.086085 -0.182289 65 66 70 24 2
0.743907 1.085118 -0.155993 89 84 83 24 2
0.705130 1.667883 -0.382914 12 12 14 0 0
0.713972 1.667241 -0.376807 9 8 8 0 0
0.735882 1.683196 -0.382826 11 8 5 0 0
0.717165 1.673421 -0.384763 14 12 10 0 0
0.719029 1.674039 -0.373051 14 12 11 0 0
0.722861 1.678999 -0.383282 14 12 11 0 0
0.718894 1.681621 -0.352897 12 13 10 0 0
0.713242 1.669778 -0.353970 14 13 10 0 0
0.716687 1.676528 -0.361481 7 7 7 0 0
0.726676 1.678244 -0.359515 13 11 10 0 0
0.707401 1.673111 -0.369675 8 8 8 0 0
0.727039 1.672600 -0.373181 13 11 10 0 0
0.707756 1.676931 -0.360932 12 12 11 0 0
0.732465 1.684323 -0.369147 12 8 4 0 0
0.688066 1.277193 0.007717 31 30 27 24 2
0.689974 1.289194 0.022743 30 31 27 24 2
0.691529 1.311237 0.018854 31 29 28 24 2
0.687350 1.273754 0.030334 32 30 26 24 2
0.688546 1.299508 0.032297 32 30 25 24 2
0.863860 1.249187 -0.030452 128 106 74 1 4
0.864903 1.242952 -0.055514 125 105 73 1 4
0.877723 1.199045 -0.605702 123 100 67 1 4
0.878958 1.225308 -0.621202 123 101 64 1 4
0.870701 1.443804 -0.231718 117 98 68 1 4
0.865736 1.557594 -0.068671 114 94 64 1 4
0.717609 1.692034 -0.129611 16 12 14 0 0
0.724515 1.700655 -0.134791 54 48 47 0 0
0.730821 1.685150 -0.130978 51 40 35 0 0
0.718229 1.691405 -0.138243 22 24 22 0 0
0.724483 1.700578 -0.152128 19 21 22 0 0
0.707414 1.685775 -0.158271 47 45 42 0 0
0.734466 1.697683 -0.154076 10 12 14 0 0
0.727510 1.687793 -0.126166 16 11 14 0 0
0.706581 1.693213 -0.148607 47 44 41 0 0
0.869644 1.394121 -0.207453 116 99 67 1 4
0.752989 1.012006 0.150161 176 171 164 1 5
0.779524 1.006622 0.146880 213 216 218 1 5
0.748892 1.008649 0.141850 214 216 220 1 5
0.772276 1.009184 0.151268 186 179 171 1 5
0.858564 1.167655 0.098539 149 127 88 1 4
0.858907 1.158951 0.112152 147 121 88 1 4
0.861971 1.504566 0.050735 121 99 68 1 4
0.861523 1.210264 0.039798 130 110 74 1 4
0.860781 1.186060 0.055642 132 110 73 1 4
0.861826 1.224771 0.050547 130 110 72 1 4
0.704148 1.253301 -0.506413 22 22 18 24 2
0.704529 1.252476 -0.486483 25 25 23 24 2
0.705533 1.245714 -0.480128 26 26 23 24 2
0.859947 1.480700 0.088997 135 111 76 1 4
0.861752 1.463807 0.080047 125 102 71 1 4
0.862408 1.494903 0.075256 132 111 79 1 4
0.699815 1.024558 -0.710824 112 95 70 24 2
-0.064821 1.645745 -0.277794 78 75 70 24 2
-0.061648 1.647110 -0.258371 84 81 78 24 2
0.739095 1.044403 -0.727423 24 20 13 24 2
0.741102 1.025659 -0.725293 76 71 59 24 2
0.696292 1.130950 -0.459452 56 51 44 24 2
0.697477 1.163424 -0.460265 49 46 37 24 2
0.751264 1.688879 -0.117985 67 57 51 0 0
0.756165 0.992643 -0.485308 155 154 160 1 5
0.758885 0.990902 -0.502185 136 132 130 1 5
0.753030 0.992253 -0.502724 133 127 129 24 2
0.772770 0.991868 -0.508793 151 150 157 1 5
0.778310 0.994784 -0.466827 151 149 153 1 5
0.734822 1.095492 -0.325897 41 41 39 24 2
0.732014 1.085538 -0.321164 29 30 31 24 2
0.734718 1.103322 -0.337915 40 40 42 24 2
0.870413 1.492881 -0.216859 115 98 65 1 4
0.691266 1.324322 -0.094702 30 31 31 24 2
0.689081 1.292088 -0.080272 30 31 28 24 2
0.692576 1.344527 -0.084183 29 30 27 24 2
0.690356 1.319543 -0.073702 30 32 29 24 2
0.700150 1.117558 -0.576139 54 52 43 24 2
0.699806 1.131679 -0.555952 55 54 44 24 2
0.861532 1.252208 0.068298 128 107 75 1 4
0.861556 1.258274 0.086295 131 107 75 1 4
0.863585 1.582982 -0.008515 114 93 64 1 4
0.870825 1.211676 -0.336702 126 104 69 1 4
0.870869 1.236681 -0.312202 122 102 67 1 4
0.690322 1.288835 -0.008785 31 32 31 24 2
0.837010 0.998211 -0.446327 201 199 211 1 5
0.847243 0.999220 -0.433952 200 198 207 1 5
0.686505 0.985351 -0.404264 150 131 106 24 2
0.754181 1.677033 -0.370469 49 40 31 0 0
0.738068 1.681478 -0.357035 8 3 2 0 0
0.741569 1.681024 -0.370321 8 4 3 0 0
0.747922 1.676241 -0.373883 8 4 3 0 0
0.753057 1.673944 -0.348630 20 11 6 0 0
0.699907 1.089674 -0.628702 57 55 40 24 2
0.701217 1.105653 -0.616702 53 49 38 24 2
0.699592 1.087919 -0.610702 58 54 40 24 2
0.675670 1.042514 0.053650 134 117 88 24 2
0.697311 1.683055 -0.017509 22 27 27 0 0
0.702954 1.677549 -0.015657 26 28 24 0 0
0.705107 1.672137 -0.021037 16 16 18 0 0
0.699148 1.685490 -0.027458 25 28 31 0 0
0.689745 1.678929 -0.004339 22 24 24 0 0
0.674509 1.007995 0.113806 157 138 111 24 2
0.675022 1.032879 0.107530 154 133 106 24 2
0.674623 1.033226 0.130298 164 145 113 24 2
0.754935 0.999709 -0.023181 166 167 165 1 5
0.768678 1.002263 -0.033702 184 186 185 1 5
0.759698 1.001045 -0.036703 175 176 177 1 5
0.750702 0.998932 -0.064916 167 169 164 1 5
0.854004 1.004285 -0.223921 203 195 194 1 5
0.860303 1.010197 -0.202410 195 185 179 1 4
0.847677 1.003006 -0.197202 201 196 196 1 5
-0.057755 1.613092 -0.281923 91 84 71 24 2
-0.058754 1.616559 -0.267532 93 84 74 24 2
-0.056586 1.632367 -0.257080 95 87 76 24 2
-0.060866 1.635727 -0.271412 93 87 79 24 2
0.715265 1.297005 -0.452717 20 20 20 24 2
0.877510 1.131281 -0.610577 119 96 64 1 4
0.880167 1.343422 -0.588202 118 96 64 1 4
0.862890 1.016294 -0.156703 187 172 161 1 4
0.858261 1.008426 -0.184703 193 181 176 1 4
0.862063 1.385425 0.056798 120 101 67 1 4
0.861827 1.346040 0.050297 121 101 66 1 4
0.862303 1.381553 0.043298 123 102 69 1 4
0.871127 1.520355 -0.233702 116 97 66 1 4
0.861767 1.016687 -0.107466 184 167 150 1 4
-0.057236 1.631533 -0.325812 78 75 70 24 2
-0.060073 1.638321 -0.302061 88 84 78 24 2
-0.056319 1.626111 -0.302972 81 75 67 24 2
-0.056499 1.608690 -0.308776 86 79 69 24 2
0.874376 1.040712 -0.524702 148 133 116 1 4
0.778236 1.003677 0.079324 197 200 199 1 5
0.758392 1.003556 0.092288 166 165 156 1 5
-0.063225 1.619821 -0.034503 89 80 67 24 2
-0.063035 1.624084 -0.005942 86 80 71 24 2
0.694978 1.168601 -0.370366 45 41 33 24 2
0.696583 1.201634 -0.395202 38 36 31 24 2
0.691372 1.056021 -0.435202 121 111 96 24 2
0.690228 1.034951 -0.418202 119 104 80 24 2
0.861992 1.009430 -0.268202 190 181 178 1 4
0.852678 1.003023 -0.285952 199 191 195 1 5
0.864653 1.012538 -0.294702 183 171 166 1 4
0.879730 1.018803 -0.735952 140 122 104 1 4
0.880398 1.062822 -0.725702 132 112 89 1 4
-0.057632 1.494283 -0.142548 106 92 68 24 2
-0.058689 1.510952 -0.145985 104 90 68 24 2
-0.060052 1.486253 -0.129638 105 90 70 24 2
0.726483 1.040281 -0.099620 62 60 45 24 2
0.729516 1.019641 -0.102327 201 199 193 24 2
0.741728 1.031665 -0.664941 26 22 16 24 2
0.738534 1.049262 -0.638777 24 20 16 24 2
0.739273 1.021576 -0.659392 124 119 106 24 2
0.744550 1.033028 -0.650252 59 55 48 24 2
0.675790 1.053149 0.135521 143 120 85 24 2
0.750310 0.994690 -0.455096 142 137 130 24 2
0.737827 1.010218 -0.457165 146 141 140 24 2
0.678149 1.151304 -0.091702 65 59 44 24 2
0.678115 1.175745 -0.079453 58 50 37 24 2
0.676907 1.161284 -0.059703 64 59 44 24 2
0.706088 1.190639 -0.645800 31 28 22 24 2
0.708568 1.207617 -0.649675 28 26 18 24 2
0.696464 0.995850 -0.681077 124 106 81 24 2
0.697296 1.016065 -0.679702 122 107 79 24 2
0.860571 1.296014 0.139053 138 112 75 1 4
0.860667 1.270592 0.136109 140 114 76 1 4
0.859080 1.284076 0.145463 132 110 71 1 4
0.861891 1.298405 0.144585 68 56 38 1 4
0.709638 1.230524 -0.681104 29 26 20 24 2
0.711461 1.231726 -0.664028 22 22 15 24 2
0.710267 1.229874 -0.698097 25 24 18 24 2
0.703965 1.221722 -0.513729 28 27 24 24 2
0.702950 1.216536 -0.502349 30 27 24 24 2
0.703762 1.222956 -0.526158 29 28 25 24 2
0.884940 1.234927 -0.779702 117 95 64 1 4
0.883792 1.209465 -0.769358 118 95 64 1 4
-0.057045 1.255289 -0.162053 108 93 74 24 2
0.861739 1.410173 0.062298 122 101 71 1 4
0.862029 1.436199 0.058460 123 100 70 1 4
0.861881 1.420552 0.046298 119 100 67 1 4
0.677305 1.037765 -0.057078 136 122 93 24 2
0.677183 1.045036 -0.033360 138 123 92 24 2
0.877024 1.296797 -0.527702 118 97 64 1 4
0.707201 1.223506 -0.391935 28 26 25 24 2
0.709190 1.232622 -0.398781 26 26 24 24 2
0.698473 1.229967 -0.391957 32 32 28 24 2
0.698449 1.231661 -0.379393 33 31 28 24 2
0.702944 1.229924 -0.389543 31 31 26 24 2
0.706573 1.226909 -0.382557 29 29 24 24 2
0.699245 1.688597 -0.005394 27 32 32 0 0
0.694522 1.690513 0.001011 36 40 36 0 0
0.696402 1.679414 -0.103890 20 22 27 0 0
0.705213 1.691009 -0.102597 21 25 29 0 0
0.682883 1.224740 0.094423 53 45 31 24 2
0.683384 1.239722 0.076172 53 44 33 24 2
0.681309 1.202492 0.071611 55 44 33 24 2
0.871226 1.392336 -0.276953 116 100 67 1 4
0.870694 1.377605 -0.243999 116 99 67 1 4
0.694801 1.395490 -0.118259 20 24 24 24 2
0.693392 1.384307 -0.103951 20 25 23 24 2
0.682009 1.247713 -0.064577 29 30 25 24 2
0.683365 1.242868 -0.040480 29 27 26 24 2
0.686240 1.254559 -0.040506 33 32 29 24 2
0.686083 1.256815 -0.055684 32 31 26 24 2
0.703057 1.199840 -0.587031 35 33 25 24 2
0.703057 1.170186 -0.588522 36 31 22 24 2
0.694957 1.252989 -0.124313 27 27 27 24 2
0.693105 1.242237 -0.131464 32 31 27 24 2
0.868803 1.190638 -0.232014 126 104 70 1 4
0.868696 1.215765 -0.203702 128 105 73 1 4
0.732596 1.071963 -0.242121 29 31 32 24 2
0.733695 1.081063 -0.225577 32 34 35 24 2
0.731461 1.101093 -0.235597 32 33 29 24 2
0.731628 1.104380 -0.248124 32 33 29 24 2
0.730874 1.084544 -0.242530 28 31 31 24 2
0.730593 1.100483 -0.213210 28 29 28 24 2
0.732849 1.090618 -0.229295 28 29 28 24 2
-0.057295 1.331446 -0.176232 117 102 79 24 2
-0.058357 1.339499 -0.183797 116 100 78 24 2
-0.057846 1.352315 -0.187431 113 97 74 24 2
0.686092 1.330999 0.187394 33 33 30 24 2
0.685348 1.295174 0.199048 33 33 30 24 2
0.686340 1.324239 0.211228 34 35 31 24 2
0.684377 1.283933 0.212579 32 33 24 24 2
0.824320 1.001776 -0.139952 209 203 204 1 5
0.797457 1.000896 -0.143202 209 202 204 1 5
0.814436 1.002260 -0.121452 210 203 205 1 5
0.692173 1.381078 0.027279 36 39 35 24 2
0.695364 1.403683 0.016564 25 28 28 24 2
0.694526 1.382309 0.018476 36 37 33 24 2
0.740006 1.022300 -0.638712 111 111 100 24 2
0.738158 1.023459 -0.624210 66 65 58 24 2
0.740814 1.046295 -0.619158 25 21 15 24 2
0.744111 1.035916 -0.615553 70 69 63 24 2
0.738774 1.025293 -0.606251 68 66 62 24 2
0.743408 1.033574 -0.627658 23 19 16 24 2
0.747961 1.038542 -0.608920 21 20 13 24 2
0.867713 1.466599 -0.153265 116 98 67 1 4
0.675366 1.033238 0.187298 91 76 53 24 2
0.676729 1.064931 0.194923 92 76 52 24 2
0.676435 1.077763 0.162297 101 84 55 24 2
0.687268 1.128585 -0.262141 66 61 47 24 2
0.866827 1.307059 -0.122265 122 103 69 1 4
0.865939 1.253168 -0.096077 123 105 71 1 4
0.745772 1.038975 -0.508235 24 21 19 24 2
0.742425 1.036501 -0.468708 87 85 86 24 2
0.745386 1.039055 -0.493667 77 77 74 24 2
0.863654 1.265497 -0.016421 128 108 72 1 4
0.862916 1.236542 -0.003703 129 107 76 1 4
0.755889 0.989796 -0.666566 124 114 96 24 2
0.764944 0.986508 -0.667702 118 106 96 1 5
0.761071 0.986940 -0.682489 116 106 95 1 5
0.698592 1.693271 0.011708 28 32 36 0 0
0.705837 1.684636 0.005648 27 29 32 0 0
0.693716 1.693067 0.015565 37 41 37 0 0
0.695961 1.690295 0.027907 32 34 38 0 0
0.690105 1.408515 0.100682 49 48 43 24 2
0.689162 1.405521 0.116871 17 18 17 24 2
0.876055 1.603953 -0.395827 114 96 67 1 4
0.876001 1.576322 -0.400077 112 95 65 1 4
-0.059690 1.554831 -0.252149 83 76 63 24 2
-0.059416 1.576275 -0.270625 92 85 72 24 2
-0.059435 1.546911 -0.269964 82 74 61 24 2
0.871005 1.287754 -0.304921 123 99 66 1 4
0.693867 1.349489 -0.015548 29 34 31 24 2
0.692039 1.350262 -0.000914 29 30 28 24 2
0.868629 1.546689 -0.173828 115 99 65 1 4
0.679532 1.166160 0.056798 58 49 36 24 2
0.880319 1.231595 -0.657202 118 94 63 1 4
0.683741 1.121147 -0.191702 82 75 52 24 2
0.684423 1.085530 -0.207577 97 86 59 24 2
0.707272 1.246932 -0.572573 24 23 20 24 2
0.708407 1.238839 -0.559612 26 24 22 24 2
0.876181 1.547446 -0.413952 113 96 65 1 4
0.885893 1.545741 -0.697577 113 95 66 1 4
0.866287 1.407221 -0.088374 120 101 67 1 4
0.865384 1.400110 -0.064703 118 100 67 1 4
0.710588 1.300962 -0.398359 19 19 20 24 2
0.710622 1.322521 -0.397179 16 15 13 24 2
0.709666 1.312233 -0.386420 19 20 20 24 2
0.711091 1.314554 -0.400211 19 19 19 24 2
0.880182 1.325513 -0.609921 120 99 67 1 4
0.865361 1.090562 -0.142702 140 113 77 1 4
0.865243 1.067808 -0.127828 141 112 76 1 4
0.881575 1.474406 -0.580639 117 94 65 1 4
0.867836 1.083481 -0.261577 135 106 72 1 4
0.868400 1.126621 -0.261702 137 109 72 1 4
0.868827 1.107625 -0.272702 133 107 71 1 4
0.860405 1.076223 0.052548 138 118 77 1 4
0.860841 1.060605 0.036986 141 119 83 1 4
0.859840 1.081591 0.069173 138 115 79 1 4
0.861438 1.050264 0.055547 140 118 80 1 4
0.836257 1.005542 0.062423 207 210 206 1 5
0.841799 1.005971 0.095028 208 210 206 1 5
0.694529 1.117335 -0.450202 60 60 47 24 2
0.695911 1.121758 -0.474452 62 59 45 24 2
0.698652 1.170040 -0.495327 42 39 30 24 2
0.698978 1.186674 -0.481702 35 32 27 24 2
0.700591 1.193453 -0.499702 40 36 33 24 2
0.701484 1.174215 -0.564702 38 35 29 24 2
0.714587 1.685535 -0.344032 18 14 10 0 0
0.720214 1.688459 -0.345847 15 11 9 0 0
0.718619 1.689068 -0.327915 15 11 9 0 0
0.691390 1.079525 -0.404702 71 66 46 24 2
0.843927 1.003034 -0.156202 210 204 203 1 5
0.848887 1.004158 -0.124324 209 202 200 1 4
0.873335 1.547272 -0.302202 114 96 64 1 4
0.861539 1.540565 0.042297 117 94 65 1 4
0.678129 0.984403 -0.089952 155 141 109 24 2
0.677348 1.004893 -0.082952 153 137 104 24 2
0.680947 1.229356 -0.049891 49 42 32 24 2
0.875063 1.112142 -0.540421 122 102 64 1 4
0.740560 1.103883 0.045505 40 31 22 24 2
0.742229 1.085303 0.042199 30 22 13 24 2
0.743235 1.073540 0.041977 59 48 34 24 2
0.745307 1.091218 0.069229 45 34 21 24 2
0.743302 1.104897 0.054669 44 33 24 24 2
-0.061527 1.456975 -0.122026 99 84 64 24 2
0.700960 1.282612 -0.213550 25 27 21 24 2
0.699970 1.280938 -0.199669 26 27 23 24 2
0.700430 1.298088 -0.217422 26 25 23 24 2
0.699425 1.301509 -0.201504 26 25 23 24 2
0.697013 1.284868 -0.191589 27 26 24 24 2
0.745768 1.087286 0.107462 52 39 28 24 2
0.746567 1.064576 0.104465 51 37 25 24 2
0.722136 1.056708 0.141427 20 24 25 24 2
0.720831 1.057908 0.114601 35 34 33 24 2
0.741796 1.053573 0.097444 85 83 72 24 2
0.737459 1.055783 0.111428 95 82 74 24 2
0.745578 1.060870 0.112934 56 43 31 24 2
0.721956 1.046868 0.103137 57 60 67 24 2
-0.057729 1.252444 -0.107832 116 100 80 24 2
0.858730 1.203076 0.103369 148 123 87 1 4
0.858694 1.204163 0.114652 149 123 90 1 4
0.859320 1.187206 0.117558 144 120 85 1 4
0.860370 1.192115 0.130817 143 120 80 1 4
0.867779 1.133487 -0.216702 137 106 73 1 4
0.867201 1.100346 -0.207639 137 107 75 1 4
0.734728 1.042812 -0.244093 59 60 56 24 2
0.731133 1.018221 -0.225552 152 145 141 24 2
0.733340 1.013990 -0.247918 157 149 144 24 2
0.730955 1.031402 -0.267511 114 110 102 24 2
0.730155 1.033287 -0.232636 88 86 75 24 2
0.731325 1.025344 -0.224231 156 150 148 24 2
0.754769 1.672120 -0.265414 45 38 33 0 0
0.742485 1.684329 -0.271791 20 13 6 0 0
0.755731 1.679203 -0.279287 8 3 0 0 0
0.866328 1.061825 -0.178702 141 115 80 1 4
0.714104 1.654599 -0.533619 13 11 10 0 0
0.734292 1.658770 -0.530108 28 26 24 0 0
0.719135 1.656685 -0.523767 7 7 6 0 0
0.726931 1.661742 -0.531340 13 13 12 0 0
0.738522 1.666325 -0.513919 13 9 6 0 0
0.734570 1.662168 -0.508374 13 12 12 0 0
0.712770 1.664125 -0.513436 7 6 4 0 0
0.720695 1.664181 -0.509321 13 12 11 0 0
0.726710 1.667170 -0.508492 13 12 11 0 0
0.688327 1.339091 0.159175 32 34 32 24 2
0.688230 1.344900 0.131291 35 33 31 24 2
0.688984 1.354384 0.151164 34 35 31 24 2
0.687293 1.340069 0.143452 33 34 30 24 2
0.874599 1.502787 -0.369702 112 96 63 1 4
0.874216 1.535160 -0.356827 114 96 63 1 4
0.676612 1.062264 -0.069453 145 133 105 24 2
0.676951 1.052926 -0.071855 138 125 99 24 2
0.744254 1.684804 -0.107690 10 11 11 0 0
0.706038 1.171794 -0.709702 32 28 20 24 2
0.676117 1.044503 0.213297 102 84 63 24 2
0.753632 1.120781 -0.427027 17 11 5 24 2
0.753050 1.117954 -0.442539 26 16 8 24 2
0.760163 1.085169 -0.604717 30 21 9 24 2
0.755915 1.086994 -0.638310 42 36 32 24 2
0.877661 1.222297 -0.594327 121 98 65 1 4
0.876540 1.196148 -0.559702 124 101 67 1 4
-0.058733 1.592068 -0.201878 93 80 56 24 2
-0.058358 1.592945 -0.219131 96 81 59 24 2
-0.059144 1.600535 -0.195397 94 81 62 24 2
-0.058014 1.610498 -0.199134 96 84 63 24 2
-0.058427 1.583956 -0.217342 95 81 57 24 2
0.862566 1.263540 0.020298 127 106 73 1 4
0.695058 1.030593 -0.593396 117 99 77 24 2
0.676091 1.091759 0.050297 105 91 63 24 2
0.677221 1.111008 0.036422 98 86 63 24 2
0.675105 1.057710 0.055017 127 104 71 24 2
0.677164 1.102515 0.066548 101 82 53 24 2
0.674019 1.010387 0.146442 171 148 120 24 2
0.673010 0.979935 0.139459 185 162 131 24 2
0.672796 1.001568 0.167256 166 138 105 24 2
0.688623 1.376668 0.112831 46 45 41 24 2
0.689087 1.393665 0.113944 17 19 19 24 2
0.680468 1.078397 -0.143655 97 84 59 24 2
0.731596 1.013165 0.053665 164 158 148 24 2
0.749423 1.000228 0.055230 162 157 145 24 2
0.737681 1.006911 0.062309 166 164 157 24 2
0.750751 0.995383 -0.422786 144 139 138 24 2
0.754821 0.993968 -0.379702 144 137 137 1 5
0.764293 0.994419 -0.374577 155 149 155 1 5
0.749595 0.995798 -0.388958 146 141 141 24 2
0.867352 1.540666 -0.136702 116 97 67 1 4
0.702940 1.670630 -0.424542 13 12 9 0 0
0.699063 1.655418 -0.414724 13 12 9 0 0
0.871689 1.036666 -0.447952 154 136 119 1 4
0.743551 1.029477 -0.744465 23 20 13 24 2
0.740816 1.021163 -0.737255 64 59 46 24 2
0.697862 1.202969 -0.419921 36 34 31 24 2
0.697484 1.188245 -0.411531 43 39 34 24 2
0.681917 1.224399 -0.028715 47 43 30 24 2
0.677827 1.168301 -0.028203 57 48 33 24 2
0.884689 1.500040 -0.673328 117 95 64 1 4
0.746484 1.055295 -0.172348 128 123 123 24 2
0.738125 1.055276 -0.187904 85 83 77 24 2
0.737352 1.050366 -0.170817 77 78 74 24 2
0.741634 1.069695 -0.181261 57 44 34 24 2
0.739345 1.074897 -0.184984 65 51 40 24 2
0.744409 1.072514 -0.170206 92 78 65 24 2
0.731615 1.074064 -0.188725 78 64 52 24 2
-0.058809 1.270460 -0.069827 116 101 78 24 2
0.740847 1.674564 -0.505677 13 9 5 0 0
0.754998 1.666470 -0.495345 12 9 5 0 0
0.764131 1.671903 -0.509777 12 9 5 0 0
0.745963 1.674884 -0.502627 9 7 6 0 0
0.751074 1.667649 -0.495695 25 20 14 0 0
0.761587 1.671971 -0.501061 12 8 5 0 0
0.739041 1.672239 -0.478638 13 9 7 0 0
0.747695 1.670206 -0.478889 8 8 6 0 0
0.755258 1.661677 -0.481777 35 30 24 0 0
0.762025 1.667915 -0.485747 4 3 1 0 0
-0.057224 1.288290 -0.118479 116 100 77 24 2
0.782794 1.003311 0.053923 201 205 208 1 5
0.762181 1.002070 0.051548 174 172 167 1 5
0.878675 1.403842 -0.528702 117 95 67 1 4
0.879303 1.430545 -0.539269 116 95 64 1 4
0.686298 1.271944 0.044798 33 31 29 24 2
0.687139 1.290232 0.051923 34 32 28 24 2
-0.058160 1.604640 -0.265723 95 86 74 24 2
0.684785 1.279315 0.110610 33 31 28 24 2
0.685664 1.303691 0.113163 31 33 27 24 2
0.866781 1.142970 -0.188327 136 107 69 1 4
0.866866 1.106060 -0.182014 138 109 72 1 4
0.866796 1.138595 -0.165702 132 104 72 1 4
0.877759 1.409328 -0.487952 117 95 64 1 4
0.878312 1.385835 -0.517702 116 95 64 1 4
0.864140 1.288572 -0.034702 124 105 72 1 4
0.865918 1.330609 -0.069703 124 105 68 1 4
0.755607 1.148250 -0.440126 21 13 3 24 2
0.684598 1.063403 -0.230484 133 117 97 24 2
0.756038 1.012358 0.165071 142 132 122 1 5
0.694589 1.086331 -0.471952 69 62 46 24 2
0.798135 0.997868 -0.365702 200 198 209 1 5
0.784655 0.996588 -0.381327 200 197 210 1 5
0.752745 0.992971 -0.593340 126 118 100 24 2
0.756787 0.989407 -0.606007 127 120 112 24 2
0.764476 0.988695 -0.585168 132 124 121 1 5
0.702829 1.130607 -0.665077 44 37 28 24 2
0.704033 1.163227 -0.653529 32 28 22 24 2
0.858814 1.017594 0.079110 187 178 160 1 4
0.860788 1.027163 0.065179 175 161 139 1 4
0.862409 1.033377 0.086948 144 123 85 1 4
0.873592 1.407754 -0.352702 113 97 65 1 4
0.872930 1.419058 -0.322921 113 96 64 1 4
0.691726 1.173434 -0.318703 56 49 39 24 2
0.690442 1.172398 -0.291952 52 46 38 24 2
0.690343 1.139516 -0.315702 61 61 47 24 2
0.710034 1.680335 -0.470215 12 11 13 0 0
0.689465 1.263322 -0.096817 32 31 27 24 2
0.683110 1.244752 -0.085387 34 32 27 24 2
0.682581 1.259850 -0.071779 28 26 23 24 2
0.691949 1.034152 -0.482702 128 111 87 24 2
0.757717 1.678250 -0.324659 8 4 1 0 0
0.750121 1.674657 -0.316246 16 10 3 0 0
0.675253 1.027736 0.038048 146 130 98 24 2
0.674940 1.028855 0.073111 143 126 95 24 2
0.743911 1.083772 -0.451485 26 27 26 24 2
0.746979 1.058680 -0.470510 25 22 20 24 2
0.748355 1.043169 -0.449454 92 84 86 24 2
0.741715 1.057320 -0.451809 27 26 25 24 2
0.743022 1.071285 -0.479155 27 25 23 24 2
0.739651 1.075484 -0.468035 27 24 22 24 2
0.738012 1.068647 -0.457857 28 24 21 24 2
0.746354 1.049808 -0.470140 24 23 20 24 2
0.871435 1.435721 -0.263233 117 98 68 1 4
0.870392 1.419451 -0.236140 117 99 68 1 4
0.869964 1.417693 -0.215703 116 99 67 1 4
0.862466 1.248537 0.044298 129 106 72 1 4
0.862761 1.294549 0.042297 128 105 73 1 4
0.766712 1.000316 -0.105703 208 204 208 1 5
0.791743 1.001741 -0.106296 211 205 208 1 5
-0.057851 1.622904 -0.234614 94 86 71 24 2
-0.056135 1.633677 -0.243605 91 83 69 24 2
-0.056598 1.615651 -0.246966 93 85 73 24 2
0.710299 1.256351 -0.404131 23 23 20 24 2
0.711537 1.274216 -0.413166 26 26 25 24 2
0.710745 1.234489 -0.415686 26 26 25 24 2
0.709059 1.254112 -0.392015 25 24 22 24 2
0.710897 1.268892 -0.397057 26 24 22 24 2
0.821064 0.994943 -0.534452 190 188 193 1 5
0.848843 0.997175 -0.504827 195 191 199 1 5
0.810797 0.995836 -0.510108 192 189 197 1 5
0.844804 0.995716 -0.527702 193 190 197 1 5
0.832787 0.996635 -0.492702 195 192 202 1 5
0.871110 1.161236 -0.403546 128 100 69 1 4
0.690572 1.210956 -0.212641 47 43 35 24 2
0.687328 1.177002 -0.208804 51 45 35 24 2
0.860185 1.459333 0.125872 132 111 75 1 4
0.862789 1.443864 0.141491 124 103 65 1 4
0.852696 1.002009 -0.338202 203 197 204 1 5
0.858279 1.004503 -0.333202 197 189 193 1 5
0.866370 1.014235 -0.359841 186 173 171 1 4
0.866667 1.016486 -0.310605 184 170 167 1 4
0.862423 1.007690 -0.360312 187 177 177 1 4
0.749940 1.113929 -0.462933 17 9 5 24 2
0.843197 1.001876 -0.230202 208 202 208 1 5
0.679897 1.170251 0.077298 62 49 32 24 2
0.870089 1.230479 -0.282734 126 104 71 1 4
0.870382 1.208418 -0.293453 131 102 68 1 4
0.884497 1.352374 -0.716639 118 95 65 1 4
0.685921 1.017420 -0.339453 141 120 95 24 2
0.685598 1.023415 -0.316202 137 117 88 24 2
0.697239 1.177516 -0.441952 43 40 33 24 2
0.700055 1.201989 -0.465864 37 34 31 24 2
0.875478 1.324369 -0.461694 120 96 65 1 4
-0.060137 1.374385 -0.087867 116 101 80 24 2
0.698478 1.029640 -0.657703 111 95 69 24 2
0.698772 1.027071 -0.678952 105 91 66 24 2
0.698866 1.045358 -0.663810 115 98 73 24 2
0.878971 1.536493 -0.489202 113 96 65 1 4
0.708963 1.247116 -0.387230 27 26 23 24 2
0.696894 1.235705 -0.358660 35 32 30 24 2
0.706971 1.244289 -0.358312 27 26 25 24 2
0.710220 1.260026 -0.375077 24 25 24 24 2
0.698339 1.255363 -0.366378 24 23 20 24 2
0.708522 1.252292 -0.366988 28 27 26 24 2
0.698541 1.246933 -0.356353 33 30 28 24 2
0.704294 1.235915 -0.356644 24 24 21 24 2
0.878934 1.070796 -0.681452 124 98 71 1 4
-0.060347 1.552014 -0.221841 88 77 63 24 2
-0.059954 1.545383 -0.234486 85 78 65 24 2
0.863731 1.488932 -0.013530 119 98 67 1 4
0.870596 1.176668 -0.355702 127 103 72 1 4
0.745136 1.076027 0.026952 57 47 39 24 2
0.744447 1.100588 0.029142 53 42 29 24 2
0.745260 1.083425 0.018970 66 53 37 24 2
0.677938 1.114972 -0.026304 72 64 43 24 2
0.678216 1.110743 -0.006509 86 74 52 24 2
0.869936 1.189001 -0.288139 131 103 73 1 4
0.869455 1.200151 -0.257952 126 105 69 1 4
0.867983 1.030599 -0.271703 157 136 118 1 4
0.866726 1.021586 -0.256577 169 152 136 1 4
0.866940 1.037957 -0.235515 150 126 101 1 4
0.877022 1.033007 -0.632203 141 125 104 1 4
0.877642 1.021766 -0.656702 154 137 126 1 4
0.688408 1.319920 0.042142 31 31 28 24 2
0.687318 1.302408 0.062186 33 31 28 24 2
0.688337 1.108351 -0.308203 65 63 47 24 2
0.873356 1.496765 -0.343702 113 96 66 1 4
0.873139 1.484923 -0.305093 114 97 66 1 4
0.867736 1.150613 -0.218202 134 107 71 1 4
0.867265 1.159106 -0.177702 131 103 66 1 4
0.868116 1.168591 -0.207264 130 107 68 1 4
0.865881 1.526638 -0.067703 118 98 67 1 4
0.865097 1.539626 -0.051822 116 97 67 1 4
0.864742 1.505099 -0.038374 117 99 65 1 4
-0.060156 1.567067 -0.177467 99 86 64 24 2
0.689946 1.025352 -0.465702 139 121 95 24 2
0.756492 1.671408 -0.420259 10 5 2 0 0
0.758992 1.666730 -0.436713 28 24 17 0 0
0.747290 1.665189 -0.442736 19 14 8 0 0
0.750473 1.670101 -0.433961 49 43 32 0 0
0.742821 1.679204 -0.427032 47 42 32 0 0
0.751261 1.653852 -0.445861 13 8 4 0 0
0.694551 1.046074 -0.571452 111 99 80 24 2
0.696053 1.063603 -0.564702 106 98 87 24 2
0.696820 1.084745 -0.539827 92 85 73 24 2
0.879447 1.501747 -0.509452 111 97 63 1 4
0.879147 1.476862 -0.495703 113 97 64 1 4
0.868596 1.029861 -0.317702 158 140 123 1 4
0.867873 1.022597 -0.300202 154 132 109 1 4
0.705882 1.133285 -0.771452 42 37 24 24 2
0.704927 1.116764 -0.747202 49 45 32 24 2
0.704935 1.130832 -0.739764 49 47 34 24 2
0.865936 1.493508 -0.073077 115 97 68 1 4
0.858008 1.009350 -0.147702 194 183 172 1 4
0.860600 1.012467 -0.143703 191 176 163 1 4
0.852568 1.005665 -0.152202 201 190 184 1 4
0.696522 0.986599 -0.699703 120 103 82 24 2
0.697354 0.980738 -0.714453 121 105 83 24 2
0.698284 1.013002 -0.703389 122 106 82 24 2
0.859378 1.018532 0.013223 190 186 173 1 4
0.861241 1.024980 0.009297 177 166 146 1 4
0.861488 1.020484 -0.028203 189 186 172 1 4
0.884192 1.323771 -0.718764 118 92 61 1 4
0.824420 0.992531 -0.640577 188 177 175 1 5
0.858514 1.012205 -0.093810 192 174 160 1 4
0.850441 1.006101 -0.099720 203 189 183 1 4
0.855828 1.007696 -0.126563 198 185 174 1 4
0.882100 1.386524 -0.634514 120 98 69 1 4
0.687782 1.153576 -0.243297 64 60 47 24 2
0.877559 1.347503 -0.514546 117 98 63 1 4
0.704708 1.123232 -0.708155 49 46 37 24 2
0.703464 1.135244 -0.686702 48 41 29 24 2
0.704438 1.153298 -0.672514 47 39 31 24 2
0.702445 1.208733 -0.535756 36 31 25 24 2
0.699975 1.176471 -0.522892 36 31 25 24 2
0.701173 1.201203 -0.517277 31 29 23 24 2
0.705832 1.687592 -0.329912 7 6 5 0 0
0.867378 1.305130 -0.149014 122 102 68 1 4
0.872715 1.509786 -0.289514 114 95 67 1 4
0.688031 1.325956 0.124513 30 35 28 24 2
0.686948 1.303332 0.128929 28 33 26 24 2
0.754459 1.683289 -0.228179 27 21 15 0 0
0.745637 1.682580 -0.240755 7 6 4 0 0
0.749486 1.677188 -0.251786 82 71 62 0 0
0.756478 1.673250 -0.254537 10 5 0 0 0
0.742321 1.682461 -0.249609 6 6 5 0 0
0.754824 1.682037 -0.242471 14 8 2 0 0
0.698700 1.125409 -0.522702 54 54 45 24 2
0.697768 1.116760 -0.512389 55 55 46 24 2
0.746088 1.690933 -0.392549 8 4 3 0 0
0.859512 1.573935 0.120322 129 106 72 1 4
0.861800 1.240774 0.030423 131 109 74 1 4
0.693288 1.400416 -0.106977 24 29 28 24 2
0.695513 1.407270 -0.103027 26 31 35 24 2
0.681846 1.240948 0.186797 39 33 25 24 2
0.701230 1.085697 -0.678202 55 49 37 24 2
0.701750 1.091457 -0.667327 55 49 37 24 2
0.703044 1.100481 -0.685577 49 46 35 24 2
0.702678 1.226735 -0.496471 29 29 26 24 2
0.702939 1.230754 -0.481651 28 26 25 24 2
0.742928 1.089669 -0.056850 81 67 56 24 2
0.745366 1.073274 -0.042673 23 14 7 24 2
0.743953 1.088822 -0.040421 36 26 15 24 2
0.878691 1.182810 -0.632203 120 98 68 1 4
0.880121 1.202837 -0.657703 120 95 67 1 4
0.734227 1.091527 -0.285015 33 34 33 24 2
0.732996 1.095888 -0.279564 40 40 40 24 2
0.732978 1.087686 -0.266254 28 28 27 24 2
0.730979 1.101216 -0.262708 36 37 37 24 2
0.735856 1.103729 -0.272236 27 29 31 24 2
0.715230 1.266675 -0.440815 26 23 24 24 2
0.706274 1.227641 -0.356411 28 27 23 24 2
0.706480 1.217019 -0.370070 28 28 24 24 2
0.696233 1.204836 -0.369682 40 36 31 24 2
0.695280 1.226467 -0.350114 34 32 28 24 2
0.706791 1.235085 -0.350611 28 26 24 24 2
0.702749 1.239283 -0.364544 28 30 23 24 2
0.709300 1.234945 -0.372797 28 27 24 24 2
0.698582 1.239868 -0.372716 31 30 27 24 2
0.699444 1.292255 -0.232111 25 27 24 24 2
0.703333 1.287079 -0.256706 29 28 24 24 2
0.700355 1.267213 -0.245435 28 27 23 24 2
0.697541 1.265110 -0.222749 30 27 23 24 2
0.699269 1.283621 -0.231017 28 26 23 24 2
0.708196 1.176073 -0.743080 31 26 20 24 2
0.706776 1.154680 -0.753827 33 29 19 24 2
0.862030 1.320602 0.073797 129 104 73 1 4
0.862060 1.360296 0.074548 127 107 70 1 4
0.861577 1.342410 0.091173 135 113 82 1 4
0.861326 1.368845 0.104015 135 115 81 1 4
0.702486 1.694696 -0.291200 12 12 14 0 0
0.704012 1.691790 -0.307543 12 12 12 0 0
0.710118 1.677171 -0.289979 13 13 13 0 0
0.860128 1.438284 0.091999 130 111 79 1 4
0.750828 0.998304 -0.104198 163 154 147 1 5
0.674395 1.010218 0.078297 153 135 104 24 2
0.674881 1.006725 0.070297 154 135 104 24 2
0.674688 0.986263 0.081038 165 146 116 24 2
0.859232 1.252376 0.136014 139 114 75 1 4
0.863711 1.260206 0.143396 106 85 56 1 4
0.871121 1.059783 -0.427764 129 105 71 1 4
0.870583 1.067150 -0.398452 136 112 82 1 4
0.697312 1.048623 -0.635702 104 94 76 24 2
0.700025 1.073174 -0.644578 107 97 82 24 2
0.869521 1.487821 -0.194484 115 97 64 1 4
0.883637 1.469190 -0.644202 115 94 63 1 4
0.870922 1.586923 -0.229577 115 96 67 1 4
0.745864 1.002464 -0.746702 105 93 74 24 2
0.740836 1.016881 -0.778574 118 111 91 24 2
0.711912 1.649943 -0.667291 5 7 9 0 0
0.726555 1.681998 -0.325717 35 30 25 0 0
0.707223 1.676432 -0.341164 29 25 19 0 0
0.717854 1.688815 -0.319359 13 13 14 0 0
0.719505 1.686843 -0.337262 36 30 24 0 0
0.708815 1.683370 -0.336940 8 7 6 0 0
0.710552 1.676531 -0.341450 6 7 6 0 0
0.735111 1.679904 -0.338866 10 4 1 0 0
0.730844 1.681932 -0.343337 35 29 20 0 0
0.710523 1.678567 -0.321760 24 22 22 0 0
0.678541 1.126932 -0.067452 80 70 49 24 2
0.678046 1.113618 -0.043420 74 66 45 24 2
0.733331 1.013427 0.123168 121 104 79 24 2
0.724718 1.034728 0.111266 36 40 46 24 2
0.724447 1.020848 0.109149 95 83 72 24 2
0.726251 1.030785 0.126903 64 57 49 24 2
0.730197 1.016304 0.138645 120 107 89 24 2
0.723715 1.047703 0.119406 24 29 36 24 2
0.721310 1.048567 0.129405 23 28 35 24 2
0.724159 1.028372 0.107419 38 35 29 24 2
0.721864 1.053890 0.158285 43 46 52 24 2
0.674056 1.006538 0.182798 131 102 72 24 2
0.703379 1.688535 -0.277029 12 13 12 0 0
-0.057843 1.341416 -0.256732 98 86 61 24 2
0.870713 1.303126 -0.261452 120 102 72 1 4
0.871027 1.346200 -0.274078 118 101 69 1 4
0.871282 1.320514 -0.297827 120 99 64 1 4
0.870743 1.328943 -0.250453 118 101 69 1 4
0.874426 1.260371 -0.444202 125 96 64 1 4
0.867715 1.615684 -0.159702 114 97 64 1 4
0.706772 1.179809 -0.688702 29 25 20 24 2
0.710065 1.204429 -0.699487 29 25 20 24 2
0.707764 1.197832 -0.683154 28 25 20 24 2
0.753453 1.654969 -0.532532 18 13 8 0 0
0.740617 1.665572 -0.533044 12 9 6 0 0
0.762544 1.665257 -0.534031 8 3 2 0 0
0.757613 1.658167 -0.520783 11 7 4 0 0
0.744228 1.668918 -0.512022 8 6 3 0 0
0.747156 1.666742 -0.521939 8 6 3 0 0
0.750692 1.663354 -0.541597 9 6 3 0 0
0.753770 1.660936 -0.514377 11 8 4 0 0
0.832403 1.004290 -0.029953 206 211 211 1 5
0.869980 1.112898 -0.354702 128 101 70 1 4
0.887023 1.512068 -0.740702 114 93 62 1 4
0.886858 1.536256 -0.717952 110 95 63 1 4
0.884450 1.414945 -0.689702 117 96 66 1 4
0.884815 1.463960 -0.690577 115 93 62 1 4
0.875664 1.401665 -0.436264 114 97 64 1 4
0.688508 1.417642 0.147130 55 52 47 24 2
0.689659 1.396060 0.130121 56 54 49 24 2
0.687837 1.399148 0.147359 56 52 48 24 2
0.875750 1.035236 -0.579702 140 121 100 1 4
0.875034 1.025721 -0.571702 155 139 125 1 4
0.707932 1.259791 -0.342330 27 25 25 24 2
0.704214 1.249320 -0.333412 31 27 25 24 2
0.705583 1.267351 -0.331219 26 26 26 24 2
0.707208 1.249201 -0.349236 28 25 22 24 2
0.702341 1.240685 -0.326532 30 28 25 24 2
0.702502 1.233270 -0.341239 34 32 28 24 2
0.874230 1.143725 -0.511577 126 102 68 1 4
0.683531 0.983372 -0.296202 152 130 102 24 2
0.872020 1.244703 -0.358702 126 99 68 1 4
0.870933 1.173173 -0.371452 128 102 68 1 4
0.828222 1.012953 0.181589 125 109 98 1 5
0.834696 1.012143 0.162673 127 108 95 1 5
0.844486 1.013847 0.163530 129 109 96 1 5
0.706252 1.229646 -0.540069 27 25 23 24 2
0.707274 1.230765 -0.575004 28 27 24 24 2
0.704124 1.205356 -0.563927 27 27 23 24 2
0.704868 1.222132 -0.557723 31 29 26 24 2
0.866219 1.062346 -0.194739 141 112 80 1 4
0.754036 1.651834 -0.567564 7 2 2 0 0
0.751074 1.654825 -0.552011 46 41 35 0 0
0.870331 1.128155 -0.388702 128 102 68 1 4
0.886762 1.435238 -0.764952 119 94 63 1 4
0.885843 1.431160 -0.729234 117 95 62 1 4
0.712759 1.234173 -0.428449 24 24 23 24 2
0.702311 1.236999 -0.439268 34 32 30 24 2
0.709464 1.228892 -0.441768 27 26 26 24 2
0.710849 1.228379 -0.436399 25 25 22 24 2
0.700383 1.212275 -0.452779 32 31 24 24 2
0.700506 1.230075 -0.409765 32 31 27 24 2
0.702928 1.238177 -0.422044 22 21 20 24 2
0.709737 1.222100 -0.425596 28 27 24 24 2
0.699111 1.219284 -0.417702 31 29 25 24 2
0.706659 1.230496 -0.412269 22 21 20 24 2
-0.060101 1.413837 -0.180296 106 88 68 24 2
0.711347 1.662942 -0.501342 14 14 12 0 0
0.723537 1.669567 -0.493372 14 13 12 0 0
0.714713 1.667863 -0.505188 7 7 6 0 0
0.734913 1.671034 -0.500484 13 12 11 0 0
0.717443 1.660036 -0.485251 12 12 15 0 0
0.733588 1.667132 -0.483206 11 11 11 0 0
0.732998 1.673535 -0.493020 8 6 5 0 0
0.725579 1.675238 -0.484011 13 11 13 0 0
0.685007 1.278444 0.192298 35 33 27 24 2
0.686125 1.289465 0.174298 34 33 30 24 2
0.838839 1.004009 -0.054788 205 210 214 1 5
0.803187 1.002088 -0.080202 204 211 213 1 5
0.873478 1.340243 -0.395202 117 94 64 1 4
0.882282 1.491294 -0.602452 112 96 66 1 4
-0.058133 1.291278 -0.147190 120 103 81 24 2
-0.057189 1.269434 -0.131771 117 102 81 24 2
-0.058091 1.309479 -0.139702 117 102 80 24 2
0.866031 1.061102 0.198730 70 56 46 1 4
0.872031 1.055514 0.209218 109 89 78 1 4
0.869106 1.063125 0.207566 109 90 79 1 4
0.872424 1.054876 0.196984 103 84 72 1 4
0.868348 1.061108 0.221182 111 92 83 1 4
0.703201 1.270165 -0.319569 27 28 24 24 2
0.702640 1.270422 -0.301552 28 28 25 24 2
0.702573 1.248301 -0.315012 32 28 26 24 2
0.703124 1.253391 -0.290002 28 27 25 24 2
0.700104 1.257903 -0.299423 27 26 22 24 2
0.864370 1.181559 -0.040828 133 112 75 1 4
0.865528 1.204583 -0.080264 129 108 70 1 4
0.759456 1.116595 -0.530602 19 15 6 24 2
0.743802 1.672404 -0.329573 8 5 3 0 0
0.755810 1.674035 -0.336582 15 7 0 0 0
0.742282 1.674487 -0.340092 6 4 2 0 0
0.681202 1.227369 0.152297 40 34 27 24 2
0.755951 1.049386 -0.761177 34 28 25 24 2
0.715288 1.236803 -0.646376 22 17 14 24 2
-0.056045 1.593473 -0.236323 90 80 67 24 2
-0.056439 1.604386 -0.238721 91 82 67 24 2
0.702306 1.347690 -0.216964 26 26 25 24 2
0.702571 1.346565 -0.229524 26 26 25 24 2
0.702790 1.365521 -0.238717 25 25 24 24 2
0.701274 1.349468 -0.240250 25 25 25 24 2
0.724560 1.028854 0.158450 49 50 58 24 2
0.737362 1.019816 0.187747 63 63 58 1 5
0.721193 1.051702 0.183692 97 87 83 24 2
0.732453 1.021230 0.173691 73 71 69 1 5
0.741028 1.020419 0.163787 129 118 107 1 5
0.725709 1.025924 0.166002 20 21 26 24 2
0.693934 1.337703 -0.134609 29 30 28 24 2
0.694859 1.365586 -0.136961 28 29 26 24 2
0.697254 1.365419 -0.145952 28 28 29 24 2
0.695237 1.350123 -0.141773 27 28 27 24 2
0.679093 1.183200 -0.010453 61 52 38 24 2
0.703146 1.657758 -0.388398 12 11 13 0 0
0.744727 1.050615 -0.221633 100 100 106 24 2
0.735682 1.055910 -0.224239 38 35 31 24 2
0.742804 1.054528 -0.217863 54 46 43 24 2
0.737263 1.062764 -0.192740 46 35 26 24 2
0.732990 1.069051 -0.204651 47 50 54 24 2
0.842793 0.989154 -0.739827 184 171 161 1 5
0.818545 0.988874 -0.727389 185 170 160 1 5
0.691095 1.021386 -0.507077 127 109 86 24 2
0.693082 1.034672 -0.520764 125 109 85 24 2
0.690808 1.010755 -0.535952 130 112 87 24 2
0.686950 1.007686 -0.398202 143 122 98 24 2
0.685839 0.991195 -0.369078 146 125 97 24 2
0.723814 1.185903 -0.775624 20 17 11 24 2
0.688866 1.037474 -0.362702 126 107 84 24 2
0.676698 1.045264 -0.011702 139 122 90 24 2
0.674989 1.023229 0.014297 148 131 100 24 2
0.689902 1.335024 0.082111 30 31 28 24 2
0.687865 1.320979 0.097756 35 35 31 24 2
0.773411 1.010001 0.211362 136 125 117 1 5
0.762473 1.013877 0.220900 153 143 131 1 5
0.775314 1.011420 0.199296 152 142 131 1 5
0.869999 1.157654 -0.327452 132 106 71 1 4
0.870699 1.193671 -0.315702 127 104 67 1 4
0.861624 1.476159 0.134043 126 103 69 1 4
0.864763 1.492228 0.139333 65 54 35 1 4
0.862810 1.477052 0.140134 127 103 71 1 4
0.862109 1.466183 0.141032 73 59 36 1 4
0.874037 1.427015 -0.369202 111 94 64 1 4
0.748599 0.996552 -0.364729 149 142 143 24 2
0.694884 1.099214 -0.484452 61 57 47 24 2
0.678398 1.099302 0.179798 76 62 39 24 2
0.877977 1.096283 -0.638202 120 96 66 1 4
0.877327 1.112275 -0.615702 123 97 65 1 4
0.876879 1.136661 -0.591577 123 97 67 1 4
0.861398 1.126406 0.017079 140 117 78 1 4
0.860487 1.105480 0.031798 137 114 76 1 4
0.861319 1.080490 0.002298 138 119 78 1 4
-0.058543 1.349807 -0.227378 118 102 75 24 2
-0.059666 1.470169 -0.249712 99 84 64 24 2
-0.060992 1.452253 -0.235668 99 84 63 24 2
0.683023 1.224402 0.048298 40 34 25 24 2
0.742792 1.030203 -0.712546 54 48 38 24 2
0.741483 1.034072 -0.688854 40 34 26 24 2
0.736066 1.053372 -0.673127 25 21 15 24 2
0.739867 1.022231 -0.695430 70 65 56 24 2
0.742954 1.032253 -0.675620 24 21 15 24 2
0.739694 1.022439 0.203609 78 76 70 1 5
0.725657 1.030773 0.186491 52 56 52 24 2
0.723306 1.049714 0.203779 42 39 43 24 2
0.721300 1.043075 0.212731 39 40 38 24 2
0.730124 1.018758 0.193006 52 57 50 1 5
0.732127 1.024299 0.221060 65 67 60 1 5
0.748878 1.017876 0.219308 108 100 90 1 5
0.731481 1.022854 0.202631 68 68 62 24 2
0.724304 1.037846 0.204689 37 38 36 24 2
0.725139 1.037741 0.226377 93 86 81 24 2
0.722307 1.050800 0.220682 107 98 94 24 2
0.728339 1.027152 0.211506 46 49 47 24 2
0.870324 1.137156 -0.350327 132 103 72 1 4
0.742431 1.686327 -0.260721 7 6 4 0 0
-0.059618 1.488689 -0.206465 85 71 53 24 2
-0.061354 1.503480 -0.201954 106 92 70 24 2
-0.059762 1.474574 -0.183684 109 92 71 24 2
-0.063679 1.512448 -0.211378 107 93 70 24 2
-0.060602 1.502118 -0.218583 55 47 35 24 2
0.687211 1.671267 -0.001647 17 20 19 0 0
0.687064 1.662281 0.018659 18 21 20 0 0
0.690662 1.679623 0.008344 68 64 56 0 0
0.687512 1.675169 0.025926 18 22 21 0 0
0.872176 1.554190 -0.272390 114 97 65 1 4
0.689954 1.376792 0.146194 31 35 32 24 2
0.690502 1.400420 0.137231 49 48 44 24 2
0.688287 1.388335 0.152488 32 34 31 24 2
0.688510 1.368452 0.157675 45 44 38 24 2
0.690730 1.380649 0.125807 47 46 43 24 2
0.755197 1.657583 -0.552954 10 4 5 0 0
0.742610 1.657662 -0.567054 12 9 8 0 0
0.760230 1.657471 -0.541065 9 2 3 0 0
0.746038 1.663914 -0.551611 11 10 5 0 0
0.678435 1.045190 -0.044407 137 124 101 24 2
0.676225 1.055575 -0.036407 136 124 101 24 2
0.871444 1.361710 -0.291452 117 97 64 1 4
0.872725 1.404740 -0.307702 116 97 64 1 4
0.701536 1.304069 -0.243835 28 27 23 24 2
0.705012 1.333829 -0.282025 24 25 25 24 2
0.704931 1.310965 -0.280985 27 27 25 24 2
0.705140 1.305523 -0.263819 26 26 22 24 2
0.706478 1.338036 -0.273880 24 25 25 24 2
0.705944 1.320831 -0.269879 27 27 27 24 2
0.879598 1.349850 -0.562139 122 95 61 1 4
0.879449 1.370351 -0.557952 116 95 66 1 4
-0.058991 1.372417 -0.260087 124 105 78 24 2
0.875529 1.422543 -0.423733 112 96 69 1 4
0.876190 1.465059 -0.422578 112 96 63 1 4
0.753052 1.071690 -0.719992 26 22 19 24 2
0.750264 1.055574 -0.706986 30 26 22 24 2
0.750781 1.061494 -0.728216 64 60 57 24 2
0.752848 1.061408 -0.734589 43 39 37 24 2
0.755464 1.068260 -0.706862 66 60 59 24 2
0.713960 1.316484 -0.435458 25 24 25 24 2
0.713558 1.314194 -0.417345 24 25 23 24 2
0.713070 1.313294 -0.444730 27 24 23 24 2
0.715318 1.303693 -0.426310 24 25 25 24 2
0.692162 1.333080 -0.055545 29 31 28 24 2
0.690205 1.290835 -0.052169 31 32 29 24 2
0.872929 1.338232 -0.379202 117 98 64 1 4
0.691307 1.138862 -0.349115 61 57 48 24 2
0.733857 1.685950 -0.112348 55 51 50 0 0
0.730803 1.678393 -0.103492 51 49 47 0 0
0.725444 1.683729 -0.101566 55 53 50 0 0
0.740364 1.680538 -0.121244 20 12 9 0 0
0.726130 1.680723 -0.116130 60 51 54 0 0
0.686791 1.072568 -0.269452 120 104 73 24 2
0.686218 1.077460 -0.241202 110 96 68 24 2
0.753662 1.682242 -0.142094 63 57 49 0 0
0.735373 1.692379 -0.142879 13 9 8 0 0
0.742578 1.682552 -0.130783 13 9 8 0 0
0.685680 1.390717 0.204919 34 35 33 24 2
0.685976 1.409384 0.198588 35 36 34 24 2
0.882822 1.530903 -0.609843 113 95 66 1 4
0.861852 1.565575 0.038298 113 94 64 1 4
0.861931 1.593330 0.045797 118 98 70 1 4
0.756249 0.990530 -0.579991 132 124 119 24 2
0.752780 0.992028 -0.547576 129 121 115 24 2
0.760826 0.989653 -0.548820 128 119 113 1 5
0.802757 0.998053 -0.399702 197 196 208 1 5
-0.061086 1.381938 -0.109702 116 98 78 24 2
0.848682 1.002792 -0.239202 203 195 196 1 5
0.863131 1.012108 -0.240952 188 174 165 1 4
0.860335 1.008189 -0.228693 194 183 181 1 4
-0.068486 1.651210 -0.290821 71 69 69 24 2
0.881105 1.357816 -0.619155 118 96 64 1 4
0.687408 0.985691 -0.451452 142 126 102 24 2
0.704817 1.684403 -0.206530 22 20 17 0 0
0.714527 1.684207 -0.214374 18 16 13 0 0
0.717876 1.682044 -0.202870 18 16 16 0 0
0.707177 1.677620 -0.216730 24 21 18 0 0
0.726218 1.685751 -0.221502 16 14 9 0 0
0.707763 1.672801 -0.188494 32 31 31 0 0
0.706612 1.677814 -0.199446 34 33 33 0 0
0.862849 1.345559 0.038298 122 101 73 1 4
0.862888 1.375563 0.030048 120 101 71 1 4
0.862643 1.343930 0.016423 121 100 69 1 4
0.863090 1.374566 0.011297 122 102 68 1 4
0.754864 0.993256 -0.428982 142 140 142 1 5
0.762108 0.992728 -0.440187 167 167 176 1 5
0.762881 0.993381 -0.417676 147 141 144 1 5
0.777089 0.995229 -0.432202 175 176 184 1 5
0.860478 1.586808 0.071668 128 108 75 1 4
0.863655 1.048558 -0.049421 159 142 116 1 4
0.864392 1.042539 -0.085202 156 142 116 1 4
0.863427 1.023740 -0.094577 165 143 118 1 4
0.863595 1.027022 -0.064703 158 144 117 1 4
0.698719 1.454264 -0.098390 21 27 28 24 2
0.695265 1.437891 -0.107122 21 27 28 24 2
0.684430 1.253931 0.044298 35 31 28 24 2
0.871742 1.022665 -0.481202 159 144 132 1 4
0.872580 1.041556 -0.478827 156 140 125 1 4
0.870706 1.023944 -0.439139 164 150 138 1 4
-0.060578 1.539564 -0.215330 53 45 33 24 2
-0.060786 1.515828 -0.198979 98 83 60 24 2
-0.060615 1.541636 -0.190300 96 82 62 24 2
-0.061463 1.521500 -0.206977 95 79 58 24 2
0.866759 1.052581 -0.222202 147 119 88 1 4
0.868050 1.054854 -0.273453 144 117 84 1 4
0.867266 1.076407 -0.238514 139 112 76 1 4
0.793744 0.998712 -0.322702 196 196 205 1 5
0.783265 0.997425 -0.352702 199 199 207 1 5
0.688000 1.317532 0.176584 31 33 29 24 2
-0.062326 1.637743 -0.093118 85 81 70 24 2
0.873404 1.242164 -0.434452 121 97 63 1 4
0.678858 0.993262 -0.200390 152 128 99 24 2
0.680917 1.005955 -0.223202 152 128 101 24 2
-0.056783 1.582290 -0.293887 68 56 39 24 2
-0.057269 1.608490 -0.289703 86 78 65 24 2
-0.056372 1.602197 -0.302113 82 68 51 24 2
0.865273 1.196577 -0.101702 131 105 72 1 4
0.865602 1.230588 -0.112453 129 103 67 1 4
0.733768 1.013988 -0.307450 141 134 128 24 2
0.754538 0.994573 -0.288173 147 138 141 1 5
0.740270 1.005239 -0.294915 136 130 124 24 2
0.858624 1.006167 -0.283702 197 187 186 1 5
0.857378 1.004726 -0.269063 194 185 184 1 5
0.857328 1.006091 -0.247108 200 193 196 1 5
0.865342 1.014928 -0.269702 182 169 161 1 4
0.884429 1.252421 -0.755202 117 96 64 1 4
-0.061844 1.582705 -0.121889 98 85 64 24 2
-0.062335 1.600053 -0.109569 95 83 61 24 2
-0.062621 1.597019 -0.093210 94 81 61 24 2
0.883574 1.433432 -0.666702 119 98 68 1 4
0.883169 1.441864 -0.650014 117 97 66 1 4
0.881656 1.334312 -0.648727 119 97 64 1 4
0.881780 1.365891 -0.646280 119 96 64 1 4
-0.061078 1.600878 -0.132192 96 80 61 24 2
