ply
format ascii 1.0
element vertex 1073
property float x
property float y
property float z
property uchar red
property uchar green
property uchar blue
property uchar semantic_label
property uchar instance_label
end_header
-0.431443 0.451622 -0.078713 255 125 0 83 12
-0.561958 0.473858 0.029287 255 125 0 83 12
-0.518158 0.522712 0.137287 255 125 0 83 12
-0.518994 0.441359 0.011287 255 125 0 83 12
-0.482129 0.498279 0.039287 255 125 0 83 12
-0.528213 0.437454 -0.030713 255 125 0 83 12
-0.495963 0.537790 0.153287 255 125 0 83 12
-0.475141 0.567640 0.010989 255 125 0 83 12
-0.508311 0.475943 0.175287 255 125 0 83 12
-0.488216 0.531736 0.120566 255 125 0 83 12
-0.430872 0.498888 -0.072713 255 125 0 83 12
-0.471013 0.526331 0.197287 255 125 0 83 12
-0.450256 0.435968 -0.000713 255 125 0 83 12
-0.467842 0.530780 -0.081700 255 125 0 83 12
-0.488524 0.505695 0.001287 255 125 0 83 12
-0.441112 0.509686 0.005287 255 125 0 83 12
-0.540830 0.519126 0.133287 255 125 0 83 12
-0.498256 0.507444 0.103287 255 125 0 83 12
-0.477764 0.535315 0.059287 255 125 0 83 12
-0.565323 0.573635 0.005287 255 125 0 83 12
-0.520948 0.524462 0.165287 255 125 0 83 12
-0.479942 0.566776 -0.032713 255 125 0 83 12
-0.498497 0.505443 0.157287 255 125 0 83 12
-0.555101 0.445352 -0.038419 255 125 0 83 12
-0.570625 0.449222 -0.051737 255 125 0 83 12
-0.431921 0.443371 -0.048713 255 125 0 83 12
-0.569674 0.477842 0.006214 255 125 0 83 12
-0.565366 0.569524 -0.059689 255 125 0 83 12
-0.519963 0.487074 0.023287 255 125 0 83 12
-0.469052 0.509394 0.033287 255 125 0 83 12
-0.552671 0.438562 0.009840 255 125 0 83 12
-0.509231 0.513588 0.055287 255 125 0 83 12
-0.503272 0.533429 -0.012713 255 125 0 83 12
-0.563202 0.507147 -0.064713 255 125 0 83 12
-0.456396 0.444415 -0.040713 255 125 0 83 12
-0.563852 0.476390 -0.066695 255 125 0 83 12
-0.530673 0.535056 0.099287 255 125 0 83 12
-0.545439 0.480045 -0.080713 255 125 0 83 12
-0.468090 0.529785 0.217287 255 125 0 83 12
-0.567504 0.519615 0.021287 255 125 0 83 12
-0.445027 0.535397 -0.080713 255 125 0 83 12
-0.479443 0.467712 -0.079431 255 125 0 83 12
-0.539858 0.448621 0.027287 255 125 0 83 12
-0.489551 0.439314 0.027287 255 125 0 83 12
-0.470167 0.500440 -0.078713 255 125 0 83 12
-0.513739 0.470702 -0.076713 255 125 0 83 12
-0.455694 0.476219 -0.080713 255 125 0 83 12
-0.538661 0.527825 0.164337 255 125 0 83 12
-0.520973 0.549162 0.013287 255 125 0 83 12
-0.430777 0.472068 -0.072713 255 125 0 83 12
-0.535674 0.502345 0.077287 255 125 0 83 12
-0.484972 0.519944 -0.078713 255 125 0 83 12
-0.566323 0.549150 0.024299 255 125 0 83 12
-0.516794 0.466719 0.063867 255 125 0 83 12
-0.488436 0.517363 -0.048713 255 125 0 83 12
-0.510463 0.539344 0.203287 255 125 0 83 12
-0.544436 0.455060 -0.076117 255 125 0 83 12
-0.464599 0.565011 0.027287 255 125 0 83 12
-0.474544 0.540696 0.089287 255 125 0 83 12
-0.432375 0.441548 -0.027858 255 125 0 83 12
-0.506242 0.503251 0.025287 255 125 0 83 12
-0.508842 0.531678 0.103287 255 125 0 83 12
-0.558770 0.543144 -0.020713 255 125 0 83 12
-0.456849 0.442594 0.029287 255 125 0 83 12
-0.440108 0.455844 -0.016713 255 125 0 83 12
-0.539124 0.492898 0.125771 255 125 0 83 12
-0.426148 0.565731 0.005899 255 125 0 83 12
-0.501608 0.511092 0.085287 255 125 0 83 12
-0.469066 0.567205 -0.052713 255 125 0 83 12
-0.499570 0.444860 -0.076713 255 125 0 83 12
-0.536746 0.568571 0.031463 255 125 0 83 12
-0.507288 0.484961 -0.002713 255 125 0 83 12
-0.520207 0.494366 0.068185 255 125 0 83 12
-0.479843 0.573584 -0.004713 255 125 0 83 12
-0.530090 0.517442 0.091287 255 125 0 83 12
-0.497031 0.496380 -0.056713 255 125 0 83 12
-0.478895 0.506739 -0.030713 255 125 0 83 12
-0.566080 0.533591 0.007287 255 125 0 83 12
-0.473018 0.509396 0.135287 255 125 0 83 12
-0.482173 0.435414 -0.040713 255 125 0 83 12
-0.519518 0.508623 0.001287 255 125 0 83 12
-0.566556 0.539950 -0.068713 255 125 0 83 12
-0.569674 0.477842 -0.047641 255 125 0 83 12
-0.529147 0.521329 0.119287 255 125 0 83 12
-0.443613 0.570085 -0.034297 255 125 0 83 12
-0.504494 0.524316 0.039287 255 125 0 83 12
-0.536678 0.465493 0.091287 255 125 0 83 12
-0.524179 0.437100 -0.084713 255 125 0 83 12
-0.434406 0.441673 0.009287 255 125 0 83 12
-0.448705 0.566201 0.167287 255 125 0 83 12
-0.482339 0.513970 0.071287 255 125 0 83 12
-0.494974 0.479830 0.146363 255 125 0 83 12
-0.565129 0.562207 -0.014713 255 125 0 83 12
-0.435362 0.561844 -0.059667 255 125 0 83 12
-0.483315 0.452188 -0.081626 255 125 0 83 12
-0.467430 0.507631 0.113287 255 125 0 83 12
-0.527197 0.515933 0.075287 255 125 0 83 12
-0.527850 0.475659 0.039287 255 125 0 83 12
-0.487643 0.480063 0.025287 255 125 0 83 12
-0.542766 0.445223 -0.058713 255 125 0 83 12
-0.556018 0.445580 -0.070713 255 125 0 83 12
-0.521913 0.570195 -0.038713 255 125 0 83 12
-0.518235 0.444404 -0.055607 255 125 0 83 12
-0.523625 0.530259 0.066468 255 125 0 83 12
-0.546689 0.570030 -0.038713 255 125 0 83 12
-0.518460 0.526175 0.181287 255 125 0 83 12
-0.503455 0.478880 0.095287 255 125 0 83 12
-0.506062 0.521757 0.005287 255 125 0 83 12
-0.476781 0.494929 0.087287 255 125 0 83 12
-0.503530 0.577790 -0.074713 255 125 0 83 12
-0.557644 0.559159 -0.046713 255 125 0 83 12
-0.505446 0.528767 0.059287 255 125 0 83 12
-0.561494 0.514967 -0.010713 255 125 0 83 12
-0.429997 0.517222 0.013312 255 125 0 83 12
-0.432703 0.481571 0.001287 255 125 0 83 12
-0.517761 0.462838 0.078968 255 125 0 83 12
-0.495722 0.551233 0.075287 255 125 0 83 12
-0.484550 0.447233 -0.030713 255 125 0 83 12
-0.457712 0.563141 -0.076713 255 125 0 83 12
-0.517250 0.547562 -0.076713 255 125 0 83 12
-0.436772 0.490053 -0.097691 255 125 0 83 12
-0.542789 0.436862 -0.012713 255 125 0 83 12
-0.489442 0.551616 0.173287 255 125 0 83 12
-0.474156 0.499374 0.003287 255 125 0 83 12
-0.454320 0.543680 0.137287 255 125 0 83 12
-0.513576 0.438287 -0.002713 255 125 0 83 12
-0.437539 0.553114 -0.008713 255 125 0 83 12
-0.570536 0.453322 -0.004713 255 125 0 83 12
-0.462447 0.436679 0.008386 255 125 0 83 12
-0.459274 0.565143 0.007287 255 125 0 83 12
-0.509557 0.528812 0.088321 255 125 0 83 12
-0.495016 0.545799 0.055618 255 125 0 83 12
-0.512185 0.537712 0.219287 255 125 0 83 12
-0.485663 0.566776 -0.062713 255 125 0 83 12
-0.484560 0.505061 0.097287 255 125 0 83 12
-0.428083 0.557969 -0.041411 255 125 0 83 12
-0.510046 0.535118 0.134230 255 125 0 83 12
-0.556667 0.439069 -0.024713 255 125 0 83 12
-0.462956 0.434640 -0.016713 255 125 0 83 12
-0.515792 0.515938 -0.050713 255 125 0 83 12
-0.439180 0.463858 -0.043676 255 125 0 83 12
-0.505820 0.519001 -0.022713 255 125 0 83 12
-0.553898 0.450175 0.019287 255 125 0 83 12
-0.497882 0.476432 -0.079681 255 125 0 83 12
-0.485982 0.512629 0.037287 255 125 0 83 12
-0.493343 0.502906 -0.012713 255 125 0 83 12
-0.563852 0.476390 -0.028503 255 125 0 83 12
-0.431209 0.457748 -0.004713 255 125 0 83 12
-0.528693 0.493396 0.053287 255 125 0 83 12
-0.523635 0.546751 0.052467 255 125 0 83 12
-0.478368 0.521632 0.125287 255 125 0 83 12
-0.518600 0.517341 0.013287 255 125 0 83 12
-0.473680 0.556970 -0.081652 255 125 0 83 12
-0.531336 0.449732 -0.081652 255 125 0 83 12
-0.559887 0.500557 -0.044713 255 125 0 83 12
-0.490537 0.552927 -0.074713 255 125 0 83 12
-0.553732 0.525248 -0.076713 255 125 0 83 12
-0.528250 0.492248 0.099287 255 125 0 83 12
-0.436793 0.523037 -0.043802 255 125 0 83 12
-0.441602 0.470680 0.027287 255 125 0 83 12
-0.459086 0.491494 0.056804 255 125 0 83 12
-0.500577 0.515225 0.255287 255 125 0 83 12
-0.508528 0.499873 0.077287 255 125 0 83 12
-0.492849 0.496618 0.049287 255 125 0 83 12
-0.432704 0.539437 -0.090713 255 125 0 83 12
-0.481857 0.536335 0.149287 255 125 0 83 12
-0.488412 0.448278 -0.064713 255 125 0 83 12
-0.509010 0.485391 0.125287 255 125 0 83 12
-0.522436 0.551561 0.249287 255 125 0 83 12
-0.469309 0.549696 0.114306 255 125 0 83 12
-0.524564 0.526493 -0.076713 255 125 0 83 12
-0.539885 0.547714 0.061287 255 125 0 83 12
-0.500790 0.538994 -0.074713 255 125 0 83 12
-0.533095 0.526436 0.143287 255 125 0 83 12
-0.456248 0.519643 0.245287 255 125 0 83 12
-0.431666 0.527064 -0.010713 255 125 0 83 12
-0.541705 0.573481 -0.016713 255 125 0 83 12
-0.568176 0.520754 -0.036713 255 125 0 83 12
-0.570011 0.463497 -0.056713 255 125 0 83 12
-0.530364 0.449490 -0.010713 255 125 0 83 12
-0.566261 0.450195 -0.081709 255 125 0 83 12
-0.498597 0.473565 0.115287 255 125 0 83 12
-0.512944 0.515228 -0.067665 255 125 0 83 12
-0.438075 0.471827 -0.058713 255 125 0 83 12
-0.504286 0.436804 -0.050713 255 125 0 83 12
-0.488775 0.496425 -0.026713 255 125 0 83 12
-0.507600 0.503590 0.202277 255 125 0 83 12
-0.564362 0.577517 -0.014713 255 125 0 83 12
-0.514692 0.499949 -0.078713 255 125 0 83 12
-0.469961 0.514015 0.169287 255 125 0 83 12
-0.465439 0.513691 0.193287 255 125 0 83 12
-0.542284 0.438890 -0.038713 255 125 0 83 12
-0.530628 0.477370 0.069287 255 125 0 83 12
-0.569878 0.468754 -0.078713 255 125 0 83 12
-0.497456 0.569081 -0.045734 255 125 0 83 12
-0.437049 0.546813 -0.040713 255 125 0 83 12
-0.432402 0.482779 0.016769 255 125 0 83 12
-0.567729 0.539194 -0.044713 255 125 0 83 12
-0.526019 0.479324 -0.077056 255 125 0 83 12
-0.527251 0.507451 0.047287 255 125 0 83 12
-0.428378 0.539491 0.007287 255 125 0 83 12
-0.459767 0.571438 -0.020713 255 125 0 83 12
-0.487264 0.485954 0.065287 255 125 0 83 12
-0.472591 0.495200 0.029287 255 125 0 83 12
-0.511379 0.436511 -0.078713 255 125 0 83 12
-0.526076 0.570033 -0.015694 255 125 0 83 12
-0.521175 0.544077 -0.000713 255 125 0 83 12
-0.437277 0.521097 -0.029057 255 125 0 83 12
-0.499969 0.509396 -0.050713 255 125 0 83 12
-0.437684 0.506770 -0.046713 255 125 0 83 12
-0.509783 0.536175 0.033287 255 125 0 83 12
-0.505688 0.527848 0.155287 255 125 0 83 12
-0.428928 0.529780 -0.068713 255 125 0 83 12
-0.492208 0.573592 -0.032713 255 125 0 83 12
-0.560561 0.485876 -0.002713 255 125 0 83 12
-0.534322 0.570028 -0.045467 255 125 0 83 12
-0.570850 0.440055 -0.016713 255 125 0 83 12
-0.509499 0.438104 -0.027522 255 125 0 83 12
-0.474348 0.446817 -0.068713 255 125 0 83 12
-0.504928 0.489508 0.175287 255 125 0 83 12
-0.433047 0.569512 -0.022713 255 125 0 83 12
-0.476325 0.513290 0.005287 255 125 0 83 12
-0.570594 0.453336 -0.036713 255 125 0 83 12
-0.506186 0.567135 0.004087 255 125 0 83 12
-0.452521 0.451685 -0.080713 255 125 0 83 12
-0.517546 0.521570 0.111287 255 125 0 83 12
-0.468061 0.513366 0.223287 255 125 0 83 12
-0.568232 0.500157 -0.075615 255 125 0 83 12
-0.562283 0.554326 -0.066713 255 125 0 83 12
-0.441884 0.477816 -0.078713 255 125 0 83 12
-0.508315 0.532625 0.189287 255 125 0 83 12
-0.504187 0.488310 0.017287 255 125 0 83 12
-0.477048 0.526891 0.025287 255 125 0 83 12
-0.508318 0.500713 0.275287 255 125 0 83 12
-0.536189 0.455065 0.100333 255 125 0 83 12
-0.428057 0.516738 -0.090232 255 125 0 83 12
-0.519234 0.490000 0.006104 255 125 0 83 12
-0.564514 0.486862 0.015287 255 125 0 83 12
-0.558495 0.564014 -0.002713 255 125 0 83 12
-0.497663 0.493846 0.071287 255 125 0 83 12
-0.501107 0.529637 -0.032713 255 125 0 83 12
-0.515868 0.536569 0.015398 255 125 0 83 12
-0.501307 0.532939 0.013287 255 125 0 83 12
-0.505651 0.515471 0.235287 255 125 0 83 12
-0.431344 0.480455 -0.026713 255 125 0 83 12
-0.456199 0.527876 -0.075030 255 125 0 83 12
-0.430095 0.515184 -0.000713 255 125 0 83 12
-0.536142 0.504857 -0.076713 255 125 0 83 12
-0.482907 0.437285 -0.058713 255 125 0 83 12
-0.551874 0.572343 0.007287 255 125 0 83 12
-0.509567 0.565917 0.095287 255 125 0 83 12
-0.434032 0.549146 -0.066713 255 125 0 83 12
-0.521926 0.528805 0.197287 255 125 0 83 12
-0.515889 0.569554 -0.026338 255 125 0 83 12
-0.456631 0.443473 -0.067695 255 125 0 83 12
-0.549357 0.567593 0.026417 255 125 0 83 12
-0.440129 0.447604 -0.038713 255 125 0 83 12
-0.548837 0.445675 -0.002713 255 125 0 83 12
-0.543221 0.566063 0.081287 255 125 0 83 12
-0.476608 0.495623 0.057287 255 125 0 83 12
-0.522089 0.517509 0.061287 255 125 0 83 12
-0.440083 0.505308 -0.030713 255 125 0 83 12
-0.501889 0.570187 -0.008713 255 125 0 83 12
-0.432312 0.451838 0.019287 255 125 0 83 12
-0.511135 0.502410 -0.014713 255 125 0 83 12
-0.440446 0.433979 -0.018713 255 125 0 83 12
-0.520814 0.467721 0.049287 255 125 0 83 12
-0.517044 0.482249 -0.012713 255 125 0 83 12
-0.464163 0.537267 0.113287 255 125 0 83 12
-0.550293 0.497704 -0.074713 255 125 0 83 12
-0.501231 0.466961 0.165287 255 125 0 83 12
-0.488457 0.514231 0.083287 255 125 0 83 12
-0.458580 0.435653 -0.050713 255 125 0 83 12
-0.499337 0.487134 0.135287 255 125 0 83 12
-0.524598 0.534624 0.224261 255 125 0 83 12
-0.565334 0.520046 -0.059496 255 125 0 83 12
-0.508302 0.500776 0.063287 255 125 0 83 12
-0.479151 0.494435 0.015287 255 125 0 83 12
-0.454429 0.435766 -0.030713 255 125 0 83 12
-0.501522 0.486635 0.045287 255 125 0 83 12
-0.458626 0.547032 0.153287 255 125 0 83 12
-0.438715 0.552374 0.023287 255 125 0 83 12
-0.546400 0.533876 0.155287 255 125 0 83 12
-0.508338 0.492369 0.151287 255 125 0 83 12
-0.455735 0.562802 0.156266 255 125 0 83 12
-0.449160 0.564375 0.017287 255 125 0 83 12
-0.428243 0.545641 -0.028713 255 125 0 83 12
-0.476405 0.570841 -0.082713 255 125 0 83 12
-0.517073 0.515201 -0.028713 255 125 0 83 12
-0.511674 0.569923 -0.048713 255 125 0 83 12
-0.497565 0.505210 0.215287 255 125 0 83 12
-0.440659 0.499267 -0.081676 255 125 0 83 12
-0.500686 0.508050 -0.066713 255 125 0 83 12
-0.559045 0.545274 0.003799 255 125 0 83 12
-0.438992 0.509158 -0.070713 255 125 0 83 12
-0.569124 0.500379 -0.030713 255 125 0 83 12
-0.520002 0.544790 0.211287 255 125 0 83 12
-0.506654 0.540456 0.052284 255 125 0 83 12
-0.531203 0.532934 0.113287 255 125 0 83 12
-0.472717 0.569097 -0.014907 255 125 0 83 12
-0.561157 0.512004 -0.078713 255 125 0 83 12
-0.482114 0.542583 0.193287 255 125 0 83 12
-0.506864 0.506548 -0.038713 255 125 0 83 12
-0.438616 0.544105 -0.020713 255 125 0 83 12
-0.464224 0.553556 0.133287 255 125 0 83 12
-0.480405 0.509177 0.147287 255 125 0 83 12
-0.529473 0.572941 0.006724 255 125 0 83 12
-0.440203 0.433193 -0.052713 255 125 0 83 12
-0.439189 0.484472 -0.052713 255 125 0 83 12
-0.502663 0.522971 0.111287 255 125 0 83 12
-0.499349 0.495349 -0.003746 255 125 0 83 12
-0.479431 0.537791 0.073287 255 125 0 83 12
-0.499582 0.444812 -0.038713 255 125 0 83 12
-0.490403 0.539496 0.087287 255 125 0 83 12
-0.472902 0.444350 -0.042713 255 125 0 83 12
-0.529748 0.571837 -0.066713 255 125 0 83 12
-0.447510 0.566934 -0.046713 255 125 0 83 12
-0.437261 0.496358 -0.061649 255 125 0 83 12
-0.519487 0.522052 0.151287 255 125 0 83 12
-0.566553 0.548230 -0.078713 255 125 0 83 12
-0.447884 0.569491 -0.070713 255 125 0 83 12
-0.506160 0.525904 0.142517 255 125 0 83 12
-0.462794 0.535705 0.091287 255 125 0 83 12
-0.564981 0.438793 -0.044713 255 125 0 83 12
-0.486599 0.529956 0.097287 255 125 0 83 12
-0.472563 0.509283 0.099287 255 125 0 83 12
-0.437586 0.569458 -0.006713 255 125 0 83 12
-0.500049 0.467740 0.149287 255 125 0 83 12
-0.434488 0.466144 -0.022713 255 125 0 83 12
-0.500048 0.520258 0.067287 255 125 0 83 12
-0.428484 0.553946 -0.018713 255 125 0 83 12
-0.522457 0.551476 0.027287 255 125 0 83 12
-0.505433 0.446150 -0.088713 255 125 0 83 12
-0.436314 0.541491 -0.002713 255 125 0 83 12
-0.473421 0.524938 0.175287 255 125 0 83 12
-0.495186 0.437642 -0.066713 255 125 0 83 12
-0.499339 0.478856 0.185116 255 125 0 83 12
-0.490963 0.462340 0.171287 255 125 0 83 12
-0.568995 0.464030 0.017287 255 125 0 83 12
-0.493467 0.522740 -0.016713 255 125 0 83 12
-0.485810 0.510524 -0.020713 255 125 0 83 12
-0.511462 0.483940 0.203287 255 125 0 83 12
-0.438711 0.511149 -0.096713 255 125 0 83 12
-0.490972 0.511811 0.051287 255 125 0 83 12
-0.561484 0.527225 -0.002713 255 125 0 83 12
-0.440135 0.447606 -0.000713 255 125 0 83 12
-0.495244 0.508753 0.267287 255 125 0 83 12
-0.507337 0.479846 0.149287 255 125 0 83 12
-0.486980 0.503623 0.065287 255 125 0 83 12
-0.466581 0.469701 -0.080713 255 125 0 83 12
-0.486689 0.527233 0.075287 255 125 0 83 12
-0.528921 0.467681 0.060337 255 125 0 83 12
-0.506144 0.501165 0.050006 255 125 0 83 12
-0.493130 0.532962 0.041287 255 125 0 83 12
-0.511602 0.477791 0.021287 255 125 0 83 12
-0.560546 0.452892 -0.028713 255 125 0 83 12
-0.560171 0.547616 -0.038713 255 125 0 83 12
-0.483032 0.436787 -0.088713 255 125 0 83 12
-0.533344 0.557417 0.075482 255 125 0 83 12
-0.514024 0.540232 0.239287 255 125 0 83 12
-0.543071 0.469149 -0.074713 255 125 0 83 12
-0.502905 0.505889 0.179287 255 125 0 83 12
-0.551268 0.572193 -0.068713 255 125 0 83 12
-0.434057 0.467870 0.003287 255 125 0 83 12
-0.569899 0.468669 -0.036713 255 125 0 83 12
-0.491378 0.543854 0.119287 255 125 0 83 12
-0.457109 0.433287 -0.083671 255 125 0 83 12
-0.505342 0.525700 -0.074713 255 125 0 83 12
-0.431130 0.537481 -0.046713 255 125 0 83 12
-0.567023 0.505006 -0.016713 255 125 0 83 12
-0.429165 0.568544 -0.034713 255 125 0 83 12
-0.558545 0.522476 0.012972 255 125 0 83 12
-0.445142 0.547419 -0.076713 255 125 0 83 12
-0.523609 0.505520 0.034392 255 125 0 83 12
-0.525713 0.455747 0.107287 255 125 0 83 12
-0.521193 0.535837 0.173287 255 125 0 83 12
-0.482172 0.534352 0.133287 255 125 0 83 12
-0.429452 0.529452 -0.082713 255 125 0 83 12
-0.471232 0.570789 -0.040713 255 125 0 83 12
-0.475599 0.524469 0.154586 255 125 0 83 12
-0.536443 0.462314 0.113287 255 125 0 83 12
-0.525393 0.523166 0.101287 255 125 0 83 12
-0.534420 0.437358 0.027287 255 125 0 83 12
-0.510049 0.570160 0.021287 255 125 0 83 12
-0.524540 0.443915 -0.001043 255 125 0 83 12
-0.504806 0.514803 0.031287 255 125 0 83 12
-0.486263 0.518882 0.115287 255 125 0 83 12
-0.527158 0.540892 0.041287 255 125 0 83 12
-0.551022 0.527846 0.165287 255 125 0 83 12
-0.495832 0.496534 0.021287 255 125 0 83 12
-0.490412 0.547730 0.159287 255 125 0 83 12
-0.511267 0.497150 -0.030713 255 125 0 83 12
-0.561378 0.486080 -0.016713 255 125 0 83 12
-0.511756 0.577865 -0.064713 255 125 0 83 12
-0.567764 0.526835 -0.047764 255 125 0 83 12
-0.569443 0.470500 -0.016713 255 125 0 83 12
-0.459387 0.571957 -0.046713 255 125 0 83 12
-0.566818 0.563702 0.014306 255 125 0 83 12
-0.529957 0.571001 -0.081549 255 125 0 83 12
-0.493528 0.489775 0.095287 255 125 0 83 12
-0.451561 0.505140 -0.074713 255 125 0 83 12
-0.562298 0.467758 0.007287 255 125 0 83 12
-0.484754 0.508200 0.109287 255 125 0 83 12
-0.428145 0.553861 0.017287 255 125 0 83 12
-0.516451 0.501164 0.011287 255 125 0 83 12
-0.478746 0.445712 -0.012713 255 125 0 83 12
-0.473160 0.521799 0.209287 255 125 0 83 12
-0.523446 0.460132 -0.074713 255 125 0 83 12
-0.487991 0.557438 0.205287 255 125 0 83 12
-0.565829 0.534598 -0.079666 255 125 0 83 12
-0.430939 0.472109 -0.085322 255 125 0 83 12
-0.567140 0.541108 -0.030713 255 125 0 83 12
-0.485736 0.570281 0.017287 255 125 0 83 12
-0.508766 0.474114 0.193287 255 125 0 83 12
-0.469998 0.497328 0.119287 255 125 0 83 12
-0.493538 0.510390 0.011363 255 125 0 83 12
-0.430536 0.486437 -0.072713 255 125 0 83 12
-0.429830 0.509626 -0.078713 255 125 0 83 12
-0.492592 0.547256 0.146264 255 125 0 83 12
-0.472155 0.447344 -0.081660 255 125 0 83 12
-0.478940 0.436668 -0.000739 255 125 0 83 12
-0.519744 0.529291 0.036147 255 125 0 83 12
-0.499087 0.479868 0.009287 255 125 0 83 12
-0.493770 0.492923 0.083287 255 125 0 83 12
-0.449602 0.446862 -0.030713 255 125 0 83 12
-0.504941 0.514260 0.223287 255 125 0 83 12
-0.534265 0.516422 -0.080713 255 125 0 83 12
-0.561079 0.446178 0.001287 255 125 0 83 12
-0.561307 0.455143 -0.056713 255 125 0 83 12
-0.519944 0.445816 -0.092713 255 125 0 83 12
-0.501514 0.445330 -0.058713 255 125 0 83 12
-0.463451 0.490521 -0.075395 255 125 0 83 12
-0.501591 0.494625 0.123287 255 125 0 83 12
-0.562022 0.458926 -0.014713 255 125 0 83 12
-0.531107 0.491982 0.073287 255 125 0 83 12
-0.436709 0.520956 -0.064713 255 125 0 83 12
-0.568900 0.439609 -0.058713 255 125 0 83 12
-0.519955 0.503641 -0.024713 255 125 0 83 12
-0.436276 0.463134 0.019287 255 125 0 83 12
-0.566109 0.566543 -0.030713 255 125 0 83 12
-0.517546 0.480238 0.043287 255 125 0 83 12
-0.429878 0.471844 0.029287 255 125 0 83 12
-0.566564 0.531650 0.019287 255 125 0 83 12
-0.496401 0.445144 -0.014713 255 125 0 83 12
-0.428326 0.506498 0.007287 255 125 0 83 12
-0.428958 0.521393 -0.052713 255 125 0 83 12
-0.490099 0.441512 0.003328 255 125 0 83 12
-0.469752 0.568357 -0.026713 255 125 0 83 12
-0.540558 0.524174 0.121287 255 125 0 83 12
-0.509919 0.514474 0.043287 255 125 0 83 12
-0.558504 0.456506 -0.075244 255 125 0 83 12
-0.515121 0.514764 0.079287 255 125 0 83 12
-0.535476 0.490996 0.089287 255 125 0 83 12
-0.440914 0.523041 0.027287 255 125 0 83 12
-0.485712 0.506378 -0.052713 255 125 0 83 12
-0.473931 0.547692 0.099287 255 125 0 83 12
-0.536957 0.501587 0.109287 255 125 0 83 12
-0.565824 0.526351 -0.026500 255 125 0 83 12
-0.440159 0.480591 -0.040713 255 125 0 83 12
-0.557637 0.555228 -0.020713 255 125 0 83 12
-0.548922 0.437063 -0.064713 255 125 0 83 12
-0.529131 0.458574 0.085287 255 125 0 83 12
-0.456898 0.442398 -0.008713 255 125 0 83 12
-0.488471 0.525616 0.063287 255 125 0 83 12
-0.494764 0.538541 0.165287 255 125 0 83 12
-0.428241 0.555947 -0.000713 255 125 0 83 12
-0.499572 0.528384 -0.002713 255 125 0 83 12
-0.468757 0.444436 -0.021719 255 125 0 83 12
-0.431239 0.455693 -0.046713 255 125 0 83 12
-0.560706 0.510647 -0.038713 255 125 0 83 12
-0.449424 0.555045 0.174233 255 125 0 83 12
-0.546602 0.527743 0.179287 255 125 0 83 12
-0.506630 0.511593 0.267287 255 125 0 83 12
-0.470208 0.516941 -0.080713 255 125 0 83 12
-0.513121 0.572388 -0.084713 255 125 0 83 12
-0.511418 0.483930 0.167287 255 125 0 83 12
-0.516324 0.443801 -0.070713 255 125 0 83 12
-0.431873 0.445545 -0.016713 255 125 0 83 12
-0.430984 0.471932 -0.034713 255 125 0 83 12
-0.568722 0.506461 0.007896 255 125 0 83 12
-0.511741 0.544855 0.063287 255 125 0 83 12
-0.447898 0.435113 0.029287 255 125 0 83 12
-0.493064 0.528823 0.020584 255 125 0 83 12
-0.500347 0.472925 0.215287 255 125 0 83 12
-0.455915 0.462874 -0.080713 255 125 0 83 12
-0.526289 0.469971 0.083287 255 125 0 83 12
-0.491150 0.569570 -0.003775 255 125 0 83 12
-0.506872 0.506514 0.165287 255 125 0 83 12
-0.498289 0.565166 0.119287 255 125 0 83 12
-0.480813 0.553159 0.215287 255 125 0 83 12
-0.506848 0.448738 -0.048713 255 125 0 83 12
-0.437309 0.446564 -0.058713 255 125 0 83 12
-0.491577 0.476921 0.131749 255 125 0 83 12
-0.501491 0.495026 -0.022713 255 125 0 83 12
-0.567059 0.554467 0.003287 255 125 0 83 12
-0.509536 0.508195 0.253287 255 125 0 83 12
-0.491846 0.533711 0.143287 255 125 0 83 12
-0.533071 0.533709 -0.080713 255 125 0 83 12
-0.439672 0.490776 0.001287 255 125 0 83 12
-0.434826 0.481323 -0.015307 255 125 0 83 12
-0.555546 0.551039 -0.076713 255 125 0 83 12
-0.506181 0.558889 0.075157 255 125 0 83 12
-0.495238 0.487039 0.111287 255 125 0 83 12
-0.523907 0.443757 -0.040713 255 125 0 83 12
-0.502838 0.522692 0.099287 255 125 0 83 12
-0.492073 0.545066 0.199287 255 125 0 83 12
-0.532810 0.571712 -0.096713 255 125 0 83 12
-0.556635 0.573529 -0.052713 255 125 0 83 12
-0.450518 0.484523 -0.074713 255 125 0 83 12
-0.463714 0.568914 -0.062713 255 125 0 83 12
-0.557546 0.476879 -0.077773 255 125 0 83 12
-0.497297 0.569042 -0.068713 255 125 0 83 12
-0.477519 0.491968 -0.076443 255 125 0 83 12
-0.559107 0.557656 0.021287 255 125 0 83 12
-0.504469 0.506931 -0.002713 255 125 0 83 12
-0.439447 0.520657 -0.004713 255 125 0 83 12
-0.429990 0.488362 -0.040713 255 125 0 83 12
-0.501799 0.535123 0.025211 255 125 0 83 12
-0.468087 0.546333 -0.080713 255 125 0 83 12
-0.426608 0.559661 -0.052713 255 125 0 83 12
-0.437248 0.541703 -0.058713 255 125 0 83 12
-0.556027 0.437337 -0.078713 255 125 0 83 12
-0.493194 0.437367 -0.082713 255 125 0 83 12
-0.493523 0.436047 -0.042713 255 125 0 83 12
-0.450985 0.571924 -0.004713 255 125 0 83 12
-0.462982 0.517201 0.254275 255 125 0 83 12
-0.530594 0.525813 0.131287 255 125 0 83 12
-0.499380 0.544827 0.066067 255 125 0 83 12
-0.492873 0.521324 -0.038713 255 125 0 83 12
-0.562166 0.488338 -0.048713 255 125 0 83 12
-0.494682 0.475635 0.035287 255 125 0 83 12
-0.462868 0.523356 0.225287 255 125 0 83 12
-0.431476 0.552631 -0.079485 255 125 0 83 12
-0.498812 0.476664 0.051287 255 125 0 83 12
-0.529686 0.464615 0.101287 255 125 0 83 12
-0.550499 0.447275 -0.050713 255 125 0 83 12
-0.432685 0.478728 -0.094713 255 125 0 83 12
-0.498450 0.507492 0.133287 255 125 0 83 12
-0.545719 0.440951 0.019287 255 125 0 83 12
-0.569570 0.481938 -0.074713 255 125 0 83 12
-0.442038 0.456325 -0.030713 255 125 0 83 12
-0.567517 0.478222 -0.008713 255 125 0 83 12
-0.431555 0.480508 -0.062713 255 125 0 83 12
-0.568706 0.481723 0.024411 255 125 0 83 12
-0.494964 0.463337 0.181792 255 125 0 83 12
-0.522647 0.517647 0.045913 255 125 0 83 12
-0.482852 0.532461 0.049287 255 125 0 83 12
-0.483168 0.436243 -0.028713 255 125 0 83 12
-0.515868 0.536569 0.162316 255 125 0 83 12
-0.440639 0.433205 0.005287 255 125 0 83 12
-0.560612 0.496195 -0.064713 255 125 0 83 12
-0.569200 0.496275 0.000303 255 125 0 83 12
-0.442331 0.442954 -0.010713 255 125 0 83 12
-0.508973 0.489820 -0.014713 255 125 0 83 12
-0.503040 0.513614 0.199287 255 125 0 83 12
-0.501102 0.570990 0.105287 255 125 0 83 12
-0.496928 0.533909 0.127287 255 125 0 83 12
-0.441380 0.496371 -0.044713 255 125 0 83 12
-0.508567 0.503830 0.239287 255 125 0 83 12
-0.453896 0.487509 0.071287 255 125 0 83 12
-0.462267 0.528336 0.241287 255 125 0 83 12
-0.484897 0.549460 0.183287 255 125 0 83 12
-0.442973 0.448648 -0.074713 255 125 0 83 12
-0.500539 0.482312 0.069287 255 125 0 83 12
-0.570141 0.451162 -0.017674 255 125 0 83 12
-0.518173 0.533022 0.003287 255 125 0 83 12
-0.562160 0.451234 -0.044713 255 125 0 83 12
-0.498650 0.506422 0.057287 255 125 0 83 12
-0.435582 0.461758 -0.080713 255 125 0 83 12
-0.567478 0.503180 -0.054713 255 125 0 83 12
-0.427223 0.533019 0.029287 255 125 0 83 12
-0.507776 0.461550 -0.074713 255 125 0 83 12
-0.561034 0.463321 -0.032713 255 125 0 83 12
-0.544972 0.535581 -0.075196 255 125 0 83 12
-0.512705 0.516184 -0.078713 255 125 0 83 12
-0.496947 0.476199 0.157287 255 125 0 83 12
-0.495967 0.517180 -0.057511 255 125 0 83 12
-0.462218 0.445864 -0.030713 255 125 0 83 12
-0.495756 0.534559 0.053287 255 125 0 83 12
-0.483630 0.533597 0.017287 255 125 0 83 12
-0.498350 0.507622 0.231287 255 125 0 83 12
-0.451366 0.555529 -0.081647 255 125 0 83 12
-0.503395 0.512190 0.017287 255 125 0 83 12
-0.465554 0.571434 -0.080713 255 125 0 83 12
-0.503695 0.482004 0.083287 255 125 0 83 12
-0.515358 0.497280 0.027091 255 125 0 83 12
-0.467983 0.497834 0.093287 255 125 0 83 12
-0.487562 0.501292 0.013287 255 125 0 83 12
-0.544121 0.572058 -0.000713 255 125 0 83 12
-0.506146 0.513534 0.187287 255 125 0 83 12
-0.486312 0.531101 -0.000713 255 125 0 83 12
-0.496715 0.511182 -0.036713 255 125 0 83 12
-0.495517 0.498516 0.037287 255 125 0 83 12
-0.489150 0.548459 0.221287 255 125 0 83 12
-0.521206 0.539961 0.200261 255 125 0 83 12
-0.503203 0.521229 0.081287 255 125 0 83 12
-0.475389 0.505865 0.075287 255 125 0 83 12
-0.476078 0.514282 0.114687 255 125 0 83 12
-0.428672 0.525135 -0.036713 255 125 0 83 12
-0.503948 0.551311 0.083287 255 125 0 83 12
-0.469539 0.531202 0.065287 255 125 0 83 12
-0.509053 0.497769 0.001287 255 125 0 83 12
-0.534531 0.572141 -0.056713 255 125 0 83 12
-0.566818 0.563702 -0.041703 255 125 0 83 12
-0.530715 0.501820 0.087287 255 125 0 83 12
-0.432240 0.499959 -0.038713 255 125 0 83 12
-0.436804 0.560142 -0.048713 255 125 0 83 12
-0.561070 0.469513 -0.054713 255 125 0 83 12
-0.542485 0.491676 -0.080713 255 125 0 83 12
-0.518184 0.481495 -0.000713 255 125 0 83 12
-0.524058 0.515938 0.023287 255 125 0 83 12
-0.451168 0.567846 -0.026713 255 125 0 83 12
-0.509068 0.522508 0.131225 255 125 0 83 12
-0.482865 0.511862 0.131287 255 125 0 83 12
-0.508817 0.523514 0.049287 255 125 0 83 12
-0.487652 0.567066 -0.040713 255 125 0 83 12
-0.518494 0.443364 -0.030713 255 125 0 83 12
-0.543484 0.529026 0.141287 255 125 0 83 12
-0.518275 0.545415 0.035287 255 125 0 83 12
-0.436278 0.562073 0.003287 255 125 0 83 12
-0.501504 0.489702 0.005287 255 125 0 83 12
-0.475599 0.524469 -0.075033 255 125 0 83 12
-0.441603 0.483013 0.023287 255 125 0 83 12
-0.515347 0.480787 -0.081660 255 125 0 83 12
-0.499533 0.569016 -0.080713 255 125 0 83 12
-0.496749 0.502945 0.253287 255 125 0 83 12
-0.491818 0.470798 0.141287 255 125 0 83 12
-0.435525 0.453718 -0.068713 255 125 0 83 12
-0.454718 0.442873 0.017287 255 125 0 83 12
-0.557174 0.565419 -0.036713 255 125 0 83 12
-0.462711 0.435620 -0.040713 255 125 0 83 12
-0.537102 0.527436 0.153287 255 125 0 83 12
-0.455948 0.537148 -0.080713 255 125 0 83 12
-0.550479 0.447354 -0.080713 255 125 0 83 12
-0.472848 0.436299 -0.066713 255 125 0 83 12
-0.511878 0.536039 -0.006713 255 125 0 83 12
-0.536689 0.477863 -0.074387 255 125 0 83 12
-0.550596 0.446886 0.029287 255 125 0 83 12
-0.441359 0.446852 -0.022713 255 125 0 83 12
-0.523717 0.538158 -0.076713 255 125 0 83 12
-0.472676 0.436989 -0.084713 255 125 0 83 12
-0.533186 0.437826 -0.076713 255 125 0 83 12
-0.567533 0.536029 -0.058713 255 125 0 83 12
-0.470740 0.510890 0.202251 255 125 0 83 12
-0.496462 0.531731 0.112260 255 125 0 83 12
-0.506610 0.495098 0.133287 255 125 0 83 12
-0.515590 0.504618 -0.068713 255 125 0 83 12
-0.432827 0.437539 -0.038713 255 125 0 83 12
-0.499965 0.567285 -0.028713 255 125 0 83 12
-0.525714 0.439208 -0.010713 255 125 0 83 12
-0.470493 0.536681 0.099287 255 125 0 83 12
-0.497863 0.497040 -0.032713 255 125 0 83 12
-0.453525 0.563398 0.027287 255 125 0 83 12
-0.436302 0.562079 -0.014713 255 125 0 83 12
-0.487731 0.442743 0.017287 255 125 0 83 12
-0.526412 0.502547 0.071287 255 125 0 83 12
-0.483146 0.519001 0.091287 255 125 0 83 12
-0.561595 0.558276 -0.056713 255 125 0 83 12
-0.489055 0.470498 0.055287 255 125 0 83 12
-0.509792 0.569206 -0.070713 255 125 0 83 12
-0.483606 0.566760 0.003287 255 125 0 83 12
-0.478045 0.506392 0.013287 255 125 0 83 12
-0.442017 0.569687 -0.056713 255 125 0 83 12
-0.509743 0.528068 0.165287 255 125 0 83 12
-0.516357 0.542875 0.250721 255 125 0 83 12
-0.570067 0.463511 0.001287 255 125 0 83 12
-0.463006 0.500573 0.033287 255 125 0 83 12
-0.538451 0.578267 0.027287 255 125 0 83 12
-0.486484 0.505616 0.077287 255 125 0 83 12
-0.486275 0.531252 0.108011 255 125 0 83 12
-0.538603 0.437116 -0.028334 255 125 0 83 12
-0.486579 0.513500 0.061287 255 125 0 83 12
-0.513242 0.538836 0.181287 255 125 0 83 12
-0.564917 0.439050 -0.006713 255 125 0 83 12
-0.479125 0.510919 -0.004713 255 125 0 83 12
-0.498855 0.480798 0.174521 255 125 0 83 12
-0.522137 0.478358 0.030676 255 125 0 83 12
-0.475880 0.458579 -0.074713 255 125 0 83 12
-0.500233 0.477018 0.199287 255 125 0 83 12
-0.432168 0.542497 0.031287 255 125 0 83 12
-0.542485 0.438083 -0.049279 255 125 0 83 12
-0.479691 0.524593 0.035287 255 125 0 83 12
-0.545796 0.573608 -0.028713 255 125 0 83 12
-0.559045 0.545274 -0.048977 255 125 0 83 12
-0.509525 0.479335 0.214323 255 125 0 83 12
-0.503924 0.510070 -0.016713 255 125 0 83 12
-0.489147 0.470132 -0.075984 255 125 0 83 12
-0.520228 0.527351 -0.019726 255 125 0 83 12
-0.446708 0.441931 -0.044713 255 125 0 83 12
-0.442075 0.464579 -0.002713 255 125 0 83 12
-0.515521 0.536483 0.229287 255 125 0 83 12
-0.429066 0.512867 -0.068713 255 125 0 83 12
-0.559027 0.499922 -0.080713 255 125 0 83 12
-0.532897 0.493070 0.117287 255 125 0 83 12
-0.449908 0.553103 0.153116 255 125 0 83 12
-0.527214 0.449726 0.025287 255 125 0 83 12
-0.528237 0.536559 0.019287 255 125 0 83 12
-0.566802 0.538963 -0.001689 255 125 0 83 12
-0.522093 0.548428 0.239287 255 125 0 83 12
-0.507120 0.542633 0.013287 255 125 0 83 12
-0.475742 0.435872 -0.010713 255 125 0 83 12
-0.558404 0.555420 -0.008713 255 125 0 83 12
-0.554378 0.448248 -0.060713 255 125 0 83 12
-0.440887 0.569405 0.021287 255 125 0 83 12
-0.508532 0.503822 0.215287 255 125 0 83 12
-0.510067 0.568103 -0.015170 255 125 0 83 12
-0.566768 0.551322 -0.016713 255 125 0 83 12
-0.454749 0.434485 -0.072713 255 125 0 83 12
-0.510495 0.438352 -0.012713 255 125 0 83 12
-0.523837 0.495271 -0.076713 255 125 0 83 12
-0.479959 0.515249 0.157261 255 125 0 83 12
-0.562283 0.573624 -0.004713 255 125 0 83 12
-0.562432 0.478098 -0.038713 255 125 0 83 12
-0.560392 0.527058 -0.066713 255 125 0 83 12
-0.564517 0.503353 -0.006713 255 125 0 83 12
-0.440659 0.433124 -0.006713 255 125 0 83 12
-0.437722 0.515025 -0.086713 255 125 0 83 12
-0.474350 0.446807 0.027287 255 125 0 83 12
-0.520695 0.500671 0.051708 255 125 0 83 12
-0.568960 0.497239 -0.040713 255 125 0 83 12
-0.497929 0.550648 -0.081679 255 125 0 83 12
-0.474347 0.446821 -0.032713 255 125 0 83 12
-0.436314 0.533225 -0.075466 255 125 0 83 12
-0.540998 0.448019 -0.014713 255 125 0 83 12
-0.495000 0.521061 -0.076202 255 125 0 83 12
-0.549804 0.569766 -0.078713 255 125 0 83 12
-0.460318 0.503087 -0.080713 255 125 0 83 12
-0.488158 0.441028 -0.019510 255 125 0 83 12
-0.543457 0.442449 0.006485 255 125 0 83 12
-0.567025 0.496729 0.017287 255 125 0 83 12
-0.506906 0.555982 0.097287 255 125 0 83 12
-0.444176 0.435556 -0.028713 255 125 0 83 12
-0.474265 0.517952 0.145287 255 125 0 83 12
-0.532582 0.441798 -0.058713 255 125 0 83 12
-0.474466 0.505635 0.025287 255 125 0 83 12
-0.516706 0.439900 0.021287 255 125 0 83 12
-0.481328 0.507345 0.045287 255 125 0 83 12
-0.489445 0.494941 0.029287 255 125 0 83 12
-0.505952 0.518469 -0.052713 255 125 0 83 12
-0.429770 0.494491 -0.082713 255 125 0 83 12
-0.513161 0.448221 -0.008713 255 125 0 83 12
-0.429478 0.527574 -0.026713 255 125 0 83 12
-0.507036 0.509632 0.153287 255 125 0 83 12
-0.562078 0.523357 0.029287 255 125 0 83 12
-0.479245 0.442928 -0.050713 255 125 0 83 12
-0.493988 0.479584 0.091287 255 125 0 83 12
-0.492925 0.436033 -0.056713 255 125 0 83 12
-0.512904 0.511096 0.025287 255 125 0 83 12
-0.498931 0.513795 0.003287 255 125 0 83 12
-0.493993 0.512564 0.029287 255 125 0 83 12
-0.533371 0.444056 -0.036713 255 125 0 83 12
-0.566311 0.553269 -0.044713 255 125 0 83 12
-0.474676 0.503626 0.065287 255 125 0 83 12
-0.507627 0.544821 -0.079685 255 125 0 83 12
-0.430279 0.498740 -0.028713 255 125 0 83 12
-0.492861 0.570976 -0.054713 255 125 0 83 12
-0.552749 0.438250 -0.014713 255 125 0 83 12
-0.510754 0.515743 0.067287 255 125 0 83 12
-0.535275 0.440408 -0.018713 255 125 0 83 12
-0.492960 0.570580 -0.088713 255 125 0 83 12
-0.561900 0.459414 0.023056 255 125 0 83 12
-0.559202 0.512334 -0.056713 255 125 0 83 12
-0.502841 0.530948 -0.022713 255 125 0 83 12
-0.561454 0.519078 -0.044690 255 125 0 83 12
-0.510067 0.568103 0.031309 255 125 0 83 12
-0.474369 0.570739 -0.060713 255 125 0 83 12
-0.484158 0.543092 0.175287 255 125 0 83 12
-0.518071 0.569072 -0.064713 255 125 0 83 12
-0.458829 0.442920 -0.080713 255 125 0 83 12
-0.540655 0.569429 -0.064713 255 125 0 83 12
-0.563417 0.486588 -0.026713 255 125 0 83 12
-0.476065 0.518400 0.193287 255 125 0 83 12
-0.500582 0.437942 -0.092713 255 125 0 83 12
-0.501103 0.513119 0.095287 255 125 0 83 12
-0.497570 0.505211 0.203287 255 125 0 83 12
-0.522132 0.470111 0.071877 255 125 0 83 12
-0.508351 0.533651 0.113287 255 125 0 83 12
-0.501220 0.487846 0.145287 255 125 0 83 12
-0.556865 0.570552 -0.014713 255 125 0 83 12
-0.517760 0.532919 0.141287 255 125 0 83 12
-0.570152 0.467655 0.028178 255 125 0 83 12
-0.437028 0.563430 -0.038713 255 125 0 83 12
-0.515892 0.437266 -0.048713 255 125 0 83 12
-0.558883 0.530805 -0.044713 255 125 0 83 12
-0.529173 0.491473 0.063287 255 125 0 83 12
-0.471260 0.566673 -0.004401 255 125 0 83 12
-0.497572 0.556743 0.093287 255 125 0 83 12
-0.449841 0.520107 -0.076713 255 125 0 83 12
-0.464387 0.437163 0.024875 255 125 0 83 12
-0.460764 0.435158 -0.002713 255 125 0 83 12
-0.526076 0.570033 0.022301 255 125 0 83 12
-0.438718 0.519395 -0.054713 255 125 0 83 12
-0.522652 0.525893 0.086780 255 125 0 83 12
-0.526033 0.541166 0.253287 255 125 0 83 12
-0.533464 0.441194 -0.086713 255 125 0 83 12
-0.496711 0.530731 0.097287 255 125 0 83 12
-0.454719 0.566881 -0.012713 255 125 0 83 12
-0.440399 0.483769 -0.006713 255 125 0 83 12
-0.437219 0.521083 -0.016713 255 125 0 83 12
-0.472020 0.571893 0.027287 255 125 0 83 12
-0.440649 0.536366 0.005287 255 125 0 83 12
-0.463493 0.556491 -0.081682 255 125 0 83 12
-0.494516 0.523001 0.040318 255 125 0 83 12
-0.504456 0.516201 0.245287 255 125 0 83 12
-0.521878 0.446329 -0.080713 255 125 0 83 12
-0.499348 0.499471 -0.042713 255 125 0 83 12
-0.485083 0.560835 0.223287 255 125 0 83 12
-0.533781 0.526607 0.093287 255 125 0 83 12
-0.431432 0.451620 0.003287 255 125 0 83 12
-0.500433 0.518293 0.047287 255 125 0 83 12
-0.570625 0.449222 0.006192 255 125 0 83 12
-0.562267 0.457444 -0.000713 255 125 0 83 12
-0.548647 0.438168 -0.030713 255 125 0 83 12
-0.471932 0.529738 0.053287 255 125 0 83 12
-0.474521 0.570128 -0.092713 255 125 0 83 12
-0.559528 0.543333 0.029119 255 125 0 83 12
-0.517782 0.520622 0.121287 255 125 0 83 12
-0.519951 0.437523 -0.062713 255 125 0 83 12
-0.495791 0.486217 0.023287 255 125 0 83 12
-0.492204 0.495628 0.003287 255 125 0 83 12
-0.429490 0.512973 -0.046713 255 125 0 83 12
-0.481499 0.546552 0.203287 255 125 0 83 12
-0.498771 0.505935 0.147287 255 125 0 83 12
-0.432946 0.451997 -0.024713 255 125 0 83 12
-0.482226 0.497889 0.049287 255 125 0 83 12
-0.557531 0.549019 -0.028713 255 125 0 83 12
-0.523082 0.470348 -0.080713 255 125 0 83 12
-0.431679 0.460875 -0.014713 255 125 0 83 12
-0.436769 0.535399 -0.012713 255 125 0 83 12
-0.541556 0.545036 -0.080713 255 125 0 83 12
-0.460066 0.545432 0.117287 255 125 0 83 12
-0.526192 0.437294 -0.094713 255 125 0 83 12
-0.487455 0.443848 -0.040713 255 125 0 83 12
-0.510816 0.518820 0.087287 255 125 0 83 12
-0.499196 0.474699 0.125287 255 125 0 83 12
-0.496407 0.527595 0.077287 255 125 0 83 12
-0.498827 0.476668 0.105287 255 125 0 83 12
-0.438209 0.488349 -0.078713 255 125 0 83 12
-0.440152 0.472345 -0.048713 255 125 0 83 12
-0.506149 0.509412 0.112327 255 125 0 83 12
-0.462460 0.547988 0.141287 255 125 0 83 12
-0.552794 0.438072 -0.044713 255 125 0 83 12
-0.494686 0.505787 -0.058713 255 125 0 83 12
-0.514806 0.495080 -0.020713 255 125 0 83 12
-0.498251 0.503320 0.275287 255 125 0 83 12
-0.475363 0.533685 0.081287 255 125 0 83 12
-0.471244 0.541934 0.108243 255 125 0 83 12
-0.511873 0.481981 0.183287 255 125 0 83 12
-0.439613 0.449537 -0.048713 255 125 0 83 12
-0.456699 0.443198 0.001287 255 125 0 83 12
-0.559456 0.502289 -0.030713 255 125 0 83 12
-0.497200 0.446099 -0.028713 255 125 0 83 12
-0.538093 0.492641 0.099287 255 125 0 83 12
-0.448693 0.566248 -0.080713 255 125 0 83 12
-0.561278 0.438646 -0.034713 255 125 0 83 12
-0.438711 0.519394 0.009287 255 125 0 83 12
-0.543947 0.494101 0.117287 255 125 0 83 12
-0.481148 0.444344 -0.094713 255 125 0 83 12
-0.441605 0.462400 -0.053691 255 125 0 83 12
-0.491839 0.484137 0.039287 255 125 0 83 12
-0.568243 0.516649 -0.017634 255 125 0 83 12
-0.471479 0.438930 0.005287 255 125 0 83 12
-0.538332 0.566906 0.005287 255 125 0 83 12
-0.461531 0.523022 -0.081658 255 125 0 83 12
-0.429982 0.492483 -0.002880 255 125 0 83 12
-0.430981 0.538079 -0.021835 255 125 0 83 12
-0.493527 0.493898 0.062414 255 125 0 83 12
-0.470967 0.501712 0.083287 255 125 0 83 12
-0.510361 0.442920 0.005287 255 125 0 83 12
-0.464638 0.444423 -0.048713 255 125 0 83 12
-0.565782 0.460382 -0.081682 255 125 0 83 12
-0.505691 0.436848 -0.036713 255 125 0 83 12
-0.486500 0.505550 0.087287 255 125 0 83 12
-0.502994 0.497265 -0.012713 255 125 0 83 12
-0.505181 0.513293 0.075973 255 125 0 83 12
-0.501613 0.519337 0.057287 255 125 0 83 12
-0.437271 0.525218 -0.086713 255 125 0 83 12
-0.517847 0.506145 -0.008713 255 125 0 83 12
-0.433600 0.502774 -0.054713 255 125 0 83 12
-0.561813 0.554209 0.031287 255 125 0 83 12
-0.516406 0.542681 0.025287 255 125 0 83 12
-0.433390 0.511883 -0.028144 255 125 0 83 12
-0.473401 0.508483 0.191287 255 125 0 83 12
-0.436802 0.551897 -0.056713 255 125 0 83 12
-0.533281 0.458462 -0.075297 255 125 0 83 12
-0.452778 0.434268 0.009287 255 125 0 83 12
-0.498556 0.498532 0.011287 255 125 0 83 12
-0.533292 0.474955 0.078281 255 125 0 83 12
-0.484578 0.499911 -0.018713 255 125 0 83 12
-0.509167 0.534899 0.145287 255 125 0 83 12
-0.497888 0.484678 -0.074613 255 125 0 83 12
-0.438226 0.496599 -0.090713 255 125 0 83 12
-0.488443 0.522556 0.003287 255 125 0 83 12
-0.564180 0.566013 -0.050713 255 125 0 83 12
-0.427578 0.526924 -0.092224 255 125 0 83 12
-0.481890 0.499241 0.023762 255 125 0 83 12
-0.440409 0.500268 0.003287 255 125 0 83 12
-0.537988 0.443146 -0.006713 255 125 0 83 12
-0.511498 0.529296 -0.015610 255 125 0 83 12
-0.533777 0.510116 0.071287 255 125 0 83 12
-0.568111 0.520738 -0.006713 255 125 0 83 12
-0.561148 0.516941 -0.068713 255 125 0 83 12
-0.478379 0.516917 0.173287 255 125 0 83 12
-0.561900 0.459414 -0.065942 255 125 0 83 12
-0.532350 0.520067 0.082306 255 125 0 83 12
-0.470773 0.436354 -0.048713 255 125 0 83 12
-0.481987 0.505449 0.031287 255 125 0 83 12
-0.494027 0.516696 -0.067683 255 125 0 83 12
-0.441662 0.553108 -0.083639 255 125 0 83 12
-0.452470 0.435359 -0.040713 255 125 0 83 12
-0.485333 0.460625 -0.076713 255 125 0 83 12
-0.513155 0.517342 -0.040713 255 125 0 83 12
-0.531733 0.550832 0.057287 255 125 0 83 12
-0.528930 0.519215 0.109287 255 125 0 83 12
-0.427916 0.559988 -0.028713 255 125 0 83 12
-0.509584 0.570043 -0.097702 255 125 0 83 12
-0.465422 0.499152 0.109287 255 125 0 83 12
-0.540549 0.445845 -0.075844 255 125 0 83 12
-0.450312 0.435744 -0.010713 255 125 0 83 12
-0.498260 0.505384 0.169287 255 125 0 83 12
-0.493327 0.511234 -0.006713 255 125 0 83 12
-0.432778 0.464737 -0.050713 255 125 0 83 12
-0.435367 0.570090 0.008399 255 125 0 83 12
-0.567375 0.487061 0.005287 255 125 0 83 12
-0.481143 0.437218 0.023287 255 125 0 83 12
-0.524769 0.567009 -0.028713 255 125 0 83 12
-0.508595 0.540940 0.042291 255 125 0 83 12
-0.552921 0.446869 -0.028713 255 125 0 83 12
-0.516320 0.485152 0.014702 255 125 0 83 12
-0.567166 0.541114 -0.016713 255 125 0 83 12
-0.439186 0.484472 -0.088713 255 125 0 83 12
-0.477417 0.566783 -0.046713 255 125 0 83 12
-0.554746 0.438508 -0.004713 255 125 0 83 12
-0.508784 0.482313 0.007287 255 125 0 83 12
-0.486918 0.536942 0.157287 255 125 0 83 12
-0.470251 0.504584 0.041359 255 125 0 83 12
-0.465882 0.517923 0.245287 255 125 0 83 12
-0.517830 0.570038 0.002291 255 125 0 83 12
-0.510004 0.522740 0.029287 255 125 0 83 12
-0.508872 0.530703 0.179287 255 125 0 83 12
-0.507584 0.445788 -0.032713 255 125 0 83 12
-0.452274 0.436146 -0.062713 255 125 0 83 12
-0.510103 0.520703 0.105287 255 125 0 83 12
-0.491597 0.514029 0.069287 255 125 0 83 12
-0.526243 0.461888 0.067287 255 125 0 83 12
-0.458828 0.442926 -0.056713 255 125 0 83 12
-0.562452 0.564674 0.005906 255 125 0 83 12
-0.484527 0.520511 -0.018713 255 125 0 83 12
-0.475305 0.509115 0.163287 255 125 0 83 12
-0.535237 0.483685 -0.081634 255 125 0 83 12
-0.486954 0.445861 -0.074713 255 125 0 83 12
-0.437732 0.515027 -0.038713 255 125 0 83 12
-0.509021 0.448291 -0.075886 255 125 0 83 12
-0.492592 0.547256 0.188222 255 125 0 83 12
-0.528476 0.547958 0.259287 255 125 0 83 12
-0.529228 0.549124 0.045287 255 125 0 83 12
-0.496951 0.538037 0.034386 255 125 0 83 12
-0.522640 0.530013 0.157287 255 125 0 83 12
-0.514920 0.532106 0.207287 255 125 0 83 12
-0.452079 0.469993 -0.074713 255 125 0 83 12
-0.434241 0.520341 0.021287 255 125 0 83 12
-0.567725 0.539193 0.025287 255 125 0 83 12
-0.501540 0.516508 -0.030713 255 125 0 83 12
-0.430950 0.488601 -0.058055 255 125 0 83 12
-0.549794 0.569764 0.017287 255 125 0 83 12
-0.509557 0.528812 0.000263 255 125 0 83 12
-0.488589 0.538503 0.127287 255 125 0 83 12
-0.503231 0.496317 -0.063687 255 125 0 83 12
-0.516730 0.541376 0.007287 255 125 0 83 12
-0.480681 0.570224 -0.072713 255 125 0 83 12
-0.508569 0.520322 -0.004713 255 125 0 83 12
-0.496754 0.486457 -0.002713 255 125 0 83 12
-0.430924 0.447370 -0.040150 255 125 0 83 12
-0.428340 0.548673 -0.006713 255 125 0 83 12
-0.483105 0.444764 -0.002713 255 125 0 83 12
-0.428860 0.541672 -0.038713 255 125 0 83 12
-0.536974 0.554200 0.067287 255 125 0 83 12
-0.570557 0.461572 -0.042713 255 125 0 83 12
-0.559704 0.543377 -0.010713 255 125 0 83 12
-0.493471 0.452659 -0.076713 255 125 0 83 12
-0.540559 0.462338 -0.081681 255 125 0 83 12
-0.459539 0.440077 -0.023427 255 125 0 83 12
-0.544160 0.522301 0.159287 255 125 0 83 12
-0.473367 0.508618 0.177287 255 125 0 83 12
-0.435705 0.510867 -0.006713 255 125 0 83 12
-0.458515 0.518148 0.233287 255 125 0 83 12
-0.487752 0.566661 -0.027716 255 125 0 83 12
-0.502463 0.438411 -0.082713 255 125 0 83 12
-0.560371 0.523423 -0.014713 255 125 0 83 12
-0.543941 0.440508 0.030277 255 125 0 83 12
-0.497429 0.540217 0.093287 255 125 0 83 12
-0.505396 0.471096 -0.080713 255 125 0 83 12
-0.567049 0.554506 0.013287 255 125 0 83 12
-0.534702 0.448511 -0.066713 255 125 0 83 12
-0.508089 0.530508 -0.038713 255 125 0 83 12
-0.438259 0.541955 -0.079593 255 125 0 83 12
-0.471193 0.521309 0.219287 255 125 0 83 12
-0.502736 0.481764 0.114242 255 125 0 83 12
-0.523375 0.531259 0.187287 255 125 0 83 12
-0.568005 0.534134 -0.036713 255 125 0 83 12
-0.466683 0.514000 0.183287 255 125 0 83 12
-0.540601 0.528307 0.132319 255 125 0 83 12
-0.560277 0.573398 -0.032713 255 125 0 83 12
-0.520721 0.541903 0.220143 255 125 0 83 12
-0.507870 0.535578 0.125287 255 125 0 83 12
-0.514194 0.543280 0.195287 255 125 0 83 12
-0.439067 0.476196 -0.068713 255 125 0 83 12
-0.462762 0.526354 0.253287 255 125 0 83 12
-0.526993 0.512548 0.039287 255 125 0 83 12
-0.536935 0.518209 0.115287 255 125 0 83 12
-0.566861 0.524550 0.009287 255 125 0 83 12
-0.559707 0.517818 -0.000713 255 125 0 83 12
-0.443298 0.455610 -0.080713 255 125 0 83 12
-0.537789 0.572657 -0.036713 255 125 0 83 12
-0.523249 0.437409 -0.074713 255 125 0 83 12
-0.566343 0.561522 -0.070713 255 125 0 83 12
-0.480412 0.443219 -0.082713 255 125 0 83 12
-0.570110 0.471767 -0.002713 255 125 0 83 12
-0.437985 0.493456 -0.070713 255 125 0 83 12
-0.490624 0.505541 -0.027274 255 125 0 83 12
-0.465849 0.447834 -0.075021 255 125 0 83 12
-0.569174 0.450921 -0.060713 255 125 0 83 12
-0.499318 0.445871 -0.067592 255 125 0 83 12
-0.570529 0.461565 -0.008713 255 125 0 83 12
-0.528876 0.471793 0.051287 255 125 0 83 12
-0.431055 0.504717 -0.064713 255 125 0 83 12
-0.560182 0.518761 -0.032713 255 125 0 83 12
-0.564624 0.443603 -0.024713 255 125 0 83 12
-0.442078 0.464580 -0.034713 255 125 0 83 12
-0.451501 0.571520 -0.038713 255 125 0 83 12
-0.466885 0.551153 0.124333 255 125 0 83 12
-0.474380 0.529357 0.073287 255 125 0 83 12
-0.502376 0.524547 -0.014713 255 125 0 83 12
-0.504022 0.575817 -0.050713 255 125 0 83 12
-0.512746 0.532559 0.197287 255 125 0 83 12
-0.509796 0.511320 0.003287 255 125 0 83 12
-0.497905 0.503234 0.003287 255 125 0 83 12
-0.526034 0.504063 -0.075517 255 125 0 83 12
-0.472544 0.503653 -0.004713 255 125 0 83 12
-0.562390 0.465720 -0.020813 255 125 0 83 12
-0.500114 0.497601 0.029287 255 125 0 83 12
-0.501739 0.489762 0.099287 255 125 0 83 12
-0.523452 0.509603 0.013287 255 125 0 83 12
-0.510998 0.506498 -0.030570 255 125 0 83 12
-0.485635 0.542088 0.143287 255 125 0 83 12
-0.501289 0.495833 0.056253 255 125 0 83 12
-0.428576 0.547725 0.003287 255 125 0 83 12
-0.437138 0.545797 -0.030713 255 125 0 83 12
-0.484335 0.530769 0.040299 255 125 0 83 12
-0.555569 0.439285 0.019287 255 125 0 83 12
-0.465851 0.519976 0.201287 255 125 0 83 12
-0.505192 0.529785 0.078282 255 125 0 83 12
-0.502278 0.524937 0.125662 255 125 0 83 12
-0.441841 0.461453 0.027287 255 125 0 83 12
-0.442993 0.452441 -0.062713 255 125 0 83 12
-0.561709 0.468452 -0.074713 255 125 0 83 12
-0.440645 0.528121 -0.068713 255 125 0 83 12
-0.452294 0.547515 0.145287 255 125 0 83 12
-0.438707 0.482290 -0.031721 255 125 0 83 12
-0.457910 0.554077 0.159287 255 125 0 83 12
-0.493953 0.487820 0.051287 255 125 0 83 12
-0.430153 0.478096 -0.006713 255 125 0 83 12
-0.527903 0.516896 0.053287 255 125 0 83 12
-0.544665 0.437606 -0.002713 255 125 0 83 12
-0.516356 0.470732 0.041287 255 125 0 83 12
-0.523040 0.499534 0.061287 255 125 0 83 12
-0.442389 0.566727 -0.024713 255 125 0 83 12
-0.561696 0.496465 -0.052713 255 125 0 83 12
-0.503441 0.512004 0.063287 255 125 0 83 12
-0.555390 0.526860 0.177287 255 125 0 83 12
-0.519239 0.498247 0.002366 255 125 0 83 12
-0.561387 0.511077 0.005287 255 125 0 83 12
-0.468129 0.567953 0.005287 255 125 0 83 12
