ply
format ascii 1.0
element vertex 1082
property float x
property float y
property float z
property uchar red
property uchar green
property uchar blue
property uchar semantic_label
property uchar instance_label
end_header
0.145294 -0.435635 -0.024349 255 255 0 80 17
0.131213 -0.488855 0.074700 255 255 0 80 17
0.133176 -0.476642 0.088700 255 255 0 80 17
0.149250 -0.337519 0.048700 255 255 0 80 17
0.128034 -0.520664 0.158048 255 255 0 80 17
0.147731 -0.317254 0.185040 255 255 0 80 17
0.133290 -0.421166 0.170700 255 255 0 80 17
0.142343 -0.390950 0.084700 255 255 0 80 17
0.146904 -0.417897 0.046700 255 255 0 80 17
0.158215 -0.293885 0.096454 255 255 0 80 17
0.128946 -0.484252 -0.011300 255 255 0 80 17
0.158263 -0.320727 0.140700 255 255 0 80 17
0.118519 -0.483875 -0.004550 255 255 0 80 17
0.141298 -0.401550 0.104700 255 255 0 80 17
0.147396 -0.354525 0.030700 255 255 0 80 17
0.151516 -0.331886 -0.011300 255 255 0 80 17
0.132540 -0.480249 0.104700 255 255 0 80 17
0.134569 -0.533435 0.052700 255 255 0 80 17
0.142440 -0.399188 0.142700 255 255 0 80 17
0.143491 -0.452627 0.175464 255 255 0 80 17
0.129166 -0.509063 0.014700 255 255 0 80 17
0.152293 -0.322271 0.110700 255 255 0 80 17
0.150504 -0.386773 -0.019300 255 255 0 80 17
0.142463 -0.456641 0.004700 255 255 0 80 17
0.142230 -0.475677 0.144700 255 255 0 80 17
0.143773 -0.450488 -0.033300 255 255 0 80 17
0.148864 -0.401658 0.008700 255 255 0 80 17
0.158013 -0.337318 0.054700 255 255 0 80 17
0.130511 -0.501432 0.194700 255 255 0 80 17
0.143502 -0.465019 0.018700 255 255 0 80 17
0.135448 -0.453476 0.204700 255 255 0 80 17
0.152332 -0.309866 0.026700 255 255 0 80 17
0.146142 -0.429217 0.040700 255 255 0 80 17
0.162315 -0.307284 0.004700 255 255 0 80 17
0.139871 -0.418445 0.010700 255 255 0 80 17
0.134944 -0.448640 0.054700 255 255 0 80 17
0.151153 -0.407264 0.140700 255 255 0 80 17
0.147023 -0.352556 0.106700 255 255 0 80 17
0.135255 -0.450625 0.068700 255 255 0 80 17
0.155161 -0.375240 0.110700 255 255 0 80 17
0.156970 -0.349983 0.004700 255 255 0 80 17
0.150718 -0.324744 0.148700 255 255 0 80 17
0.139728 -0.412284 0.118700 255 255 0 80 17
0.134707 -0.463162 0.134700 255 255 0 80 17
0.133947 -0.461293 0.082700 255 255 0 80 17
0.142612 -0.397078 -0.001300 255 255 0 80 17
0.134577 -0.539630 -0.007300 255 255 0 80 17
0.149929 -0.428238 0.238700 255 255 0 80 17
0.152271 -0.398711 0.033935 255 255 0 80 17
0.136109 -0.535915 0.094700 255 255 0 80 17
0.133444 -0.465555 0.110700 255 255 0 80 17
0.149968 -0.413768 0.165686 255 255 0 80 17
0.143613 -0.317307 0.050700 255 255 0 80 17
0.142929 -0.487891 0.212700 255 255 0 80 17
0.151166 -0.318431 0.074700 255 255 0 80 17
0.162220 -0.309375 0.027958 255 255 0 80 17
0.144284 -0.378053 0.042700 255 255 0 80 17
0.132762 -0.546932 0.090700 255 255 0 80 17
0.154541 -0.319624 0.191714 255 255 0 80 17
0.129165 -0.509061 0.024700 255 255 0 80 17
0.141931 -0.326777 0.082700 255 255 0 80 17
0.152379 -0.319249 0.084700 255 255 0 80 17
0.133986 -0.537717 0.028700 255 255 0 80 17
0.137477 -0.505827 0.180700 255 255 0 80 17
0.140420 -0.344897 0.176700 255 255 0 80 17
0.116983 -0.501897 0.038700 255 255 0 80 17
0.154449 -0.354766 0.174700 255 255 0 80 17
0.139170 -0.427931 0.000700 255 255 0 80 17
0.140976 -0.410951 0.036700 255 255 0 80 17
0.161726 -0.311569 0.176700 255 255 0 80 17
0.129287 -0.533496 0.114700 255 255 0 80 17
0.130777 -0.495165 0.040700 255 255 0 80 17
0.129172 -0.369567 0.174700 255 255 0 80 17
0.157554 -0.291334 0.084700 255 255 0 80 17
0.136539 -0.513611 0.050700 255 255 0 80 17
0.127476 -0.522874 0.140700 255 255 0 80 17
0.116283 -0.507177 -0.016157 255 255 0 80 17
0.141193 -0.483681 0.078700 255 255 0 80 17
0.152600 -0.388298 0.076700 255 255 0 80 17
0.146629 -0.360920 0.136469 255 255 0 80 17
0.156812 -0.360353 0.189540 255 255 0 80 17
0.139343 -0.416515 -0.015300 255 255 0 80 17
0.149557 -0.341571 0.064700 255 255 0 80 17
0.138631 -0.429095 0.226700 255 255 0 80 17
0.142554 -0.456994 -0.013300 255 255 0 80 17
0.135590 -0.524907 0.008700 255 255 0 80 17
0.135479 -0.541462 0.039632 255 255 0 80 17
0.139939 -0.327065 0.150700 255 255 0 80 17
0.126665 -0.531347 0.017508 255 255 0 80 17
0.133520 -0.473798 0.186700 255 255 0 80 17
0.132365 -0.481497 0.202700 255 255 0 80 17
0.120939 -0.509206 -0.009300 255 255 0 80 17
0.131031 -0.500300 0.064700 255 255 0 80 17
0.153867 -0.385904 0.196700 255 255 0 80 17
0.122960 -0.493055 -0.014226 255 255 0 80 17
0.140103 -0.416318 0.078700 255 255 0 80 17
0.156554 -0.367345 0.096700 255 255 0 80 17
0.131791 -0.463301 0.180700 255 255 0 80 17
0.126958 -0.516503 0.150700 255 255 0 80 17
0.138590 -0.437368 -0.029300 255 255 0 80 17
0.154576 -0.383655 0.106161 255 255 0 80 17
0.144662 -0.385264 -0.005300 255 255 0 80 17
0.141850 -0.326461 0.014700 255 255 0 80 17
0.144363 -0.468928 0.192700 255 255 0 80 17
0.135312 -0.460939 -0.040269 255 255 0 80 17
0.162702 -0.300987 0.076700 255 255 0 80 17
0.161318 -0.309608 -0.009300 255 255 0 80 17
0.137151 -0.433608 0.074700 255 255 0 80 17
0.145973 -0.356959 0.188700 255 255 0 80 17
0.161895 -0.305327 0.046700 255 255 0 80 17
0.141207 -0.407770 -0.027300 255 255 0 80 17
0.143445 -0.481560 0.152700 255 255 0 80 17
0.142945 -0.479624 0.136700 255 255 0 80 17
0.115691 -0.494935 0.180700 255 255 0 80 17
0.157059 -0.349960 0.028700 255 255 0 80 17
0.148358 -0.428644 0.060700 255 255 0 80 17
0.153345 -0.392236 0.180700 255 255 0 80 17
0.159151 -0.334958 -0.005300 255 255 0 80 17
0.154709 -0.381555 0.184700 255 255 0 80 17
0.143437 -0.384470 -0.015300 255 255 0 80 17
0.144010 -0.386388 -0.031300 255 255 0 80 17
0.161973 -0.313570 0.112700 255 255 0 80 17
0.161940 -0.308288 0.094700 255 255 0 80 17
0.141457 -0.395310 0.168700 255 255 0 80 17
0.141857 -0.465445 -0.027300 255 255 0 80 17
0.158484 -0.339262 0.180700 255 255 0 80 17
0.150637 -0.416356 0.060700 255 255 0 80 17
0.137449 -0.435597 0.126700 255 255 0 80 17
0.144409 -0.460652 0.056700 255 255 0 80 17
0.137548 -0.437637 0.142774 255 255 0 80 17
0.147539 -0.352421 0.200700 255 255 0 80 17
0.139828 -0.326633 -0.003300 255 255 0 80 17
0.147931 -0.341991 -0.008112 255 255 0 80 17
0.153676 -0.300301 0.090700 255 255 0 80 17
0.144266 -0.477216 0.062700 255 255 0 80 17
0.139535 -0.327637 0.092700 255 255 0 80 17
0.139819 -0.358550 0.173709 255 255 0 80 17
0.143848 -0.477968 0.104700 255 255 0 80 17
0.139950 -0.327104 0.134700 255 255 0 80 17
0.149388 -0.339549 0.132700 255 255 0 80 17
0.145900 -0.361109 0.222700 255 255 0 80 17
0.135028 -0.458947 0.042700 255 255 0 80 17
0.159349 -0.314249 0.126265 255 255 0 80 17
0.154755 -0.356753 -0.013300 255 255 0 80 17
0.148319 -0.436918 0.230700 255 255 0 80 17
0.140689 -0.405838 0.026700 255 255 0 80 17
0.135312 -0.460939 -0.024307 255 255 0 80 17
0.146364 -0.462213 0.038700 255 255 0 80 17
0.148755 -0.325252 0.124700 255 255 0 80 17
0.141709 -0.405574 0.070700 255 255 0 80 17
0.128855 -0.539814 -0.017300 255 255 0 80 17
0.150035 -0.422013 0.089407 255 255 0 80 17
0.136113 -0.320258 0.104920 255 255 0 80 17
0.129937 -0.456133 0.175834 255 255 0 80 17
0.148845 -0.433387 0.102700 255 255 0 80 17
0.149885 -0.333569 0.138700 255 255 0 80 17
0.144105 -0.319210 0.032700 255 255 0 80 17
0.153051 -0.303483 0.008700 255 255 0 80 17
0.150436 -0.316555 0.154700 255 255 0 80 17
0.161862 -0.313599 0.070700 255 255 0 80 17
0.137987 -0.501564 0.078700 255 255 0 80 17
0.157479 -0.322995 0.046675 255 255 0 80 17
0.148666 -0.432697 0.147549 255 255 0 80 17
0.145160 -0.464590 0.148700 255 255 0 80 17
0.121616 -0.507864 0.052700 255 255 0 80 17
0.112975 -0.510098 0.118700 255 255 0 80 17
0.156065 -0.370875 0.202700 255 255 0 80 17
0.146736 -0.361331 0.082700 255 255 0 80 17
0.141076 -0.401607 0.056700 255 255 0 80 17
0.148465 -0.344053 0.148700 255 255 0 80 17
0.146195 -0.367230 0.150976 255 255 0 80 17
0.138845 -0.490576 0.044700 255 255 0 80 17
0.120522 -0.515579 0.004700 255 255 0 80 17
0.136784 -0.450655 0.028700 255 255 0 80 17
0.144001 -0.382709 0.082700 255 255 0 80 17
0.119321 -0.463009 0.174259 255 255 0 80 17
0.125642 -0.546073 0.006700 255 255 0 80 17
0.148316 -0.412129 0.022700 255 255 0 80 17
0.136046 -0.319997 0.136700 255 255 0 80 17
0.147506 -0.418536 0.014700 255 255 0 80 17
0.146552 -0.453901 0.086700 255 255 0 80 17
0.146777 -0.420791 -0.021300 255 255 0 80 17
0.152739 -0.336616 0.215450 255 255 0 80 17
0.147113 -0.418638 0.172700 255 255 0 80 17
0.149601 -0.428323 0.075297 255 255 0 80 17
0.134411 -0.531410 0.084700 255 255 0 80 17
0.126400 -0.533482 0.002700 255 255 0 80 17
0.140621 -0.337685 0.181708 255 255 0 80 17
0.137610 -0.505793 0.062700 255 255 0 80 17
0.160030 -0.305809 0.128700 255 255 0 80 17
0.145071 -0.367521 0.096700 255 255 0 80 17
0.140439 -0.407968 0.156700 255 255 0 80 17
0.147578 -0.346215 0.184700 255 255 0 80 17
0.150435 -0.351672 0.225192 255 255 0 80 17
0.154616 -0.296881 0.038700 255 255 0 80 17
0.149242 -0.337521 0.116700 255 255 0 80 17
0.151143 -0.407266 0.110700 255 255 0 80 17
0.145652 -0.466529 0.226700 255 255 0 80 17
0.140003 -0.426674 0.024700 255 255 0 80 17
0.146817 -0.447635 0.018700 255 255 0 80 17
0.143832 -0.475263 0.120700 255 255 0 80 17
0.136223 -0.452441 -0.005300 255 255 0 80 17
0.136254 -0.452433 0.012700 255 255 0 80 17
0.144794 -0.470882 0.210700 255 255 0 80 17
0.141663 -0.401455 -0.011300 255 255 0 80 17
0.152662 -0.315979 -0.017300 255 255 0 80 17
0.156496 -0.364566 0.010700 255 255 0 80 17
0.137616 -0.441751 -0.001300 255 255 0 80 17
0.123895 -0.488682 0.171814 255 255 0 80 17
0.146429 -0.455999 0.165324 255 255 0 80 17
0.114185 -0.515040 0.044700 255 255 0 80 17
0.133843 -0.399345 0.181947 255 255 0 80 17
0.139916 -0.412236 0.208700 255 255 0 80 17
0.136693 -0.448187 0.134700 255 255 0 80 17
0.154508 -0.375409 0.145783 255 255 0 80 17
0.133723 -0.325008 0.066700 255 255 0 80 17
0.121620 -0.507863 0.096700 255 255 0 80 17
0.148904 -0.341740 -0.017300 255 255 0 80 17
0.153371 -0.394978 0.148700 255 255 0 80 17
0.137154 -0.520372 0.178700 255 255 0 80 17
0.152939 -0.390275 0.134700 255 255 0 80 17
0.141826 -0.469584 0.174700 255 255 0 80 17
0.124829 -0.484309 0.181503 255 255 0 80 17
0.137907 -0.319206 0.008700 255 255 0 80 17
0.137316 -0.348869 -0.014071 255 255 0 80 17
0.150535 -0.423949 0.114237 255 255 0 80 17
0.156916 -0.358260 0.040700 255 255 0 80 17
0.130319 -0.501481 0.010700 255 255 0 80 17
0.140423 -0.480706 -0.019300 255 255 0 80 17
0.135330 -0.527040 0.166700 255 255 0 80 17
0.145741 -0.433453 0.000700 255 255 0 80 17
0.161285 -0.313748 0.143972 255 255 0 80 17
0.164042 -0.296508 0.068700 255 255 0 80 17
0.131700 -0.490795 -0.021300 255 255 0 80 17
0.126742 -0.527196 0.074700 255 255 0 80 17
0.134304 -0.531437 0.130700 255 255 0 80 17
0.134084 -0.320783 0.120700 255 255 0 80 17
0.149837 -0.417933 0.204700 255 255 0 80 17
0.137812 -0.501609 0.052700 255 255 0 80 17
0.156325 -0.354281 0.204700 255 255 0 80 17
0.130701 -0.546953 0.064700 255 255 0 80 17
0.127413 -0.526251 0.030700 255 255 0 80 17
0.127772 -0.527637 0.058700 255 255 0 80 17
0.138951 -0.490986 0.015680 255 255 0 80 17
0.128034 -0.520664 0.125722 255 255 0 80 17
0.116964 -0.478079 0.176700 255 255 0 80 17
0.152433 -0.371814 -0.009300 255 255 0 80 17
0.122862 -0.508652 0.030700 255 255 0 80 17
0.151271 -0.378312 0.006700 255 255 0 80 17
0.152981 -0.393467 0.216700 255 255 0 80 17
0.119630 -0.508377 0.074700 255 255 0 80 17
0.144800 -0.462617 0.112700 255 255 0 80 17
0.149544 -0.331245 0.066700 255 255 0 80 17
0.112911 -0.510114 0.019852 255 255 0 80 17
0.116983 -0.501899 0.004700 255 255 0 80 17
0.139808 -0.318565 0.112700 255 255 0 80 17
0.158122 -0.322829 0.018700 255 255 0 80 17
0.134592 -0.477653 -0.013300 255 255 0 80 17
0.162845 -0.309213 0.060700 255 255 0 80 17
0.164021 -0.296514 0.016700 255 255 0 80 17
0.145212 -0.437722 0.028700 255 255 0 80 17
0.135877 -0.516570 0.078700 255 255 0 80 17
0.155008 -0.377345 0.119809 255 255 0 80 17
0.135556 -0.453897 0.190700 255 255 0 80 17
0.162390 -0.302045 0.032700 255 255 0 80 17
0.150977 -0.415572 0.074700 255 255 0 80 17
0.142292 -0.388897 0.050700 255 255 0 80 17
0.137730 -0.501631 0.118700 255 255 0 80 17
0.151914 -0.402935 0.064700 255 255 0 80 17
0.127724 -0.522811 0.110700 255 255 0 80 17
0.141365 -0.399466 0.216700 255 255 0 80 17
0.143038 -0.450875 -0.021300 255 255 0 80 17
0.132351 -0.492693 0.128700 255 255 0 80 17
0.133509 -0.477932 0.061340 255 255 0 80 17
0.145696 -0.461153 0.200700 255 255 0 80 17
0.159623 -0.336902 0.142700 255 255 0 80 17
0.129837 -0.383856 0.181703 255 255 0 80 17
0.141522 -0.389096 0.180545 255 255 0 80 17
0.147847 -0.443237 0.162700 255 255 0 80 17
0.120568 -0.515759 0.056700 255 255 0 80 17
0.141580 -0.401476 0.232700 255 255 0 80 17
0.153252 -0.392260 0.118700 255 255 0 80 17
0.149036 -0.422272 0.132700 255 255 0 80 17
0.146115 -0.454786 0.050700 255 255 0 80 17
0.129604 -0.414903 0.181724 255 255 0 80 17
0.122859 -0.508642 -0.001300 255 255 0 80 17
0.151326 -0.398955 0.192700 255 255 0 80 17
0.132232 -0.480982 0.026700 255 255 0 80 17
0.145260 -0.371603 0.057981 255 255 0 80 17
0.137642 -0.505784 0.036700 255 255 0 80 17
0.136298 -0.512680 0.174700 255 255 0 80 17
0.123957 -0.544837 0.076700 255 255 0 80 17
0.149693 -0.329141 0.204700 255 255 0 80 17
0.150711 -0.405312 0.048700 255 255 0 80 17
0.130741 -0.495175 0.208700 255 255 0 80 17
0.145309 -0.369524 0.124700 255 255 0 80 17
0.143570 -0.378238 0.134700 255 255 0 80 17
0.133512 -0.467603 0.096700 255 255 0 80 17
0.156865 -0.358273 0.142700 255 255 0 80 17
0.149340 -0.424259 0.190700 255 255 0 80 17
0.142824 -0.489984 0.199912 255 255 0 80 17
0.143397 -0.481573 0.190700 255 255 0 80 17
0.142026 -0.486903 0.036700 255 255 0 80 17
0.159666 -0.315474 0.098700 255 255 0 80 17
0.129435 -0.505842 0.084700 255 255 0 80 17
0.137942 -0.429273 0.196700 255 255 0 80 17
0.154235 -0.387874 0.230700 255 255 0 80 17
0.148479 -0.343915 0.054700 255 255 0 80 17
0.147015 -0.442287 0.052700 255 255 0 80 17
0.138626 -0.495202 0.004700 255 255 0 80 17
0.141788 -0.465462 -0.017300 255 255 0 80 17
0.152005 -0.397679 0.104700 255 255 0 80 17
0.139178 -0.427964 0.008700 255 255 0 80 17
0.145241 -0.367476 0.176700 255 255 0 80 17
0.138764 -0.434349 0.172700 255 255 0 80 17
0.137816 -0.350805 -0.002928 255 255 0 80 17
0.152531 -0.311846 0.060700 255 255 0 80 17
0.126212 -0.541794 0.050700 255 255 0 80 17
0.130406 -0.501459 0.124700 255 255 0 80 17
0.145132 -0.433611 0.010700 255 255 0 80 17
0.145664 -0.469017 0.090700 255 255 0 80 17
0.121837 -0.516069 0.024700 255 255 0 80 17
0.158415 -0.318622 0.007264 255 255 0 80 17
0.151434 -0.323584 0.160700 255 255 0 80 17
0.129929 -0.507780 0.068700 255 255 0 80 17
0.126532 -0.395039 0.174527 255 255 0 80 17
0.144824 -0.373782 -0.029300 255 255 0 80 17
0.118464 -0.515608 0.130700 255 255 0 80 17
0.142946 -0.382531 0.172700 255 255 0 80 17
0.136062 -0.320056 0.036700 255 255 0 80 17
0.129590 -0.502717 0.154700 255 255 0 80 17
0.139744 -0.502040 0.208700 255 255 0 80 17
0.146622 -0.356791 -0.009300 255 255 0 80 17
0.138951 -0.490986 0.068871 255 255 0 80 17
0.132189 -0.512769 0.200700 255 255 0 80 17
0.138824 -0.497216 0.188700 255 255 0 80 17
0.132718 -0.480203 0.046700 255 255 0 80 17
0.131907 -0.499005 -0.005300 255 255 0 80 17
0.143620 -0.317334 0.150700 255 255 0 80 17
0.116973 -0.501858 0.132700 255 255 0 80 17
0.158656 -0.320625 0.148700 255 255 0 80 17
0.143715 -0.389592 0.004700 255 255 0 80 17
0.133828 -0.467521 0.196700 255 255 0 80 17
0.134316 -0.531434 0.062700 255 255 0 80 17
0.159714 -0.339625 0.156700 255 255 0 80 17
0.154115 -0.377576 0.176700 255 255 0 80 17
0.159330 -0.326648 0.080700 255 255 0 80 17
0.163089 -0.296756 0.083733 255 255 0 80 17
0.151090 -0.402133 0.084700 255 255 0 80 17
0.130704 -0.546965 -0.005300 255 255 0 80 17
0.133204 -0.476753 0.124700 255 255 0 80 17
0.126845 -0.527169 -0.005300 255 255 0 80 17
0.154295 -0.390562 0.110700 255 255 0 80 17
0.140991 -0.411011 0.174700 255 255 0 80 17
0.136685 -0.526690 0.120700 255 255 0 80 17
0.147135 -0.354886 0.120700 255 255 0 80 17
0.143838 -0.477933 -0.007300 255 255 0 80 17
0.148165 -0.430760 0.177595 255 255 0 80 17
0.156398 -0.290223 0.026700 255 255 0 80 17
0.132579 -0.480239 0.148700 255 255 0 80 17
0.153162 -0.365428 0.176700 255 255 0 80 17
0.116861 -0.477461 -0.009300 255 255 0 80 17
0.148952 -0.337950 0.156700 255 255 0 80 17
0.117022 -0.506985 0.168700 255 255 0 80 17
0.148733 -0.321125 0.177951 255 255 0 80 17
0.146759 -0.365018 -0.001300 255 255 0 80 17
0.149101 -0.341689 0.020700 255 255 0 80 17
0.156519 -0.367209 0.068700 255 255 0 80 17
0.139997 -0.426675 0.174700 255 255 0 80 17
0.136984 -0.507346 0.152700 255 255 0 80 17
0.148011 -0.438152 0.088700 255 255 0 80 17
0.158393 -0.339286 0.206700 255 255 0 80 17
0.137062 -0.510066 -0.003300 255 255 0 80 17
0.155052 -0.348413 -0.011300 255 255 0 80 17
0.157313 -0.362289 0.157235 255 255 0 80 17
0.141734 -0.409699 -0.001300 255 255 0 80 17
0.158764 -0.343937 -0.005300 255 255 0 80 17
0.156255 -0.310273 0.164700 255 255 0 80 17
0.137688 -0.502079 -0.001300 255 255 0 80 17
0.116782 -0.515311 0.088700 255 255 0 80 17
0.151425 -0.323548 0.138700 255 255 0 80 17
0.112874 -0.509972 -0.003300 255 255 0 80 17
0.131700 -0.490795 0.050700 255 255 0 80 17
0.129168 -0.509071 0.134700 255 255 0 80 17
0.149717 -0.396821 -0.007300 255 255 0 80 17
0.124229 -0.544373 0.014700 255 255 0 80 17
0.157033 -0.353220 0.074700 255 255 0 80 17
0.141732 -0.397305 0.124700 255 255 0 80 17
0.157881 -0.348509 0.192700 255 255 0 80 17
0.146605 -0.356794 0.176700 255 255 0 80 17
0.143452 -0.384466 0.010700 255 255 0 80 17
0.129036 -0.404720 0.174133 255 255 0 80 17
0.113676 -0.509917 0.058700 255 255 0 80 17
0.155718 -0.368899 0.218700 255 255 0 80 17
0.130755 -0.547162 0.024700 255 255 0 80 17
0.137164 -0.507974 0.092700 255 255 0 80 17
0.122287 -0.515953 0.072700 255 255 0 80 17
0.142004 -0.417893 -0.007300 255 255 0 80 17
0.136845 -0.446083 0.230700 255 255 0 80 17
0.121609 -0.507865 0.142700 255 255 0 80 17
0.147537 -0.441251 0.114700 255 255 0 80 17
0.123360 -0.422714 0.181437 255 255 0 80 17
0.151262 -0.312209 0.122700 255 255 0 80 17
0.152884 -0.351039 -0.025300 255 255 0 80 17
0.148830 -0.433331 0.138700 255 255 0 80 17
0.149395 -0.335416 0.174700 255 255 0 80 17
0.151424 -0.323545 0.052700 255 255 0 80 17
0.137147 -0.439807 0.182700 255 255 0 80 17
0.137365 -0.444916 0.040700 255 255 0 80 17
0.144655 -0.479181 0.160700 255 255 0 80 17
0.157936 -0.337338 0.070700 255 255 0 80 17
0.131902 -0.487693 0.102700 255 255 0 80 17
0.142283 -0.388900 0.108700 255 255 0 80 17
0.148073 -0.412192 0.040700 255 255 0 80 17
0.140946 -0.422299 -0.031300 255 255 0 80 17
0.137982 -0.429262 0.116700 255 255 0 80 17
0.146599 -0.356796 -0.019300 255 255 0 80 17
0.140292 -0.320439 0.020700 255 255 0 80 17
0.122255 -0.522279 0.174700 255 255 0 80 17
0.133922 -0.469562 0.038700 255 255 0 80 17
0.144878 -0.367570 0.164700 255 255 0 80 17
0.136827 -0.512193 0.166700 255 255 0 80 17
0.136367 -0.446206 0.062700 255 255 0 80 17
0.148932 -0.401641 -0.037300 255 255 0 80 17
0.132444 -0.476142 0.168700 255 255 0 80 17
0.140349 -0.414189 0.148700 255 255 0 80 17
0.157429 -0.354751 0.018700 255 255 0 80 17
0.114232 -0.515225 0.102700 255 255 0 80 17
0.156154 -0.354325 0.108700 255 255 0 80 17
0.152912 -0.390283 0.058700 255 255 0 80 17
0.150741 -0.413568 0.102700 255 255 0 80 17
0.131033 -0.500306 -0.013300 255 255 0 80 17
0.150991 -0.385772 -0.001300 255 255 0 80 17
0.129161 -0.509047 0.112700 255 255 0 80 17
0.130389 -0.501463 0.098700 255 255 0 80 17
0.161613 -0.315012 0.152700 255 255 0 80 17
0.135257 -0.520862 0.016700 255 255 0 80 17
0.152903 -0.390285 0.088700 255 255 0 80 17
0.157443 -0.351926 0.146700 255 255 0 80 17
0.127839 -0.500057 0.180700 255 255 0 80 17
0.152249 -0.322282 -0.007300 255 255 0 80 17
0.146496 -0.358889 0.020700 255 255 0 80 17
0.122862 -0.508654 0.044700 255 255 0 80 17
0.146612 -0.456708 0.184700 255 255 0 80 17
0.145601 -0.458279 0.152700 255 255 0 80 17
0.137100 -0.439820 0.018700 255 255 0 80 17
0.145231 -0.456309 0.116700 255 255 0 80 17
0.147843 -0.412252 0.032700 255 255 0 80 17
0.137781 -0.499552 0.028700 255 255 0 80 17
0.148709 -0.343856 0.076700 255 255 0 80 17
0.139019 -0.431060 -0.013300 255 255 0 80 17
0.158807 -0.332981 0.084700 255 255 0 80 17
0.143851 -0.475258 0.076700 255 255 0 80 17
0.154340 -0.294884 -0.007300 255 255 0 80 17
0.153728 -0.385939 0.042700 255 255 0 80 17
0.162728 -0.300980 0.000700 255 255 0 80 17
0.145758 -0.369409 -0.021300 255 255 0 80 17
0.153662 -0.394220 0.226700 255 255 0 80 17
0.144889 -0.375831 0.108700 255 255 0 80 17
0.135180 -0.456842 0.138700 255 255 0 80 17
0.140342 -0.405929 0.184700 255 255 0 80 17
0.148746 -0.430610 0.158700 255 255 0 80 17
0.134377 -0.465313 0.152172 255 255 0 80 17
0.155124 -0.375249 0.158700 255 255 0 80 17
0.155169 -0.375238 0.208700 255 255 0 80 17
0.142612 -0.397078 -0.025300 255 255 0 80 17
0.134511 -0.361989 0.181295 255 255 0 80 17
0.151161 -0.407262 0.188700 255 255 0 80 17
0.139062 -0.431049 -0.025300 255 255 0 80 17
0.140296 -0.405940 0.136700 255 255 0 80 17
0.147435 -0.441278 0.182700 255 255 0 80 17
0.150992 -0.415568 0.118700 255 255 0 80 17
0.158297 -0.318652 0.052700 255 255 0 80 17
0.148030 -0.408071 0.002700 255 255 0 80 17
0.129482 -0.430410 0.180700 255 255 0 80 17
0.132662 -0.471954 0.082700 255 255 0 80 17
0.145616 -0.371511 0.070700 255 255 0 80 17
0.145750 -0.363213 0.118700 255 255 0 80 17
0.145106 -0.472868 0.068700 255 255 0 80 17
0.138483 -0.433264 0.090456 255 255 0 80 17
0.139082 -0.426912 0.154700 255 255 0 80 17
0.148645 -0.328774 0.010700 255 255 0 80 17
0.140276 -0.414209 0.094700 255 255 0 80 17
0.131535 -0.490838 0.182700 255 255 0 80 17
0.155323 -0.302895 0.120700 255 255 0 80 17
0.150680 -0.413584 0.082700 255 255 0 80 17
0.158015 -0.345581 0.056700 255 255 0 80 17
0.144013 -0.378123 0.202700 255 255 0 80 17
0.153378 -0.395002 0.064700 255 255 0 80 17
0.139050 -0.490960 0.184700 255 255 0 80 17
0.142945 -0.392860 0.194700 255 255 0 80 17
0.141555 -0.453128 0.237249 255 255 0 80 17
0.136904 -0.326251 0.032700 255 255 0 80 17
0.145847 -0.365881 0.036700 255 255 0 80 17
0.140286 -0.405943 0.194700 255 255 0 80 17
0.125852 -0.539821 0.062700 255 255 0 80 17
0.129634 -0.530580 0.146700 255 255 0 80 17
0.148970 -0.343789 0.198700 255 255 0 80 17
0.131473 -0.525972 -0.020214 255 255 0 80 17
0.131564 -0.488764 0.204700 255 255 0 80 17
0.146971 -0.352568 0.042700 255 255 0 80 17
0.155714 -0.360637 0.132700 255 255 0 80 17
0.144609 -0.321158 0.136700 255 255 0 80 17
0.148375 -0.339810 0.190700 255 255 0 80 17
0.128839 -0.524588 0.180700 255 255 0 80 17
0.126202 -0.533533 -0.013300 255 255 0 80 17
0.151915 -0.307908 0.074700 255 255 0 80 17
0.144111 -0.319231 0.058700 255 255 0 80 17
0.155409 -0.346255 0.172700 255 255 0 80 17
0.151721 -0.314156 0.090700 255 255 0 80 17
0.146268 -0.427119 0.014700 255 255 0 80 17
0.126838 -0.532011 0.036700 255 255 0 80 17
0.133550 -0.475856 0.052700 255 255 0 80 17
0.152426 -0.399309 0.120700 255 255 0 80 17
0.142472 -0.485944 -0.003300 255 255 0 80 17
0.133645 -0.537805 0.014700 255 255 0 80 17
0.140972 -0.410936 0.010700 255 255 0 80 17
0.140887 -0.401655 0.082700 255 255 0 80 17
0.143343 -0.386559 0.230700 255 255 0 80 17
0.143306 -0.392767 0.206700 255 255 0 80 17
0.136247 -0.456566 -0.018293 255 255 0 80 17
0.128217 -0.518551 0.042700 255 255 0 80 17
0.130765 -0.547196 0.048700 255 255 0 80 17
0.145041 -0.375791 0.228700 255 255 0 80 17
0.138483 -0.433264 0.031702 255 255 0 80 17
0.141477 -0.412887 -0.033300 255 255 0 80 17
0.138425 -0.493188 -0.015300 255 255 0 80 17
0.138483 -0.433264 -0.004286 255 255 0 80 17
0.155851 -0.344075 -0.017300 255 255 0 80 17
0.138018 -0.435450 -0.037300 255 255 0 80 17
0.142837 -0.392888 0.138700 255 255 0 80 17
0.131201 -0.488858 0.158700 255 255 0 80 17
0.131206 -0.492989 0.167712 255 255 0 80 17
0.162378 -0.299005 0.090700 255 255 0 80 17
0.113495 -0.505832 -0.009300 255 255 0 80 17
0.160196 -0.330557 0.134700 255 255 0 80 17
0.139115 -0.488878 0.150700 255 255 0 80 17
0.132519 -0.484386 0.142700 255 255 0 80 17
0.152214 -0.322292 0.118700 255 255 0 80 17
0.144234 -0.382197 0.036700 255 255 0 80 17
0.149568 -0.364292 -0.032000 255 255 0 80 17
0.133903 -0.531541 -0.011300 255 255 0 80 17
0.132674 -0.438898 0.172700 255 255 0 80 17
0.114251 -0.507306 0.138700 255 255 0 80 17
0.128814 -0.379901 0.174700 255 255 0 80 17
0.122025 -0.497429 -0.002917 255 255 0 80 17
0.151337 -0.403085 0.177604 255 255 0 80 17
0.162588 -0.294818 -0.014234 255 255 0 80 17
0.149768 -0.389030 -0.035338 255 255 0 80 17
0.145906 -0.377634 -0.015300 255 255 0 80 17
0.145928 -0.454063 0.137717 255 255 0 80 17
0.155443 -0.371035 0.019995 255 255 0 80 17
0.118495 -0.507745 0.158700 255 255 0 80 17
0.138370 -0.495267 0.084700 255 255 0 80 17
0.140921 -0.434700 0.239850 255 255 0 80 17
0.142071 -0.395152 0.018700 255 255 0 80 17
0.150492 -0.390908 -0.013300 255 255 0 80 17
0.136714 -0.514288 0.130511 255 255 0 80 17
0.153712 -0.385944 0.028700 255 255 0 80 17
0.125591 -0.537823 0.020700 255 255 0 80 17
0.136104 -0.518577 0.154700 255 255 0 80 17
0.145651 -0.452989 0.192700 255 255 0 80 17
0.143226 -0.471288 0.014700 255 255 0 80 17
0.149891 -0.333590 0.078700 255 255 0 80 17
0.157770 -0.322921 0.094700 255 255 0 80 17
0.149868 -0.341490 0.032684 255 255 0 80 17
0.151112 -0.418193 0.178700 255 255 0 80 17
0.144736 -0.457441 0.030700 255 255 0 80 17
0.151424 -0.323547 0.090700 255 255 0 80 17
0.130632 -0.493137 0.192700 255 255 0 80 17
0.151644 -0.400939 0.200700 255 255 0 80 17
0.142794 -0.392899 0.130700 255 255 0 80 17
0.129837 -0.503672 -0.020280 255 255 0 80 17
0.162851 -0.300948 0.062700 255 255 0 80 17
0.142227 -0.327921 0.042700 255 255 0 80 17
0.147331 -0.387594 0.236886 255 255 0 80 17
0.127133 -0.469252 0.181691 255 255 0 80 17
0.127074 -0.520912 -0.017300 255 255 0 80 17
0.155115 -0.375252 0.082700 255 255 0 80 17
0.146965 -0.447597 0.124700 255 255 0 80 17
0.157131 -0.349941 0.218700 255 255 0 80 17
0.149976 -0.409634 0.096700 255 255 0 80 17
0.142914 -0.479631 0.024700 255 255 0 80 17
0.149763 -0.426215 0.212700 255 255 0 80 17
0.143398 -0.473309 0.004700 255 255 0 80 17
0.159369 -0.326639 0.072700 255 255 0 80 17
0.146331 -0.414708 -0.039300 255 255 0 80 17
0.156532 -0.348030 0.046700 255 255 0 80 17
0.120942 -0.509219 0.012700 255 255 0 80 17
0.151554 -0.400963 0.158700 255 255 0 80 17
0.134513 -0.461147 0.228700 255 255 0 80 17
0.144296 -0.371853 0.170700 255 255 0 80 17
0.154304 -0.371331 0.046700 255 255 0 80 17
0.161285 -0.313748 0.083897 255 255 0 80 17
0.162750 -0.315435 0.182700 255 255 0 80 17
0.137862 -0.327017 0.106700 255 255 0 80 17
0.136162 -0.446259 0.206700 255 255 0 80 17
0.150483 -0.391798 0.016700 255 255 0 80 17
0.158193 -0.318679 0.108700 255 255 0 80 17
0.136347 -0.452408 0.174700 255 255 0 80 17
0.145153 -0.435091 0.036700 255 255 0 80 17
0.127822 -0.524850 0.014700 255 255 0 80 17
0.134197 -0.469492 0.138700 255 255 0 80 17
0.151375 -0.380351 0.170700 255 255 0 80 17
0.148660 -0.328828 0.156700 255 255 0 80 17
0.134488 -0.463219 0.102700 255 255 0 80 17
0.157854 -0.348408 0.012700 255 255 0 80 17
0.143958 -0.380203 0.022700 255 255 0 80 17
0.146160 -0.451937 0.230700 255 255 0 80 17
0.130905 -0.503396 0.040700 255 255 0 80 17
0.153459 -0.375681 0.130700 255 255 0 80 17
0.158425 -0.316553 0.036700 255 255 0 80 17
0.157317 -0.360222 0.052700 255 255 0 80 17
0.137559 -0.435569 0.154700 255 255 0 80 17
0.145011 -0.373734 0.218700 255 255 0 80 17
0.156378 -0.366663 0.123971 255 255 0 80 17
0.160784 -0.311811 0.019828 255 255 0 80 17
0.151046 -0.407291 0.230700 255 255 0 80 17
0.149496 -0.324077 0.100700 255 255 0 80 17
0.153862 -0.309470 0.000700 255 255 0 80 17
0.150674 -0.374335 -0.033300 255 255 0 80 17
0.147477 -0.433004 0.052700 255 255 0 80 17
0.134041 -0.464017 0.168700 255 255 0 80 17
0.122660 -0.515857 0.017478 255 255 0 80 17
0.145472 -0.436324 -0.017300 255 255 0 80 17
0.137458 -0.443858 0.160700 255 255 0 80 17
0.135021 -0.523718 -0.011300 255 255 0 80 17
0.146546 -0.328649 0.026700 255 255 0 80 17
0.156378 -0.326723 0.202700 255 255 0 80 17
0.153474 -0.383940 0.216700 255 255 0 80 17
0.137910 -0.319215 0.084700 255 255 0 80 17
0.155506 -0.377216 0.092700 255 255 0 80 17
0.144048 -0.448351 0.032700 255 255 0 80 17
0.145495 -0.340556 0.216188 255 255 0 80 17
0.144766 -0.465544 0.098700 255 255 0 80 17
0.145762 -0.373539 -0.000310 255 255 0 80 17
0.145354 -0.456277 0.216700 255 255 0 80 17
0.143959 -0.382269 0.160700 255 255 0 80 17
0.125393 -0.537873 0.084700 255 255 0 80 17
0.144008 -0.382734 0.148700 255 255 0 80 17
0.134210 -0.544545 0.054700 255 255 0 80 17
0.129904 -0.511918 -0.020247 255 255 0 80 17
0.143759 -0.485611 0.206087 255 255 0 80 17
0.120469 -0.543278 -0.007300 255 255 0 80 17
0.117203 -0.490412 -0.017300 255 255 0 80 17
0.139054 -0.424853 0.218700 255 255 0 80 17
0.135479 -0.541462 0.007646 255 255 0 80 17
0.138770 -0.490286 0.126700 255 255 0 80 17
0.151150 -0.318435 0.058700 255 255 0 80 17
0.144688 -0.470909 0.104700 255 255 0 80 17
0.148762 -0.438869 0.192700 255 255 0 80 17
0.143560 -0.454675 -0.027300 255 255 0 80 17
0.139285 -0.484701 0.086700 255 255 0 80 17
0.150180 -0.419911 0.226700 255 255 0 80 17
0.146558 -0.422913 0.030700 255 255 0 80 17
0.157638 -0.343613 0.122700 255 255 0 80 17
0.149694 -0.331207 0.032700 255 255 0 80 17
0.152572 -0.375909 -0.023879 255 255 0 80 17
0.143065 -0.392829 0.092700 255 255 0 80 17
0.157791 -0.327047 -0.011300 255 255 0 80 17
0.144364 -0.444138 0.176700 255 255 0 80 17
0.138951 -0.490986 0.059553 255 255 0 80 17
0.147615 -0.356534 0.074700 255 255 0 80 17
0.139285 -0.412399 0.181727 255 255 0 80 17
0.146429 -0.455999 0.043361 255 255 0 80 17
0.139860 -0.486517 0.050700 255 255 0 80 17
0.143168 -0.386605 0.098700 255 255 0 80 17
0.131879 -0.342011 -0.009300 255 255 0 80 17
0.127193 -0.516750 0.096700 255 255 0 80 17
0.156812 -0.360353 0.215420 255 255 0 80 17
0.117084 -0.486312 0.173727 255 255 0 80 17
0.113868 -0.507801 0.094700 255 255 0 80 17
0.126863 -0.390822 0.180700 255 255 0 80 17
0.139239 -0.486779 0.110700 255 255 0 80 17
0.153584 -0.363850 -0.015300 255 255 0 80 17
0.159460 -0.290715 0.004700 255 255 0 80 17
0.152328 -0.311933 0.130700 255 255 0 80 17
0.134978 -0.539526 0.078031 255 255 0 80 17
0.145303 -0.319947 0.170700 255 255 0 80 17
0.158602 -0.303370 0.106700 255 255 0 80 17
0.122660 -0.515857 0.163417 255 255 0 80 17
0.142423 -0.440508 -0.039815 255 255 0 80 17
0.153381 -0.365371 0.168700 255 255 0 80 17
0.125982 -0.545985 0.030700 255 255 0 80 17
0.133736 -0.535716 -0.001300 255 255 0 80 17
0.140053 -0.327503 0.075349 255 255 0 80 17
0.126502 -0.531389 0.120700 255 255 0 80 17
0.153805 -0.385920 0.156700 255 255 0 80 17
0.142991 -0.466669 0.164700 255 255 0 80 17
0.143930 -0.330631 0.174700 255 255 0 80 17
0.158139 -0.320759 0.030700 255 255 0 80 17
0.148555 -0.328423 0.056700 255 255 0 80 17
0.153463 -0.299475 0.014700 255 255 0 80 17
0.126895 -0.524250 0.066700 255 255 0 80 17
0.149275 -0.337512 0.204700 255 255 0 80 17
0.148866 -0.337618 0.101204 255 255 0 80 17
0.138893 -0.497198 0.046700 255 255 0 80 17
0.143767 -0.450490 -0.011300 255 255 0 80 17
0.154414 -0.295165 0.070700 255 255 0 80 17
0.136180 -0.448320 0.167161 255 255 0 80 17
0.153802 -0.380664 0.048700 255 255 0 80 17
0.143633 -0.388551 0.076700 255 255 0 80 17
0.146629 -0.360920 0.147657 255 255 0 80 17
0.155030 -0.289559 0.052700 255 255 0 80 17
0.137042 -0.510071 0.076700 255 255 0 80 17
0.124095 -0.513420 0.184848 255 255 0 80 17
0.138629 -0.433227 0.102700 255 255 0 80 17
0.134711 -0.506543 0.210181 255 255 0 80 17
0.144860 -0.441944 -0.008052 255 255 0 80 17
0.151982 -0.397592 0.164700 255 255 0 80 17
0.144176 -0.382213 0.182700 255 255 0 80 17
0.137081 -0.483756 -0.027300 255 255 0 80 17
0.128401 -0.506109 0.200178 255 255 0 80 17
0.150623 -0.400324 0.024700 255 255 0 80 17
0.143574 -0.392697 0.174700 255 255 0 80 17
0.122025 -0.497429 0.175847 255 255 0 80 17
0.150749 -0.324736 0.070700 255 255 0 80 17
0.150549 -0.421881 0.146700 255 255 0 80 17
0.157381 -0.330601 0.170700 255 255 0 80 17
0.142297 -0.463265 0.002700 255 255 0 80 17
0.158714 -0.316479 0.162700 255 255 0 80 17
0.152706 -0.392401 0.205699 255 255 0 80 17
0.143402 -0.420327 -0.043300 255 255 0 80 17
0.137616 -0.326067 0.047921 255 255 0 80 17
0.157562 -0.325040 0.004700 255 255 0 80 17
0.141701 -0.405577 0.128700 255 255 0 80 17
0.136180 -0.448320 0.181268 255 255 0 80 17
0.132742 -0.480196 0.216700 255 255 0 80 17
0.133142 -0.356694 -0.009300 255 255 0 80 17
0.133435 -0.475886 -0.021300 255 255 0 80 17
0.143892 -0.382286 0.215897 255 255 0 80 17
0.135423 -0.522885 0.024700 255 255 0 80 17
0.138050 -0.319757 0.160150 255 255 0 80 17
0.159983 -0.332677 0.128075 255 255 0 80 17
0.150625 -0.408324 0.060700 255 255 0 80 17
0.143927 -0.382421 0.062700 255 255 0 80 17
0.146665 -0.424950 0.046700 255 255 0 80 17
0.158621 -0.319420 0.132700 255 255 0 80 17
0.136847 -0.508056 0.054700 255 255 0 80 17
0.141346 -0.415997 0.042700 255 255 0 80 17
0.149300 -0.331308 0.181658 255 255 0 80 17
0.136667 -0.510168 0.042700 255 255 0 80 17
0.139681 -0.327598 0.158700 255 255 0 80 17
0.143024 -0.394906 0.055883 255 255 0 80 17
0.146249 -0.427125 -0.009300 255 255 0 80 17
0.119658 -0.508369 0.036700 255 255 0 80 17
0.132814 -0.475244 0.098700 255 255 0 80 17
0.143276 -0.395876 -0.015300 255 255 0 80 17
0.128141 -0.516505 0.002700 255 255 0 80 17
0.131221 -0.349267 0.176700 255 255 0 80 17
0.129161 -0.509044 0.098700 255 255 0 80 17
0.154767 -0.334026 -0.017300 255 255 0 80 17
0.158180 -0.349670 0.100056 255 255 0 80 17
0.132403 -0.476153 0.208700 255 255 0 80 17
0.117217 -0.502804 0.019604 255 255 0 80 17
0.137071 -0.507679 0.114700 255 255 0 80 17
0.117217 -0.502804 0.085596 255 255 0 80 17
0.143850 -0.322389 0.026700 255 255 0 80 17
0.129590 -0.502715 0.164700 255 255 0 80 17
0.149735 -0.324998 0.167696 255 255 0 80 17
0.157427 -0.354744 0.184700 255 255 0 80 17
0.137163 -0.444135 0.144700 255 255 0 80 17
0.127365 -0.535298 0.104700 255 255 0 80 17
0.130023 -0.496406 0.112700 255 255 0 80 17
0.114171 -0.514988 0.154700 255 255 0 80 17
0.147784 -0.413310 -0.027300 255 255 0 80 17
0.143276 -0.395876 -0.039300 255 255 0 80 17
0.151170 -0.442378 0.236614 255 255 0 80 17
0.130772 -0.499299 0.091703 255 255 0 80 17
0.150374 -0.328965 0.194700 255 255 0 80 17
0.146535 -0.445643 0.138700 255 255 0 80 17
0.117217 -0.502804 0.117585 255 255 0 80 17
0.146481 -0.367156 0.112700 255 255 0 80 17
0.135833 -0.458739 0.004700 255 255 0 80 17
0.138240 -0.497367 0.072700 255 255 0 80 17
0.145421 -0.371561 0.206700 255 255 0 80 17
0.147731 -0.348240 0.010700 255 255 0 80 17
0.138270 -0.431254 0.140700 255 255 0 80 17
0.136410 -0.516432 0.086700 255 255 0 80 17
0.144827 -0.377913 0.119733 255 255 0 80 17
0.148290 -0.445189 0.152700 255 255 0 80 17
0.113775 -0.507825 0.026700 255 255 0 80 17
0.143291 -0.427889 0.239841 255 255 0 80 17
0.152364 -0.319192 0.104700 255 255 0 80 17
0.142005 -0.465406 -0.009300 255 255 0 80 17
0.139075 -0.491463 0.162700 255 255 0 80 17
0.149762 -0.417952 0.152700 255 255 0 80 17
0.154539 -0.356809 0.226700 255 255 0 80 17
0.142866 -0.394295 0.042700 255 255 0 80 17
0.140777 -0.428540 0.056700 255 255 0 80 17
0.121537 -0.437646 0.180700 255 255 0 80 17
0.158319 -0.342217 0.026700 255 255 0 80 17
0.147056 -0.447573 0.208700 255 255 0 80 17
0.145698 -0.469147 0.158700 255 255 0 80 17
0.155165 -0.377951 0.026700 255 255 0 80 17
0.138636 -0.491067 0.174700 255 255 0 80 17
0.119905 -0.505206 0.174700 255 255 0 80 17
0.147483 -0.354502 0.096700 255 255 0 80 17
0.143959 -0.390532 0.026058 255 255 0 80 17
0.138422 -0.321195 0.172700 255 255 0 80 17
0.139849 -0.414582 0.238700 255 255 0 80 17
0.136573 -0.332534 -0.013300 255 255 0 80 17
0.125373 -0.525484 0.162700 255 255 0 80 17
0.144038 -0.371919 0.146700 255 255 0 80 17
0.143967 -0.475228 0.196700 255 255 0 80 17
0.137321 -0.443894 0.024700 255 255 0 80 17
0.151637 -0.380283 0.013088 255 255 0 80 17
0.146190 -0.451929 0.066700 255 255 0 80 17
0.155658 -0.371866 0.136700 255 255 0 80 17
0.127171 -0.516756 0.116700 255 255 0 80 17
0.137592 -0.435561 0.110700 255 255 0 80 17
0.137164 -0.437738 0.218700 255 255 0 80 17
0.144454 -0.328545 0.062700 255 255 0 80 17
0.138776 -0.495163 0.104700 255 255 0 80 17
0.143558 -0.460873 0.177382 255 255 0 80 17
0.135462 -0.520809 0.098700 255 255 0 80 17
0.133551 -0.475855 0.002700 255 255 0 80 17
0.143819 -0.475266 0.044700 255 255 0 80 17
0.159690 -0.331544 0.032700 255 255 0 80 17
0.138010 -0.429254 0.124700 255 255 0 80 17
0.118440 -0.515517 0.148700 255 255 0 80 17
0.161371 -0.290116 0.068700 255 255 0 80 17
0.134504 -0.463214 0.018700 255 255 0 80 17
0.155039 -0.289593 -0.011300 255 255 0 80 17
0.118086 -0.490184 -0.010692 255 255 0 80 17
0.155027 -0.289552 0.044700 255 255 0 80 17
0.150787 -0.390832 0.172700 255 255 0 80 17
0.131893 -0.487659 0.118700 255 255 0 80 17
0.159269 -0.326664 0.190700 255 255 0 80 17
0.150056 -0.326241 0.004700 255 255 0 80 17
0.154576 -0.383655 0.099363 255 255 0 80 17
0.140550 -0.417291 0.034700 255 255 0 80 17
0.150169 -0.419913 0.054700 255 255 0 80 17
0.127242 -0.509613 0.056700 255 255 0 80 17
0.145891 -0.365243 0.088700 255 255 0 80 17
0.154648 -0.373307 0.034700 255 255 0 80 17
0.145800 -0.363201 0.106700 255 255 0 80 17
0.159542 -0.326594 0.108700 255 255 0 80 17
0.127797 -0.527737 0.100700 255 255 0 80 17
0.145618 -0.363248 0.046700 255 255 0 80 17
0.143847 -0.475259 0.204700 255 255 0 80 17
0.156095 -0.365571 0.148700 255 255 0 80 17
0.137531 -0.435576 0.210700 255 255 0 80 17
0.147089 -0.442575 0.010700 255 255 0 80 17
0.135312 -0.341123 0.174210 255 255 0 80 17
0.134412 -0.461172 0.174700 255 255 0 80 17
0.146863 -0.449690 0.081442 255 255 0 80 17
0.135468 -0.450571 0.108700 255 255 0 80 17
0.123561 -0.447453 0.174246 255 255 0 80 17
0.140118 -0.403920 0.202700 255 255 0 80 17
0.131313 -0.497092 0.026700 255 255 0 80 17
0.129047 -0.503876 0.188700 255 255 0 80 17
0.129389 -0.505853 0.030700 255 255 0 80 17
0.120410 -0.507161 0.108700 255 255 0 80 17
0.128401 -0.506109 0.175886 255 255 0 80 17
0.136672 -0.446128 -0.007300 255 255 0 80 17
0.152249 -0.322282 0.040700 255 255 0 80 17
0.143027 -0.473405 0.230700 255 255 0 80 17
0.149467 -0.411831 0.047459 255 255 0 80 17
0.135818 -0.454909 0.050700 255 255 0 80 17
0.157210 -0.337928 0.164700 255 255 0 80 17
0.152369 -0.319209 0.024700 255 255 0 80 17
0.135262 -0.522926 0.050700 255 255 0 80 17
0.148050 -0.348158 0.142700 255 255 0 80 17
0.157679 -0.347733 0.085545 255 255 0 80 17
0.142211 -0.403378 -0.003300 255 255 0 80 17
0.135525 -0.522859 -0.001300 255 255 0 80 17
0.141770 -0.409690 -0.017300 255 255 0 80 17
0.152424 -0.396606 0.132700 255 255 0 80 17
0.146333 -0.371325 -0.013300 255 255 0 80 17
0.149000 -0.341714 0.176700 255 255 0 80 17
0.142092 -0.447216 -0.039300 255 255 0 80 17
0.131380 -0.497075 0.140700 255 255 0 80 17
0.132508 -0.474060 -0.004087 255 255 0 80 17
0.133604 -0.475842 0.110700 255 255 0 80 17
0.149166 -0.434633 0.118067 255 255 0 80 17
0.138607 -0.422903 0.094700 255 255 0 80 17
0.140375 -0.420380 0.026700 255 255 0 80 17
0.149693 -0.434496 0.224700 255 255 0 80 17
0.157064 -0.349959 0.178700 255 255 0 80 17
0.144803 -0.470880 0.180700 255 255 0 80 17
0.149109 -0.403661 0.170700 255 255 0 80 17
0.146469 -0.424203 0.176700 255 255 0 80 17
0.147297 -0.443380 0.059568 255 255 0 80 17
0.151263 -0.343195 -0.023300 255 255 0 80 17
0.141255 -0.401560 0.164700 255 255 0 80 17
0.147564 -0.356546 -0.000808 255 255 0 80 17
0.133743 -0.327068 0.059051 255 255 0 80 17
0.145260 -0.371603 0.013365 255 255 0 80 17
0.136662 -0.446130 -0.029300 255 255 0 80 17
0.157747 -0.355979 0.159315 255 255 0 80 17
0.143404 -0.481570 0.216700 255 255 0 80 17
0.159265 -0.334928 0.150700 255 255 0 80 17
0.151038 -0.415556 0.090700 255 255 0 80 17
0.137847 -0.502691 0.130700 255 255 0 80 17
0.146178 -0.335209 -0.009300 255 255 0 80 17
0.116463 -0.515863 0.176700 255 255 0 80 17
0.138290 -0.424526 0.180700 255 255 0 80 17
0.127099 -0.525037 0.133685 255 255 0 80 17
0.159681 -0.336886 0.090700 255 255 0 80 17
0.127644 -0.527143 0.022700 255 255 0 80 17
0.114233 -0.507240 0.052700 255 255 0 80 17
0.142017 -0.500522 0.202700 255 255 0 80 17
0.147702 -0.412287 -0.011300 255 255 0 80 17
0.138980 -0.416609 0.168700 255 255 0 80 17
0.139651 -0.412305 0.104700 255 255 0 80 17
0.162187 -0.299054 0.048700 255 255 0 80 17
0.151562 -0.411943 0.200700 255 255 0 80 17
0.134183 -0.464560 0.202700 255 255 0 80 17
0.140350 -0.416518 0.060700 255 255 0 80 17
0.150308 -0.333113 0.188700 255 255 0 80 17
0.143415 -0.484283 0.184700 255 255 0 80 17
0.152005 -0.402911 0.214700 255 255 0 80 17
0.155992 -0.370893 0.006700 255 255 0 80 17
0.142910 -0.392870 0.156700 255 255 0 80 17
0.147798 -0.445316 0.201495 255 255 0 80 17
0.146234 -0.327439 0.162700 255 255 0 80 17
0.134706 -0.467293 0.232700 255 255 0 80 17
0.144825 -0.462611 0.138700 255 255 0 80 17
0.145179 -0.464585 0.080700 255 255 0 80 17
0.144722 -0.462638 0.024700 255 255 0 80 17
0.143700 -0.450508 0.002700 255 255 0 80 17
0.152429 -0.309841 0.012700 255 255 0 80 17
0.139214 -0.418614 0.204700 255 255 0 80 17
0.153409 -0.383957 0.132700 255 255 0 80 17
0.134709 -0.465227 0.044700 255 255 0 80 17
0.136024 -0.454558 0.080700 255 255 0 80 17
0.137810 -0.427241 0.068700 255 255 0 80 17
0.134854 -0.463125 0.126700 255 255 0 80 17
0.136027 -0.520664 0.116700 255 255 0 80 17
0.125330 -0.486245 -0.016396 255 255 0 80 17
0.151159 -0.318433 0.066700 255 255 0 80 17
0.147225 -0.354569 0.008700 255 255 0 80 17
0.146528 -0.453907 0.210700 255 255 0 80 17
0.138295 -0.495287 0.096700 255 255 0 80 17
0.135746 -0.454630 0.122583 255 255 0 80 17
0.159225 -0.334939 0.060700 255 255 0 80 17
0.157375 -0.360206 0.208700 255 255 0 80 17
0.140418 -0.416237 0.160700 255 255 0 80 17
0.135779 -0.518662 0.143609 255 255 0 80 17
0.133367 -0.473838 0.074700 255 255 0 80 17
0.139031 -0.488899 0.138700 255 255 0 80 17
0.114347 -0.507678 0.112116 255 255 0 80 17
0.116970 -0.501849 0.100700 255 255 0 80 17
0.144406 -0.380087 -0.009300 255 255 0 80 17
0.137975 -0.429264 0.186700 255 255 0 80 17
0.134678 -0.322695 0.167547 255 255 0 80 17
0.157610 -0.343620 0.038700 255 255 0 80 17
0.133964 -0.327012 0.122700 255 255 0 80 17
0.136932 -0.510100 0.012700 255 255 0 80 17
0.114347 -0.507678 0.130970 255 255 0 80 17
0.114279 -0.499432 -0.008218 255 255 0 80 17
0.133743 -0.327068 0.154495 255 255 0 80 17
0.133635 -0.475833 0.040700 255 255 0 80 17
0.145624 -0.325080 -0.009300 255 255 0 80 17
0.139370 -0.466088 -0.033300 255 255 0 80 17
0.146948 -0.358772 0.216700 255 255 0 80 17
0.136113 -0.320258 0.044370 255 255 0 80 17
0.131468 -0.494003 0.154700 255 255 0 80 17
0.135793 -0.518658 0.064700 255 255 0 80 17
0.159349 -0.314249 0.042726 255 255 0 80 17
0.129922 -0.507781 0.002700 255 255 0 80 17
0.148331 -0.405927 0.020700 255 255 0 80 17
0.130781 -0.495164 0.068700 255 255 0 80 17
0.144294 -0.471708 0.028700 255 255 0 80 17
0.141279 -0.404135 0.050700 255 255 0 80 17
0.159249 -0.334933 0.010700 255 255 0 80 17
0.136113 -0.320258 0.094343 255 255 0 80 17
0.153297 -0.367459 -0.021300 255 255 0 80 17
0.162220 -0.309375 0.053684 255 255 0 80 17
0.137883 -0.429288 0.168700 255 255 0 80 17
0.125635 -0.539877 0.004700 255 255 0 80 17
0.156323 -0.364610 0.026700 255 255 0 80 17
0.139659 -0.420565 0.066700 255 255 0 80 17
0.154720 -0.352264 0.168700 255 255 0 80 17
0.139891 -0.414746 0.194700 255 255 0 80 17
0.134930 -0.525078 0.038700 255 255 0 80 17
0.151400 -0.314239 0.160700 255 255 0 80 17
0.162277 -0.307294 -0.003300 255 255 0 80 17
0.135784 -0.402975 0.176700 255 255 0 80 17
0.143726 -0.400921 0.032700 255 255 0 80 17
0.141648 -0.401459 0.010700 255 255 0 80 17
0.146863 -0.449690 0.163387 255 255 0 80 17
0.147203 -0.439272 0.148700 255 255 0 80 17
0.139853 -0.422581 0.149055 255 255 0 80 17
0.129645 -0.367137 0.180700 255 255 0 80 17
0.139670 -0.416431 0.220700 255 255 0 80 17
0.136610 -0.529861 0.104700 255 255 0 80 17
0.133977 -0.535654 0.045267 255 255 0 80 17
0.138294 -0.365142 0.176700 255 255 0 80 17
0.131145 -0.486807 0.216700 255 255 0 80 17
0.131328 -0.482628 0.154700 255 255 0 80 17
0.158118 -0.320765 0.124700 255 255 0 80 17
0.148584 -0.335625 0.144700 255 255 0 80 17
0.131709 -0.492858 -0.003300 255 255 0 80 17
0.122592 -0.507611 0.153700 255 255 0 80 17
0.141029 -0.401619 0.096700 255 255 0 80 17
0.151447 -0.380332 -0.019300 255 255 0 80 17
0.127584 -0.531110 0.010700 255 255 0 80 17
0.147858 -0.348207 -0.003300 255 255 0 80 17
0.135076 -0.454803 0.220700 255 255 0 80 17
0.113216 -0.512102 0.068700 255 255 0 80 17
0.145361 -0.443880 0.238999 255 255 0 80 17
0.142824 -0.489984 0.002125 255 255 0 80 17
0.156943 -0.344885 0.222700 255 255 0 80 17
0.153204 -0.361286 -0.027300 255 255 0 80 17
0.137930 -0.371433 0.174700 255 255 0 80 17
0.153104 -0.303469 0.026700 255 255 0 80 17
0.131894 -0.487662 0.132700 255 255 0 80 17
0.149382 -0.339612 0.006700 255 255 0 80 17
0.116302 -0.515239 0.116700 255 255 0 80 17
0.137469 -0.435592 0.096700 255 255 0 80 17
0.136782 -0.439901 0.076700 255 255 0 80 17
0.164029 -0.296512 0.056700 255 255 0 80 17
0.131278 -0.533208 -0.017300 255 255 0 80 17
0.147016 -0.352557 0.126700 255 255 0 80 17
0.158179 -0.309725 0.154700 255 255 0 80 17
0.152590 -0.305667 0.106700 255 255 0 80 17
0.145345 -0.371928 0.138700 255 255 0 80 17
0.128597 -0.546804 0.072700 255 255 0 80 17
0.143324 -0.372104 0.181946 255 255 0 80 17
0.118771 -0.456954 0.180700 255 255 0 80 17
0.133127 -0.329294 0.178700 255 255 0 80 17
0.135508 -0.516666 0.030700 255 255 0 80 17
0.136139 -0.518569 0.164700 255 255 0 80 17
0.152894 -0.315919 -0.005300 255 255 0 80 17
0.144291 -0.327913 0.106700 255 255 0 80 17
0.136612 -0.439946 0.064700 255 255 0 80 17
0.125063 -0.453261 0.171957 255 255 0 80 17
0.154493 -0.298978 -0.017300 255 255 0 80 17
0.144789 -0.318014 0.162700 255 255 0 80 17
0.126213 -0.428174 0.174700 255 255 0 80 17
0.145597 -0.431424 0.046700 255 255 0 80 17
0.158803 -0.344088 0.090700 255 255 0 80 17
0.135760 -0.454685 0.018700 255 255 0 80 17
0.159483 -0.330741 0.103815 255 255 0 80 17
0.143442 -0.476400 0.092700 255 255 0 80 17
0.144315 -0.471788 0.132700 255 255 0 80 17
0.146413 -0.463925 0.232700 255 255 0 80 17
0.155272 -0.366948 0.226700 255 255 0 80 17
0.133415 -0.467628 0.158700 255 255 0 80 17
0.140782 -0.407880 0.064700 255 255 0 80 17
0.152572 -0.375909 0.234833 255 255 0 80 17
0.134702 -0.529269 0.092700 255 255 0 80 17
0.134886 -0.459291 0.088700 255 255 0 80 17
0.113267 -0.510023 0.010700 255 255 0 80 17
0.118428 -0.515471 0.032700 255 255 0 80 17
0.134403 -0.465412 0.070700 255 255 0 80 17
0.133507 -0.418025 0.176700 255 255 0 80 17
0.118405 -0.515380 0.050700 255 255 0 80 17
0.141100 -0.401600 0.114700 255 255 0 80 17
0.158785 -0.341250 0.128700 255 255 0 80 17
0.132348 -0.492693 0.090700 255 255 0 80 17
0.144563 -0.439955 -0.001300 255 255 0 80 17
0.147611 -0.346206 0.106700 255 255 0 80 17
0.129170 -0.509080 0.154700 255 255 0 80 17
0.135967 -0.456638 0.066700 255 255 0 80 17
0.152850 -0.324193 0.080700 255 255 0 80 17
0.120621 -0.515965 -0.009300 255 255 0 80 17
0.147613 -0.346205 0.134700 255 255 0 80 17
0.154416 -0.295175 0.022700 255 255 0 80 17
0.133933 -0.535487 0.068700 255 255 0 80 17
0.137182 -0.332377 0.174023 255 255 0 80 17
0.135163 -0.452378 0.234700 255 255 0 80 17
0.154738 -0.307179 -0.013300 255 255 0 80 17
0.111399 -0.510506 0.178700 255 255 0 80 17
0.139196 -0.426882 0.102700 255 255 0 80 17
0.142149 -0.343594 -0.003300 255 255 0 80 17
0.143874 -0.322383 0.146700 255 255 0 80 17
0.139614 -0.494946 -0.009300 255 255 0 80 17
0.149794 -0.395221 -0.023300 255 255 0 80 17
0.132286 -0.492710 0.018700 255 255 0 80 17
0.144442 -0.442052 -0.033300 255 255 0 80 17
0.149897 -0.395194 0.006700 255 255 0 80 17
0.135745 -0.444301 0.118700 255 255 0 80 17
0.140247 -0.488010 0.022700 255 255 0 80 17
0.149129 -0.335484 -0.001300 255 255 0 80 17
0.146161 -0.356910 0.056700 255 255 0 80 17
0.137870 -0.501595 0.006700 255 255 0 80 17
0.137515 -0.505818 0.140700 255 255 0 80 17
0.148635 -0.356270 -0.025300 255 255 0 80 17
0.158081 -0.326972 0.158700 255 255 0 80 17
