ply
format ascii 1.0
element vertex 1091
property float x
property float y
property float z
property uchar red
property uchar green
property uchar blue
property uchar semantic_label
property uchar instance_label
end_header
2.651633 -0.491070 -0.151771 157 139 159 14 8
2.824151 -1.152766 -0.040379 54 51 66 5 3
2.449572 -0.950465 -0.145069 125 122 134 14 7
2.440305 -0.965250 -0.145518 122 125 125 14 7
2.823873 -1.150327 -0.049707 61 45 56 5 3
2.310452 -0.583309 0.161463 210 156 82 14 7
2.325426 -0.579062 0.169196 236 180 89 14 7
2.327974 -0.583893 0.158309 237 178 102 14 7
2.312581 -0.577436 0.174302 168 113 68 14 7
2.329935 -0.580032 0.178437 169 106 68 14 7
2.800733 -1.096438 -0.136276 58 58 66 5 3
2.805099 -1.101801 -0.140145 55 53 58 5 3
2.796290 -1.094105 -0.148410 56 55 56 5 3
2.781916 -1.111832 -0.142914 65 69 69 5 3
2.494518 -0.543832 -0.028028 244 174 82 14 8
2.032573 -1.071000 -0.143676 117 89 78 14 7
2.032850 -1.049649 -0.145284 111 88 76 14 7
2.872313 -1.281135 0.092692 45 45 37 5 3
2.880965 -1.275216 0.067428 96 113 117 5 3
2.871313 -1.291130 0.084172 53 46 44 5 3
2.874857 -1.280845 0.056427 123 128 142 5 3
2.879220 -1.255684 0.083570 95 92 110 5 3
2.875077 -1.300041 0.068634 90 93 116 5 3
2.335947 -1.117408 -0.142656 127 120 131 14 7
2.214542 -0.421121 0.276241 176 118 75 0 0
2.214123 -0.409255 0.265671 210 157 77 14 8
2.562668 -0.742384 -0.146078 122 123 144 14 7
2.573184 -0.734000 -0.146542 124 124 140 14 7
2.407252 -0.527817 0.076421 250 181 97 14 8
2.427799 -0.535093 0.121566 247 184 84 14 8
2.416696 -0.563057 0.153535 255 253 226 14 7
2.417599 -0.535727 0.135514 255 248 171 14 8
2.397218 -0.533911 0.152074 254 254 220 14 7
2.715845 -1.340692 -0.277515 67 62 84 5 3
2.561729 -0.645489 -0.087397 154 126 103 14 7
2.028980 -1.280505 0.269422 228 159 90 14 7
2.029681 -1.280384 0.290403 175 119 58 14 7
2.540198 -1.352511 -0.132694 154 137 124 14 7
2.815730 -1.309042 0.079858 137 140 152 5 3
2.811637 -1.330546 0.076524 134 137 148 5 3
2.866015 -1.325176 0.109117 64 66 64 5 3
2.877242 -1.321942 0.113981 67 68 72 5 3
2.846771 -1.318138 0.103636 71 68 68 5 3
2.855621 -1.321230 0.118739 164 170 194 5 3
2.871418 -1.314185 0.109213 70 70 68 5 3
2.862528 -1.316215 0.095811 62 59 64 5 3
2.859004 -1.319125 0.124251 117 115 132 5 3
2.721294 -1.347005 -0.150390 53 56 52 5 3
2.089177 -0.934736 0.211866 207 140 71 14 7
2.096557 -0.955592 0.217013 200 140 69 14 7
2.747535 -1.400030 0.047593 118 115 127 5 3
2.688429 -0.887954 -0.162395 56 39 24 0 0
2.660717 -0.870693 -0.184419 50 30 25 0 0
2.682766 -0.853089 -0.180652 63 49 32 0 0
2.673402 -0.888704 -0.182046 57 43 28 0 0
2.672340 -0.873085 -0.185252 72 49 38 0 0
2.107765 -1.101206 -0.143749 107 86 69 14 7
2.096443 -1.093700 -0.143257 106 89 75 14 7
2.083045 -1.087556 -0.142196 112 89 59 14 7
2.329937 -0.671174 -0.145717 111 103 103 14 7
2.315483 -0.676993 -0.146034 65 58 54 14 7
2.544840 -1.081542 -0.354218 64 60 69 5 3
2.207472 -0.576469 0.210106 194 143 78 14 7
2.193772 -0.576325 0.212957 197 155 83 14 7
2.187293 -0.594300 0.220432 206 134 54 14 7
2.033227 -0.680389 0.122084 126 85 50 14 7
2.029879 -0.690814 0.105003 162 107 66 14 7
2.562892 -0.632183 0.052984 109 86 56 14 7
2.572392 -0.632675 0.053649 112 88 62 14 7
2.029572 -0.712919 0.155693 129 89 52 14 7
2.426513 -1.407349 -0.142724 130 122 131 14 7
2.458299 -1.391845 -0.141760 144 132 122 14 7
2.630147 -0.791130 -0.145453 126 131 139 14 7
2.644052 -0.761475 -0.144959 120 127 140 14 7
2.673899 -1.223113 -0.373025 58 57 60 5 3
2.731444 -1.238854 -0.317178 62 69 76 5 3
2.734951 -1.226085 -0.330639 71 67 72 5 3
2.737545 -1.215615 -0.316330 79 73 87 5 3
2.731432 -1.229512 -0.311832 57 61 64 5 3
2.741909 -1.204075 -0.303561 75 76 87 5 3
2.014945 -1.358817 0.271047 220 153 74 14 7
2.466315 -1.014048 -0.142724 123 119 127 14 7
2.439562 -1.030549 -0.143731 127 119 128 14 7
2.257898 -1.319255 -0.142626 122 116 128 14 7
2.281572 -1.317221 -0.142480 125 118 125 14 7
2.309647 -1.323505 -0.143290 123 122 122 14 7
2.309197 -1.172062 -0.142726 131 122 131 14 7
2.285403 -1.163932 -0.143647 130 123 129 14 7
2.835072 -1.145980 -0.015453 41 46 34 5 3
2.402021 -1.024567 -0.369710 30 24 24 5 3
2.407262 -0.998465 -0.367061 43 32 23 5 3
2.425921 -0.996660 -0.381838 34 30 22 0 0
2.435758 -1.016846 -0.383055 35 30 26 0 0
2.439647 -0.992343 -0.360806 29 24 31 5 3
2.421370 -0.979758 -0.365150 34 28 21 5 3
2.821576 -1.275905 0.061844 124 130 147 5 3
2.828267 -1.255143 0.060981 159 165 183 5 3
2.826396 -1.245140 0.062758 139 141 152 5 3
2.836729 -1.258689 0.066767 158 162 181 5 3
2.832494 -1.267670 0.079167 155 155 168 5 3
2.838257 -1.250702 0.078601 147 146 149 5 3
2.835000 -1.272551 0.087033 147 146 149 5 3
2.833694 -1.234696 0.068820 145 146 160 5 3
2.776796 -1.198484 -0.354350 69 71 73 5 3
2.820587 -1.265389 0.063163 144 144 156 5 3
2.842399 -1.256934 0.069375 155 158 178 5 3
2.552462 -1.348786 -0.358737 40 41 42 5 3
2.165416 -0.944639 -0.145689 114 95 73 14 7
2.586162 -0.561679 -0.081415 233 169 100 14 8
2.590173 -0.563903 -0.064178 239 170 89 14 8
2.193121 -0.662013 0.311073 254 253 218 0 0
2.183394 -0.699933 0.306058 194 138 76 0 0
2.189016 -0.653478 0.297724 180 129 56 0 0
2.176123 -0.680166 0.290202 155 103 69 0 0
2.189810 -0.675034 0.305282 249 236 160 0 0
2.550712 -1.108616 -0.411268 28 29 30 2 1
2.558786 -1.096291 -0.420043 28 29 30 2 1
2.548077 -1.086808 -0.393978 37 38 36 0 0
2.534469 -1.098186 -0.398887 34 33 40 0 0
2.548150 -1.101588 -0.402560 35 33 34 0 0
2.560536 -1.100404 -0.402359 31 30 39 0 0
2.580325 -0.491385 -0.159237 150 142 156 14 8
2.586738 -0.479451 -0.163405 150 141 149 14 8
2.561759 -0.505186 -0.159492 151 139 157 14 8
2.829196 -1.145601 -0.383965 82 91 96 5 3
2.814808 -1.170012 -0.364058 59 60 62 5 3
2.825171 -1.152674 -0.379730 67 65 68 5 3
2.827901 -1.146480 -0.358940 60 59 66 5 3
2.752014 -1.141655 -0.188656 53 55 59 5 3
2.758279 -1.124797 -0.189214 46 54 51 5 3
2.765808 -1.130888 -0.161782 51 53 56 5 3
2.767708 -1.119398 -0.168300 46 52 55 5 3
2.633390 -1.301584 -0.369519 54 54 59 5 3
2.636738 -1.265683 -0.368173 54 49 46 5 3
2.442422 -0.534896 0.036422 246 175 83 14 8
2.256211 -0.438077 -0.182672 80 65 66 14 8
2.247714 -0.432226 -0.177455 81 57 54 14 8
2.244689 -0.425882 -0.162844 90 71 72 0 0
2.268730 -0.435880 -0.181077 99 87 89 14 8
2.240394 -0.432357 -0.189774 81 67 70 14 8
2.241012 -0.425188 -0.177584 90 70 69 14 8
2.214966 -0.566462 0.313583 252 242 201 0 0
2.836313 -1.334886 0.056292 105 105 115 5 3
2.847335 -1.333716 0.048010 126 126 148 5 3
2.832917 -1.372639 0.046159 64 60 73 5 3
2.837997 -1.357488 0.047676 119 122 138 5 3
2.122490 -0.712481 -0.152515 57 51 43 14 7
2.124139 -0.700842 -0.149121 75 56 51 14 7
2.390647 -1.204755 -0.143126 121 115 138 14 7
2.389772 -1.225468 -0.142397 118 118 123 14 7
2.635606 -0.522875 -0.170892 140 130 133 0 0
2.629008 -0.539389 -0.177642 125 114 105 0 0
2.618597 -0.524836 -0.170675 153 144 143 0 0
2.656060 -0.537342 -0.167795 152 141 158 0 0
2.641924 -0.511619 -0.170625 147 144 159 0 0
2.660334 -0.668306 -0.145928 118 115 135 14 7
2.208249 -0.543591 0.338037 246 247 241 0 0
2.100924 -0.791504 0.211294 212 141 75 14 7
2.087893 -0.830233 0.215734 203 137 70 14 7
2.080561 -0.816059 0.215984 201 141 71 14 7
2.101912 -0.810879 0.210559 204 138 57 14 7
2.357849 -0.739100 -0.145127 137 125 125 14 7
2.343575 -0.762909 -0.146618 136 128 133 14 7
2.449648 -1.236005 -0.142507 121 116 135 14 7
2.414647 -1.195755 -0.143241 114 116 137 14 7
2.592347 -0.645579 -0.084997 140 124 115 14 7
2.578015 -0.646036 -0.086645 114 102 88 14 7
2.559781 -0.645022 -0.074227 123 102 91 14 7
2.576881 -0.643337 -0.075259 63 56 61 14 7
2.587901 -0.644980 -0.066241 123 108 99 14 7
2.522485 -1.146436 -0.414786 38 37 36 0 0
2.511873 -1.159640 -0.420581 49 49 44 0 0
2.515431 -1.145711 -0.417878 40 42 45 0 0
2.521681 -1.148933 -0.422469 43 43 45 2 1
2.854734 -1.180229 0.088744 128 129 153 5 3
2.879197 -1.182992 0.111636 113 115 121 5 3
2.860223 -1.202551 0.099912 113 116 137 5 3
2.878552 -1.204663 0.116024 122 123 148 5 3
2.127908 -0.454289 -0.106835 177 105 59 14 8
2.131257 -0.452540 -0.128948 166 98 54 14 8
2.296890 -0.588716 0.152474 237 206 131 14 7
2.290566 -0.585335 0.166420 234 206 137 14 7
2.295915 -0.579019 0.175683 195 165 97 14 7
2.279988 -0.580556 0.180218 162 116 73 14 7
2.290700 -0.576703 0.184525 166 123 73 14 7
2.299600 -0.571602 0.191553 188 156 93 14 7
2.660375 -0.519167 -0.171013 141 130 129 0 0
2.667121 -0.527908 -0.168170 143 134 120 0 0
2.684741 -0.519858 -0.166630 161 149 159 0 0
2.663648 -0.777255 -0.142021 138 125 136 14 7
2.687273 -0.793379 -0.145776 251 246 176 14 7
2.672540 -0.795097 -0.142302 249 246 162 14 7
2.755004 -1.238942 -0.184578 66 64 72 5 3
2.761953 -1.217799 -0.192023 64 63 70 5 3
2.766682 -1.213291 -0.170837 53 68 55 5 3
2.558584 -1.342826 -0.170168 208 188 107 5 3
2.742266 -1.267005 -0.277078 75 68 78 5 3
2.233538 -0.481783 0.011422 178 109 49 14 8
2.818794 -1.155686 -0.320355 67 62 73 5 3
2.825436 -1.149314 -0.339385 76 74 88 5 3
2.759419 -1.272247 -0.037069 75 65 78 5 3
2.769279 -1.291870 -0.057765 41 40 33 5 3
2.084308 -1.181782 0.314313 166 116 54 0 0
2.764388 -1.316255 -0.047010 58 44 39 5 3
2.690233 -1.041709 -0.345801 67 72 83 5 3
2.688626 -1.035995 -0.351113 65 70 78 5 3
2.704526 -1.046533 -0.348957 83 69 86 5 3
2.136242 -0.950566 -0.144859 114 88 65 14 7
2.106614 -0.939790 -0.144829 107 87 72 14 7
2.138261 -0.937780 -0.146787 111 89 68 14 7
2.178912 -0.594179 0.252114 211 139 72 14 7
2.886201 -1.286427 0.111647 59 54 49 5 3
2.885302 -1.314392 0.120818 112 115 131 5 3
2.894067 -1.282581 0.126947 111 116 128 5 3
2.411588 -0.446819 -0.166524 137 129 124 0 0
2.397911 -0.459204 -0.173170 129 111 103 0 0
2.416770 -0.437294 -0.165899 148 145 156 0 0
2.393006 -0.438358 -0.165001 139 135 142 0 0
2.411406 -0.468420 -0.165875 161 148 151 0 0
2.410533 -0.459178 -0.169140 152 147 151 0 0
2.421669 -0.460526 -0.164868 161 161 166 0 0
2.090343 -0.408505 0.075672 221 158 58 14 8
2.087151 -0.432654 0.080814 208 142 73 14 8
2.088590 -0.441624 0.094091 208 142 73 14 8
2.089238 -0.442876 0.069579 206 142 68 14 8
2.566148 -1.184755 -0.357085 44 47 55 5 3
2.570887 -1.052692 -0.353854 63 65 62 5 3
2.648973 -0.610808 0.021885 201 181 144 14 7
2.679554 -0.625944 0.011224 145 141 138 14 7
2.658165 -0.634025 0.013926 127 129 120 14 7
2.667903 -0.621617 0.017474 251 241 169 14 7
2.675664 -0.618040 0.009636 219 198 154 14 7
2.495983 -1.392253 -0.353330 61 62 57 5 3
2.457044 -1.378169 -0.348148 68 69 66 5 3
2.394847 -1.003499 -0.144440 128 122 134 14 7
2.462567 -1.345424 -0.142408 131 128 123 14 7
2.473194 -1.329668 -0.142603 120 119 116 14 7
2.624000 -1.025271 -0.139050 180 164 142 14 7
2.621790 -1.041181 -0.138176 240 226 127 14 7
2.657532 -1.014350 -0.147722 255 253 166 14 7
2.646713 -1.035444 -0.144443 254 255 158 14 7
2.496483 -0.573138 0.105613 253 252 239 14 7
2.486692 -0.578978 0.115404 238 190 99 14 7
2.469348 -0.576209 0.125349 255 238 155 14 7
2.458511 -0.570058 0.129775 255 251 198 14 7
2.493906 -0.606293 0.092463 220 155 64 14 7
2.492978 -0.588657 0.109331 236 165 71 14 7
2.177925 -0.613411 0.231500 215 141 73 14 7
2.171737 -0.634817 0.223795 221 142 75 14 7
2.174041 -0.619896 0.219951 216 144 62 14 7
2.170742 -0.617227 0.254971 215 143 73 14 7
2.577263 -1.144205 -0.356851 51 52 46 5 3
2.554506 -1.134958 -0.355449 55 54 65 5 3
2.236297 -0.536016 0.244087 255 252 192 14 7
2.233122 -0.525558 0.249768 254 246 185 14 7
2.088680 -1.141516 0.300050 134 90 46 0 0
2.783209 -1.238678 -0.004027 102 96 98 5 3
2.780969 -1.224921 -0.021248 135 115 86 5 3
2.775339 -1.231883 -0.027877 90 90 100 5 3
2.517023 -1.330630 -0.354692 64 64 61 5 3
2.495175 -0.656089 -0.146438 98 89 107 14 7
2.515825 -0.659770 -0.145606 101 91 109 14 7
2.528502 -0.659465 -0.145110 109 106 111 14 7
2.900363 -1.128738 0.091164 69 70 73 5 3
2.900784 -1.176196 0.102831 69 69 77 5 3
2.894000 -1.165258 0.093428 68 68 74 5 3
2.904532 -1.162541 0.107306 210 218 238 5 3
2.891909 -1.151635 0.112769 115 115 135 5 3
2.898484 -1.181328 0.119051 123 123 134 5 3
2.900727 -1.152137 0.114038 203 213 241 5 3
2.905384 -1.149046 0.108579 205 213 240 5 3
2.865841 -1.058643 -0.008025 64 59 49 5 3
2.872489 -1.065748 -0.005139 65 63 77 5 3
2.862334 -1.064612 -0.023844 57 54 58 5 3
2.172283 -0.755524 0.308089 251 243 216 0 0
2.174614 -0.743121 0.303361 253 232 168 0 0
2.163983 -0.747229 0.290043 144 101 62 0 0
2.146600 -0.774916 0.281639 144 101 62 0 0
2.400141 -0.731163 -0.145673 133 127 129 14 7
2.376286 -0.733482 -0.144740 139 125 129 14 7
2.388257 -0.757322 -0.145262 135 128 131 14 7
2.053848 -1.265529 0.357561 229 218 211 14 7
2.041893 -1.260691 0.357697 149 120 124 14 7
2.763320 -1.362466 -0.412552 127 104 76 5 3
2.765757 -1.341980 -0.405357 92 99 105 5 3
2.756803 -1.360385 -0.407507 101 92 71 5 3
2.585268 -0.644013 -0.130515 129 113 110 14 7
2.564764 -0.644648 -0.108549 118 98 83 14 7
2.582985 -0.646387 -0.109051 129 117 112 14 7
2.019007 -0.762863 0.071892 241 166 86 14 7
2.422284 -1.388943 -0.141150 118 114 129 14 7
2.404227 -1.380814 -0.142462 112 107 133 14 7
2.408866 -1.406238 -0.140877 110 114 134 14 7
2.619980 -1.168141 -0.144518 236 202 105 14 7
2.776735 -0.435087 -0.176097 117 80 46 0 0
2.757074 -0.460922 -0.188644 103 70 43 0 0
2.770173 -0.470872 -0.168155 65 35 31 14 7
2.774334 -0.453397 -0.167950 64 40 32 0 0
2.770039 -0.461310 -0.175411 105 69 41 0 0
2.766364 -0.431267 -0.187575 94 67 42 0 0
2.744287 -0.600234 -0.171086 95 60 41 0 0
2.752688 -0.567668 -0.166126 92 64 39 14 7
2.735825 -0.573600 -0.186376 99 66 42 0 0
2.789005 -1.249534 0.011872 63 55 57 5 3
2.767158 -1.263074 -0.014059 60 55 57 5 3
2.776423 -1.263939 0.007280 60 54 56 5 3
2.786522 -1.264192 0.016426 93 78 95 5 3
2.655843 -0.577764 -0.033953 227 170 109 14 8
2.638788 -0.574737 -0.002403 239 178 92 14 8
2.743494 -1.113098 -0.375850 102 101 129 5 3
2.749737 -1.100006 -0.375982 101 113 129 5 3
2.749297 -1.082309 -0.377857 91 95 108 5 3
2.739908 -1.115626 -0.397457 99 109 124 5 3
2.735548 -1.092252 -0.384825 110 121 126 5 3
2.744298 -1.094602 -0.369796 110 117 134 5 3
2.736739 -1.082639 -0.381062 109 123 137 5 3
2.388005 -1.394834 -0.143053 112 112 122 14 7
2.312672 -1.373897 -0.143108 132 130 155 14 7
2.462561 -1.077344 -0.394080 97 80 58 0 0
2.489616 -1.081862 -0.395460 83 72 60 0 0
2.487584 -1.070981 -0.390767 81 70 57 0 0
2.409229 -0.594385 0.116840 237 166 69 14 7
2.425119 -0.602019 0.102903 236 165 70 14 7
2.414228 -0.605438 0.093296 221 152 82 14 7
2.080099 -0.960904 -0.144223 109 83 66 14 7
2.088034 -1.180266 -0.139458 113 91 74 14 7
2.102496 -1.161624 -0.139608 115 87 71 14 7
2.852630 -1.347468 0.050782 61 60 62 5 3
2.851855 -1.370483 0.059019 92 97 106 5 3
2.602780 -0.645838 -0.100901 129 113 115 14 7
2.618772 -0.647038 -0.100087 127 110 121 14 7
2.615989 -0.645136 -0.112234 127 115 115 14 7
2.605522 -0.642934 -0.129943 120 111 120 14 7
2.614721 -0.644764 -0.126105 117 109 118 14 7
2.553548 -0.619980 0.059092 197 140 54 14 7
2.573357 -0.606749 0.065900 215 151 56 14 7
2.583164 -0.616098 0.060396 176 142 105 14 7
2.586755 -0.604832 0.061751 156 124 79 14 7
2.565762 -0.596761 0.071972 235 186 92 14 7
2.026014 -0.813631 -0.143218 227 164 57 14 7
2.029531 -0.793838 -0.145234 194 141 62 14 7
2.041116 -0.788987 -0.147378 114 87 60 14 7
2.025499 -0.794368 -0.140807 234 167 73 14 7
2.187969 -0.787216 -0.143748 114 86 82 14 7
2.701448 -0.627617 -0.045399 121 107 122 14 8
2.726418 -1.206761 -0.205845 62 66 73 5 3
2.727270 -1.205734 -0.216098 100 96 90 5 3
2.730863 -1.189450 -0.217455 70 78 94 5 3
2.741918 -1.402949 0.044447 131 132 134 5 3
2.742322 -1.389804 0.042092 121 117 124 5 3
2.742792 -1.367626 0.041715 135 133 137 5 3
2.746903 -1.381408 0.041183 98 99 103 5 3
2.752742 -1.370091 0.035261 103 101 107 5 3
2.731197 -1.378465 0.031716 98 99 103 5 3
2.299407 -0.513807 0.216990 254 254 194 14 7
2.649094 -1.040049 -0.175121 56 33 29 0 0
2.638999 -1.037073 -0.181430 33 26 27 0 0
2.627780 -1.031166 -0.181537 45 35 17 0 0
2.645818 -1.015735 -0.180765 42 26 17 0 0
2.294580 -1.300446 -0.142765 121 120 141 14 7
2.339475 -1.303622 -0.143081 121 118 123 14 7
2.545134 -0.522459 -0.171183 159 145 149 0 0
2.539858 -0.508817 -0.170677 155 145 150 0 0
2.558977 -0.519367 -0.172605 155 143 150 0 0
2.532962 -0.534624 -0.182746 160 147 141 0 0
2.554184 -0.523351 -0.182299 146 132 122 0 0
2.529823 -0.523157 -0.169872 162 151 143 0 0
2.543184 -0.524563 -0.175952 153 142 150 0 0
2.558171 -0.533527 -0.175802 165 149 140 0 0
2.018417 -0.442366 -0.072288 169 107 58 14 5
2.017036 -0.446201 -0.047019 165 107 47 14 5
2.026222 -0.428474 -0.058299 171 111 45 14 5
2.048890 -1.200765 0.241508 218 144 70 14 7
2.487240 -1.137091 -0.419847 32 35 37 0 0
2.226724 -0.570842 0.220304 212 137 74 14 7
2.060777 -1.090797 -0.140451 110 84 77 14 7
2.072532 -1.110285 -0.140118 110 90 78 14 7
2.633986 -0.648325 -0.019316 126 122 110 14 7
2.651483 -0.649099 -0.013015 131 123 121 14 7
2.653488 -0.655691 -0.002185 127 120 119 14 7
2.642874 -0.652981 -0.036668 124 112 123 14 7
2.626142 -0.652113 -0.039812 121 115 116 14 7
2.293089 -0.675347 -0.140904 59 55 53 14 7
2.288857 -0.691598 -0.148576 116 101 116 14 7
2.644849 -0.432535 -0.155644 157 137 161 14 8
2.648684 -0.464358 -0.151762 155 144 159 14 8
2.005096 -1.220360 0.341462 240 234 229 14 7
2.014386 -1.212602 0.340770 240 233 225 14 7
2.397393 -0.519011 -0.109015 234 173 68 14 8
2.342647 -0.505195 -0.114578 234 165 81 14 8
2.381605 -0.513755 -0.127289 229 162 86 14 8
2.724056 -1.347954 -0.407328 69 66 82 5 3
2.732187 -1.346286 -0.414238 59 59 61 5 3
2.748865 -1.348512 -0.407126 60 66 69 5 3
2.726191 -1.364719 -0.411501 58 62 64 5 3
2.028426 -1.133608 0.346372 128 126 122 14 7
2.039384 -1.145853 0.345913 223 221 220 14 7
2.063600 -0.716496 -0.153762 110 77 76 14 7
2.052725 -0.711074 -0.149232 140 97 52 14 7
2.073520 -0.706796 -0.152812 53 41 28 14 7
2.802449 -1.326642 0.059765 166 175 195 5 3
2.375170 -1.270022 -0.143418 119 118 127 14 7
2.319110 -1.232450 -0.142929 122 120 130 14 7
2.206511 -0.519852 0.338107 190 190 188 0 0
2.204078 -1.088196 -0.143703 141 123 128 14 7
2.313445 -1.061513 -0.144693 134 126 127 14 7
2.303039 -1.045198 -0.145127 135 125 138 14 7
2.320216 -1.028956 -0.144898 133 125 134 14 7
2.320393 -1.009392 -0.145091 129 129 130 14 7
2.337678 -1.046934 -0.143507 137 128 127 14 7
2.564236 -0.558863 -0.021265 230 162 77 14 8
2.632601 -0.968355 -0.139756 125 120 125 14 7
2.616568 -1.155774 -0.181685 25 21 21 0 0
2.599246 -1.167352 -0.181286 113 92 70 0 0
2.147126 -0.908346 -0.145959 112 90 59 14 7
2.163809 -0.922292 -0.145161 114 93 75 14 7
2.173302 -0.895926 -0.146109 109 91 71 14 7
2.378106 -1.406474 -0.326394 21 17 21 5 3
2.827140 -1.129255 -0.334328 72 80 87 5 3
2.825663 -1.121503 -0.353639 81 76 77 5 3
2.818253 -1.113167 -0.326101 82 72 95 5 3
2.470624 -0.604555 0.099351 242 165 73 14 7
2.448087 -0.602861 0.106170 231 161 81 14 7
2.249527 -1.236594 -0.142440 133 128 144 14 7
2.370670 -1.016724 -0.394462 60 48 27 0 0
2.376327 -1.032700 -0.399951 80 61 38 0 0
2.388387 -1.026972 -0.394737 47 36 20 0 0
2.404070 -1.025343 -0.389566 33 24 21 0 0
2.228807 -0.936161 -0.146013 139 128 132 14 7
2.212560 -0.930097 -0.145054 133 130 114 14 7
2.343502 -1.178800 -0.143323 119 119 137 14 7
2.359379 -1.311226 -0.345230 24 18 17 5 3
2.352278 -1.321355 -0.342239 24 18 17 5 3
2.657670 -0.448196 -0.150777 148 142 156 14 8
2.677731 -0.445396 -0.148189 148 145 155 14 8
2.668479 -0.435124 -0.151342 153 142 158 14 8
2.135069 -0.781598 0.220530 224 152 73 14 7
2.138428 -0.772005 0.236672 220 151 70 14 7
2.492749 -0.737635 -0.146693 115 127 129 14 7
2.702641 -1.398434 -0.390619 62 68 76 5 3
2.532253 -1.394910 -0.131305 165 144 121 14 7
2.594500 -1.299364 -0.172763 177 146 104 0 0
2.596750 -1.306549 -0.168335 166 134 89 0 0
2.603414 -1.295385 -0.162813 166 134 90 0 0
2.604737 -1.273326 -0.172116 158 130 90 0 0
2.203503 -0.482856 0.280222 170 110 60 0 0
2.205014 -0.500017 0.280637 171 116 57 0 0
2.202037 -0.481110 0.260236 192 135 77 14 8
2.163104 -0.463219 -0.106524 167 104 33 14 8
2.164541 -0.463200 -0.122834 155 96 47 14 8
2.188535 -0.468594 -0.128089 150 92 45 14 8
2.208776 -0.428283 0.234933 253 194 107 14 8
2.140459 -0.788568 0.278220 124 83 43 0 0
2.139566 -0.765937 0.265298 168 108 65 14 7
2.338647 -0.509512 0.031422 242 165 69 14 8
2.314147 -0.502534 0.026547 242 169 80 14 8
2.115535 -1.030596 0.298208 162 122 54 0 0
2.124224 -1.009794 0.305518 161 121 59 0 0
2.117658 -1.037046 0.317580 191 152 106 14 7
2.118903 -1.036284 0.309084 144 106 58 14 7
2.084055 -0.425150 0.163957 107 69 43 14 8
2.089617 -0.425221 0.188351 144 95 53 14 8
2.090487 -0.414132 0.179724 122 79 45 14 8
2.264072 -0.497252 0.147672 192 126 56 14 8
2.685441 -1.357956 -0.110483 104 93 82 5 3
2.299301 -0.878477 -0.146576 141 127 139 14 7
2.031978 -0.734394 0.006686 233 169 77 14 7
2.022117 -0.758654 0.014800 233 167 66 14 7
2.657035 -0.962766 -0.181448 45 34 36 0 0
2.642763 -0.959939 -0.184501 59 39 38 0 0
2.639811 -0.975756 -0.183860 43 31 19 0 0
2.164548 -0.460405 -0.138327 143 94 44 14 8
2.179023 -0.455840 -0.147214 93 73 58 14 8
2.168905 -0.438084 -0.151786 97 77 63 14 8
2.148301 -0.448582 -0.146570 108 76 60 14 8
2.079224 -1.173987 0.300868 155 96 44 0 0
2.420333 -1.111496 -0.142791 115 111 131 14 7
2.442553 -1.098847 -0.143714 121 119 122 14 7
2.042529 -1.030677 0.217601 155 108 47 14 7
2.028675 -1.047793 0.225311 134 89 41 14 7
2.528037 -0.680014 -0.145553 112 112 120 14 7
2.549359 -0.666379 -0.144601 115 113 128 14 7
2.562709 -0.680155 -0.145103 114 117 127 14 7
2.756862 -1.369524 -0.425452 120 95 72 5 3
2.156575 -0.675630 0.259694 204 126 66 14 7
2.165189 -0.680888 0.281186 129 84 59 0 0
2.153764 -0.701283 0.272982 136 89 55 0 0
2.030130 -1.141181 0.351263 252 245 232 14 7
2.018645 -1.127163 0.347597 239 229 215 14 7
2.789281 -1.366934 0.051371 138 143 157 5 3
2.785674 -1.383161 0.048948 126 128 139 5 3
2.114489 -1.366174 -0.141256 129 121 131 14 7
2.143941 -1.357815 -0.140554 129 127 136 14 7
2.635851 -1.229599 -0.366848 43 41 37 5 3
2.690457 -1.193351 -0.374851 32 36 36 5 3
2.733621 -1.178934 -0.234529 64 64 80 5 3
2.729323 -1.189338 -0.245399 68 72 77 5 3
2.727526 -1.198339 -0.242933 72 77 83 5 3
2.794710 -1.268857 -0.421862 108 105 67 5 3
2.689232 -1.053257 -0.353435 70 63 80 5 3
2.726158 -1.052485 -0.352402 75 77 82 5 3
2.128436 -0.739626 0.210919 217 149 74 14 7
2.134949 -0.746739 0.214181 217 150 66 14 7
2.143448 -0.739598 0.219460 221 153 63 14 7
2.465172 -0.964405 -0.357665 38 30 29 0 0
2.471058 -0.974783 -0.363284 41 29 24 0 0
2.489849 -0.974073 -0.359623 35 29 28 0 0
2.474995 -0.968631 -0.353138 39 28 21 5 3
2.527180 -1.144541 -0.420035 37 32 33 2 1
2.531312 -1.128831 -0.416900 36 37 33 2 1
2.822643 -1.336139 0.078321 139 142 160 5 3
2.134037 -0.960470 0.309826 218 186 122 14 7
2.126868 -0.997937 0.311396 235 207 162 14 7
2.131820 -0.962522 0.302722 183 134 74 0 0
2.230982 -0.560862 0.229941 200 135 67 14 7
2.262639 -0.551305 0.227575 189 136 70 14 7
2.283293 -0.545700 0.225756 212 151 76 14 7
2.279160 -0.532147 0.229647 254 238 157 14 7
2.264759 -0.530447 0.234349 254 239 166 14 7
2.258267 -0.561352 0.222668 173 121 71 14 7
2.250954 -0.544455 0.232839 219 165 89 14 7
2.727985 -1.342663 -0.046806 95 91 89 5 3
2.742406 -1.356755 -0.066725 45 43 42 5 3
2.322079 -0.506035 0.060672 242 170 79 14 8
2.753237 -1.161612 -0.164381 59 56 64 5 3
2.490918 -0.539559 -0.128765 227 165 85 14 8
2.032095 -0.723928 0.023797 241 169 79 14 7
2.037940 -0.691325 0.005560 239 165 71 14 7
2.037419 -0.722335 0.003262 240 168 80 14 7
2.034750 -0.734608 -0.003025 240 166 67 14 7
2.633321 -1.164621 -0.164606 30 21 16 0 0
2.630411 -1.161670 -0.169152 27 20 18 0 0
2.063012 -1.091834 0.352633 244 222 190 14 7
2.060650 -1.109025 0.353559 250 239 213 14 7
2.057100 -1.100821 0.348378 246 244 233 14 7
2.066433 -1.083162 0.347431 239 220 187 14 7
2.067174 -1.098474 0.354776 219 207 179 14 7
2.696476 -1.399238 -0.093512 49 51 50 5 3
2.703887 -1.395609 -0.083982 59 53 46 5 3
2.465671 -0.991040 -0.143222 116 121 129 14 7
2.232757 -0.476807 -0.136247 153 88 46 14 8
2.236046 -0.480108 -0.121655 150 87 52 14 8
2.653056 -1.016273 -0.325799 53 61 75 5 3
2.636634 -0.996680 -0.329233 62 62 58 5 3
2.652052 -1.002853 -0.324880 57 62 64 5 3
2.634842 -0.986061 -0.345116 70 59 57 0 0
2.634052 -0.991543 -0.334206 58 63 71 0 0
2.653412 -0.993343 -0.321041 64 59 65 5 3
2.650253 -0.981013 -0.330821 66 59 63 0 0
2.639517 -1.011174 -0.325615 64 69 64 5 3
2.067597 -0.734191 -0.146309 111 86 71 14 7
2.050276 -0.720208 -0.149669 144 103 58 14 7
2.052755 -0.759285 -0.146541 117 92 72 14 7
2.049464 -0.747622 -0.149181 120 89 71 14 7
2.077651 -0.762709 -0.144442 111 84 65 14 7
2.070191 -1.211856 0.336968 255 249 192 14 7
2.040642 -1.232565 0.345206 252 251 212 14 7
2.047071 -1.229956 0.345787 251 250 190 14 7
2.060191 -1.239308 0.339419 251 251 187 14 7
2.060201 -1.209848 0.342551 255 252 250 14 7
2.067886 -1.225231 0.337288 255 252 222 14 7
2.075799 -1.220796 0.321447 204 154 75 14 7
2.080641 -1.204778 0.321280 177 118 75 14 7
2.598403 -1.301328 -0.364161 45 46 42 5 3
2.611147 -1.316255 -0.365664 45 47 39 5 3
2.042939 -1.018707 0.219426 158 105 61 14 7
2.040454 -1.048601 0.218443 150 96 57 14 7
2.510773 -0.586113 0.102672 250 240 186 14 7
2.559652 -1.189371 -0.140336 112 123 129 14 7
2.781329 -1.289982 -0.022938 65 53 51 5 3
2.789011 -1.269991 -0.010522 77 65 45 5 3
2.873346 -1.064108 0.049595 106 114 125 5 3
2.877203 -1.065521 0.033899 137 124 104 5 3
2.860816 -1.074167 0.019265 126 126 129 5 3
2.503383 -1.071549 -0.394237 36 30 30 0 0
2.509893 -1.082342 -0.394155 34 33 34 0 0
2.687778 -1.012104 -0.370603 71 76 83 0 0
2.680651 -0.999786 -0.375892 60 55 58 0 0
2.678200 -0.997715 -0.389832 66 61 79 0 0
2.685306 -0.992446 -0.354903 44 51 46 0 0
2.676325 -0.990555 -0.383398 53 57 66 0 0
2.856845 -1.303572 0.097957 64 63 58 5 3
2.862208 -1.282267 0.096860 59 59 62 5 3
2.867808 -1.299000 0.093943 44 40 35 5 3
2.863225 -1.273646 0.117694 109 115 128 5 3
2.862034 -1.302486 0.111011 70 70 70 5 3
2.870892 -1.289328 0.108363 124 131 145 5 3
2.880538 -1.292739 0.109102 85 86 96 5 3
2.862623 -1.282126 0.111456 126 133 141 5 3
2.857297 -1.300761 0.115124 147 150 171 5 3
2.850644 -1.299815 0.103939 78 79 79 5 3
2.862233 -1.292722 0.120511 120 120 137 5 3
2.857363 -1.278270 0.108147 126 133 141 5 3
2.735311 -1.333930 -0.002731 168 154 154 5 3
2.755691 -1.316596 0.001237 101 100 96 5 3
2.662091 -0.653434 0.002638 129 115 119 14 7
2.664835 -0.640435 0.004692 129 123 119 14 7
2.680145 -0.637593 -0.001662 128 117 118 14 7
2.668448 -0.647122 -0.003738 128 117 125 14 7
2.045449 -0.687166 -0.037491 180 122 49 14 7
2.819920 -1.173163 0.012888 127 120 123 5 3
2.808184 -1.209419 0.010543 73 61 45 5 3
2.806001 -1.188165 -0.001837 79 63 49 5 3
2.814365 -1.194096 0.013235 96 85 80 5 3
2.199054 -0.446093 -0.151117 93 67 62 14 8
2.212787 -0.471773 -0.138386 141 91 39 14 8
2.204002 -0.459695 -0.147711 131 89 37 14 8
2.603731 -1.238834 -0.144195 254 236 120 14 7
2.557461 -1.242929 -0.138037 116 117 128 14 7
2.577642 -1.245540 -0.136912 126 120 128 14 7
2.701621 -1.381157 -0.286953 62 71 73 5 3
2.699481 -1.397755 -0.314328 70 69 76 5 3
2.838960 -1.395687 0.077708 94 96 109 5 3
2.841898 -1.380195 0.088773 72 67 66 5 3
2.833312 -1.395800 0.095217 55 43 56 5 3
2.191937 -0.473720 0.033291 165 100 56 14 8
2.479980 -0.531765 -0.142608 195 150 111 14 8
2.499730 -0.518243 -0.156017 161 152 144 14 8
2.473075 -0.511607 -0.158127 158 149 149 0 0
2.485114 -0.508807 -0.156667 163 148 145 0 0
2.882346 -1.068455 0.028545 66 63 58 5 3
2.401240 -1.202304 -0.355923 23 19 17 5 3
2.894554 -1.087554 0.066901 64 66 64 5 3
2.121255 -0.858617 0.253461 162 99 54 14 7
2.123333 -0.885507 0.280720 130 85 55 0 0
2.125229 -0.866781 0.276899 125 83 65 0 0
2.121802 -0.861300 0.269095 142 85 56 14 7
2.768248 -0.494846 -0.167504 97 62 28 14 7
2.766442 -0.486182 -0.173663 91 63 33 0 0
2.055921 -1.064616 0.213194 146 87 48 14 7
2.035167 -1.070597 0.218513 150 96 57 14 7
2.683456 -1.009209 -0.385466 70 74 80 0 0
2.671148 -1.001633 -0.415783 58 59 64 0 0
2.664285 -0.985893 -0.386126 66 62 70 0 0
2.682076 -1.006013 -0.401561 59 58 70 0 0
2.664547 -0.993109 -0.400758 62 63 64 0 0
2.662856 -0.994268 -0.409658 57 64 56 0 0
2.670079 -1.010494 -0.422270 67 62 70 0 0
2.036270 -0.698826 0.157815 153 101 53 14 7
2.027637 -0.717548 0.139615 156 96 61 14 7
2.034636 -0.696042 0.146358 157 106 50 14 7
2.341778 -0.510611 0.056110 241 172 66 14 8
2.356857 -0.516666 0.086423 244 170 80 14 8
2.804812 -1.103968 -0.097470 56 57 56 5 3
2.808986 -1.094892 -0.109867 53 57 49 5 3
2.798757 -1.100554 -0.123835 59 57 63 5 3
2.810256 -1.095003 -0.125869 58 49 62 5 3
2.793067 -1.109960 -0.116745 61 62 69 5 3
2.402313 -1.168620 -0.143662 123 114 128 14 7
2.376937 -1.180291 -0.142914 121 116 126 14 7
2.528312 -1.064281 -0.390734 31 32 35 0 0
2.528519 -1.078327 -0.393338 55 57 67 0 0
2.547920 -1.074072 -0.391448 47 60 59 0 0
2.558019 -1.066004 -0.387872 50 56 41 0 0
2.551693 -1.217192 -0.356292 43 46 50 5 3
2.583492 -1.201880 -0.359289 43 46 47 5 3
2.360903 -0.472797 -0.161179 144 141 152 14 8
2.345008 -0.478883 -0.151965 147 139 147 14 8
2.353447 -0.484259 -0.152150 151 141 146 14 8
2.369891 -0.504778 -0.143088 203 155 106 14 8
2.331050 -0.493009 -0.146567 198 149 111 14 8
2.303817 -0.416548 -0.162896 121 120 131 14 8
2.303455 -0.411429 -0.167355 118 121 128 14 8
2.056939 -1.297325 0.315392 196 147 83 14 7
2.051490 -1.322140 0.333731 254 253 239 14 7
2.449926 -1.362808 -0.142095 132 137 143 14 7
2.441149 -1.326671 -0.141282 110 112 125 14 7
2.430820 -1.342899 -0.141951 111 110 118 14 7
2.127018 -0.834742 0.228590 220 144 73 14 7
2.127454 -0.823249 0.250610 221 145 80 14 7
2.121263 -0.850920 0.220765 214 145 75 14 7
2.021220 -1.112286 0.226848 186 127 58 14 7
2.029304 -1.100979 0.223572 183 125 60 14 7
2.035280 -1.089239 0.217649 151 99 58 14 7
2.032228 -1.078420 0.224244 182 123 65 14 7
2.021339 -1.091483 0.225561 179 120 60 14 7
2.035001 -1.279337 0.296502 129 84 59 14 7
2.048974 -1.311984 0.308496 131 92 50 14 7
2.308699 -0.596705 0.144567 227 173 81 14 7
2.680195 -1.134417 -0.422288 32 32 29 5 3
2.668892 -1.128889 -0.415035 29 28 28 5 3
2.657248 -1.141800 -0.417363 59 57 50 5 3
2.677720 -1.113113 -0.408500 73 70 58 5 3
2.653442 -1.116965 -0.406552 53 48 41 5 3
2.198647 -0.474010 -0.047578 174 106 47 14 8
2.183240 -0.599150 0.229004 214 141 58 14 7
2.192636 -0.587071 0.223603 217 142 58 14 7
2.190680 -0.578248 0.246439 218 147 64 14 7
2.195035 -0.584184 0.234118 222 141 70 14 7
2.752994 -1.268407 -0.053859 87 79 77 5 3
2.750992 -1.264572 -0.069315 67 63 57 5 3
2.339588 -1.394436 -0.142723 114 109 130 14 7
2.628180 -0.585511 0.029294 255 254 246 14 7
2.627586 -0.579624 0.026491 255 254 230 14 7
2.697849 -0.588981 -0.045010 253 201 112 14 8
2.582648 -1.290505 -0.361330 52 50 51 5 3
2.555398 -1.280755 -0.357212 58 54 51 5 3
2.731122 -0.669670 -0.168640 64 36 29 0 0
2.733625 -0.637863 -0.175334 96 68 48 0 0
2.739422 -0.634756 -0.166600 66 40 21 14 7
2.859045 -1.078887 -0.039387 63 64 66 5 3
2.852858 -1.098476 -0.049369 56 57 79 5 3
2.850695 -1.113284 -0.054843 64 55 68 5 3
2.212123 -0.517832 0.263941 242 174 94 14 7
2.212111 -0.497110 0.262416 243 176 89 14 8
2.454497 -0.683597 -0.145548 117 112 126 14 7
2.491318 -0.675268 -0.146034 121 113 127 14 7
2.154309 -0.414800 -0.167483 93 69 57 14 8
2.152984 -0.420350 -0.178251 91 73 53 14 8
2.389798 -0.593978 0.142130 239 172 60 14 7
2.397371 -0.588546 0.146927 237 167 70 14 7
2.370936 -0.593636 0.130813 240 172 74 14 7
2.391020 -0.594897 0.122379 243 176 82 14 7
2.406251 -1.314403 -0.349764 34 30 25 5 3
2.418670 -1.323506 -0.349995 47 37 30 5 3
2.587194 -0.644256 -0.040025 136 117 121 14 7
2.566525 -0.641018 -0.030019 156 131 118 14 7
2.586540 -0.642540 -0.013027 150 131 112 14 7
2.156886 -0.824835 0.352380 236 229 221 0 0
2.262031 -0.746780 -0.145222 133 116 118 14 7
2.528379 -1.201378 -0.141321 110 117 129 14 7
2.487117 -1.191168 -0.140315 106 119 121 14 7
2.773499 -1.101885 -0.205602 81 78 81 5 3
2.782663 -1.100402 -0.215500 101 92 113 5 3
2.767727 -1.111528 -0.193649 61 63 70 5 3
2.783749 -1.370568 0.072165 143 144 159 5 3
2.774137 -1.381807 0.065677 146 145 154 5 3
2.756962 -1.401811 0.063796 142 143 145 5 3
2.708395 -1.368937 -0.081267 110 95 86 5 3
2.704122 -1.361709 -0.082657 92 80 67 5 3
2.698634 -1.341018 -0.094985 89 79 79 5 3
2.597415 -1.045676 -0.403400 29 26 32 0 0
2.617639 -1.024469 -0.414199 22 29 32 0 0
2.712100 -1.358441 -0.077927 89 74 77 5 3
2.612343 -1.020114 -0.396203 52 43 59 0 0
2.603198 -1.035220 -0.404735 29 28 27 0 0
2.629265 -1.010229 -0.404207 29 28 29 0 0
2.709423 -1.345230 -0.083634 115 98 79 5 3
2.483027 -0.543553 0.018422 238 165 83 14 8
2.488647 -0.544160 -0.008578 229 159 74 14 8
2.510658 -0.547475 -0.004828 233 158 75 14 8
2.845669 -1.111164 0.047751 168 152 133 5 3
2.616852 -1.243862 -0.160553 132 103 68 14 7
2.800699 -1.117816 -0.361446 67 70 75 5 3
2.746492 -1.283092 -0.146203 56 65 56 5 3
2.756188 -1.266903 -0.126203 52 49 53 5 3
2.741985 -1.312355 -0.122826 53 51 53 5 3
2.067510 -0.934502 -0.142567 113 84 71 14 7
2.108145 -1.029030 0.334447 254 253 250 14 7
2.100291 -1.022635 0.336521 252 254 247 14 7
2.119077 -0.452966 -0.027371 181 110 39 14 8
2.756043 -1.126082 -0.240512 47 50 56 5 3
2.751477 -1.148995 -0.266079 44 46 56 5 3
2.759633 -1.127445 -0.250999 46 46 44 5 3
2.765425 -1.114654 -0.230596 41 40 43 5 3
2.776958 -1.117173 -0.248815 46 49 52 5 3
2.801141 -1.111276 -0.423573 63 69 72 5 3
2.813709 -1.111197 -0.420458 75 66 86 5 3
2.791961 -1.117035 -0.403501 85 87 95 5 3
2.806493 -1.115283 -0.408322 98 106 120 5 3
2.798382 -1.114863 -0.387407 74 66 62 5 3
2.039896 -0.702938 -0.005363 236 164 78 14 7
2.037267 -0.713562 -0.045078 219 150 79 14 7
2.040996 -0.706766 -0.022418 233 164 73 14 7
2.039155 -0.692434 -0.018144 218 154 64 14 7
2.708259 -1.381471 -0.059355 94 88 88 5 3
2.717959 -1.360757 -0.052283 101 89 91 5 3
2.714983 -1.371986 -0.047770 76 73 75 5 3
2.713598 -1.403786 -0.034569 62 56 48 5 3
2.719179 -1.397798 -0.041623 62 56 48 5 3
2.708729 -1.395238 -0.051894 57 50 54 5 3
2.717330 -1.383258 -0.054497 61 57 57 5 3
2.715203 -1.388006 -0.061641 59 55 58 5 3
2.122491 -0.666826 0.208498 180 120 63 14 7
2.135362 -0.680553 0.210484 199 131 52 14 7
2.119837 -0.684976 0.209349 163 111 50 14 7
2.539382 -0.551202 -0.122534 231 164 93 14 8
2.538774 -0.550693 -0.103069 234 164 105 14 8
2.698585 -0.588644 -0.075180 237 173 101 14 8
2.703016 -0.597255 -0.084078 254 212 106 14 8
2.753481 -1.212181 -0.120312 57 54 44 5 3
2.749357 -1.222817 -0.124778 64 60 60 5 3
2.383236 -0.521313 0.048922 241 168 75 14 8
2.242629 -0.416903 0.335983 254 255 250 0 0
2.641581 -1.029420 -0.342648 70 66 75 5 3
2.658717 -1.039054 -0.344075 64 63 72 5 3
2.151406 -0.740530 0.278432 148 98 62 0 0
2.612455 -0.647432 -0.085751 116 111 118 14 7
2.601639 -0.646439 -0.075802 152 131 112 14 7
2.887840 -1.062823 0.057226 118 116 138 5 3
2.789086 -1.136148 -0.186627 74 60 83 5 3
2.452311 -0.613083 0.074993 205 144 66 14 7
2.309225 -0.790441 -0.145419 136 130 136 14 7
2.299723 -0.772699 -0.144971 137 131 131 14 7
2.595347 -1.412415 -0.359843 53 53 62 5 3
2.137110 -1.103517 -0.143208 107 88 68 14 7
2.354121 -0.469932 -0.184382 142 128 120 0 0
2.360705 -0.462766 -0.167955 150 144 149 14 8
2.355476 -0.460315 -0.176545 149 143 147 0 0
2.347984 -0.443097 -0.164988 139 137 150 0 0
2.356569 -0.447881 -0.164782 137 138 144 0 0
2.348637 -0.467093 -0.190779 81 72 71 0 0
2.357276 -0.460634 -0.191094 82 73 70 0 0
2.364039 -0.467890 -0.175978 155 143 154 14 8
2.363197 -0.457129 -0.172181 151 138 140 0 0
2.339481 -0.460679 -0.166021 143 143 146 0 0
2.353100 -0.461152 -0.166560 146 146 150 0 0
2.676648 -0.875255 -0.146414 254 255 175 14 7
2.663241 -0.828164 -0.141249 242 238 157 14 7
2.683720 -0.864026 -0.148263 254 245 164 14 7
2.082870 -1.038541 -0.143866 112 91 61 14 7
2.101877 -1.048668 -0.143423 109 85 73 14 7
2.078389 -1.023650 -0.142996 118 91 72 14 7
2.110504 -0.997968 -0.145631 107 84 72 14 7
2.843377 -1.210501 0.055688 156 158 181 5 3
2.329983 -0.504448 -0.058078 245 172 76 14 8
2.304158 -0.497512 -0.060890 239 165 81 14 8
2.703741 -0.678076 -0.188711 112 67 39 0 0
2.713007 -0.676900 -0.185368 74 42 15 0 0
2.718759 -0.656682 -0.184667 63 47 18 0 0
2.625160 -1.200394 -0.166386 27 21 17 0 0
2.485453 -0.538078 -0.109578 231 165 89 14 8
2.389360 -1.091221 -0.142757 122 121 125 14 7
2.373796 -1.100207 -0.142958 127 121 126 14 7
2.144065 -0.839247 0.349141 190 190 167 0 0
2.144058 -0.825470 0.354153 188 176 158 0 0
2.111686 -1.065794 0.307652 162 119 73 14 7
2.894325 -1.120716 0.062087 125 134 157 5 3
2.896635 -1.139997 0.069369 140 153 174 5 3
2.026233 -0.773331 -0.084132 174 117 66 14 7
2.020291 -0.787255 -0.076578 243 171 66 14 7
2.709981 -1.381156 -0.401246 62 67 66 5 3
2.723157 -1.342976 -0.387703 65 69 75 5 3
2.725849 -1.353501 -0.412404 52 63 73 5 3
2.255554 -1.389974 -0.141324 140 134 163 14 7
2.169421 -1.190450 -0.141412 135 132 136 14 7
2.217451 -1.213376 -0.142750 140 129 125 14 7
2.506658 -1.112033 -0.409225 40 39 44 0 0
2.496470 -1.121290 -0.409749 49 47 41 0 0
2.513166 -1.135559 -0.417776 37 40 41 0 0
2.497440 -1.138217 -0.422438 41 38 39 0 0
2.498719 -1.125707 -0.416069 31 32 40 0 0
2.595354 -1.320376 -0.162786 197 155 100 0 0
2.867845 -1.363778 0.131768 171 178 208 5 3
2.867310 -1.345390 0.131700 168 171 205 5 3
2.851297 -1.361933 0.128356 111 113 138 5 3
2.869532 -1.365512 0.126186 93 94 97 5 3
2.881606 -1.330561 0.123173 87 86 97 5 3
2.877324 -1.333430 0.131709 168 175 200 5 3
2.510314 -1.095372 -0.143125 112 117 125 14 7
2.519033 -1.083216 -0.142856 108 113 127 14 7
2.482309 -0.540806 -0.193917 82 76 67 0 0
2.119437 -1.314005 -0.140422 112 97 85 14 7
2.738710 -1.285487 -0.317453 69 69 67 5 3
2.058460 -1.303728 0.321109 219 176 99 14 7
2.060833 -1.280180 0.325065 251 250 226 14 7
2.045737 -1.299563 0.340335 254 255 193 14 7
2.060560 -1.267272 0.332564 254 254 212 14 7
2.057433 -1.301876 0.329568 255 254 229 14 7
2.061796 -1.268206 0.317100 220 176 106 14 7
2.705538 -1.100651 -0.369483 59 66 71 5 3
2.740148 -1.294513 -0.375578 71 70 79 5 3
2.733832 -1.305237 -0.345078 70 72 77 5 3
2.431569 -0.426323 -0.157781 140 138 154 14 8
2.448027 -0.416831 -0.156755 144 140 155 14 8
2.441481 -0.417265 -0.161975 134 131 137 14 8
2.701372 -0.573082 -0.144619 155 147 162 14 7
2.706807 -0.538604 -0.144787 151 149 164 14 7
2.192658 -0.858873 -0.145724 110 89 67 14 7
2.525773 -0.977911 -0.143569 119 117 128 14 7
2.490783 -0.956544 -0.144586 112 119 132 14 7
2.552525 -0.961611 -0.143250 118 122 135 14 7
2.610964 -0.933137 -0.143692 121 116 136 14 7
2.712949 -1.363707 -0.340953 71 66 77 5 3
2.418120 -0.423246 -0.154452 136 137 149 14 8
2.442037 -0.414763 -0.152993 134 137 157 14 8
2.765563 -1.219269 -0.154362 65 64 75 5 3
2.630434 -1.187091 -0.363985 41 46 55 5 3
2.109484 -0.982725 -0.146596 112 86 72 14 7
2.138630 -0.975479 -0.145771 112 86 72 14 7
2.685532 -1.406993 -0.244740 57 54 59 5 3
2.180104 -1.149389 -0.141169 131 122 117 14 7
2.118556 -0.445232 0.196339 161 110 62 14 8
2.871045 -1.258099 0.053741 120 129 140 5 3
2.138525 -0.442785 0.201619 166 114 67 14 8
2.133772 -0.414278 0.207028 160 113 63 14 8
2.127284 -0.428057 0.205745 169 119 62 14 8
2.818696 -1.089042 -0.110015 60 56 56 5 3
2.816945 -1.109208 -0.115457 54 51 37 5 3
2.817193 -1.096556 -0.116585 59 45 65 5 3
2.169959 -1.046235 -0.145099 126 113 109 14 7
2.151809 -1.062068 -0.144255 116 95 79 14 7
2.170326 -1.065999 -0.143213 124 105 95 14 7
2.221584 -0.683847 -0.148555 43 34 31 14 7
2.226557 -0.693814 -0.146638 78 64 51 14 7
2.632184 -0.435819 -0.158935 117 109 114 14 8
2.658614 -0.428354 -0.154543 141 126 136 14 8
2.718570 -1.342397 -0.176292 62 58 68 5 3
2.708354 -1.359083 -0.193578 60 53 76 5 3
2.010409 -1.307180 0.224218 222 152 72 14 7
2.751427 -1.169345 -0.288146 63 66 60 5 3
2.740500 -1.188352 -0.270518 60 62 65 5 3
2.739558 -1.194822 -0.281279 36 35 36 5 3
2.090190 -1.112360 0.347988 239 235 234 14 7
2.080872 -1.096633 0.351094 239 232 204 14 7
2.080382 -1.088488 0.349828 246 237 223 14 7
2.736176 -1.166848 -0.226262 50 63 72 5 3
2.748035 -1.138906 -0.208051 55 62 71 5 3
2.737853 -1.174084 -0.214719 49 62 71 5 3
2.740084 -1.164576 -0.203930 56 58 72 5 3
2.640892 -0.648953 -0.066397 121 115 117 14 7
2.661509 -0.642237 -0.092335 114 107 109 14 7
2.650651 -0.646790 -0.077437 120 114 118 14 7
2.635449 -0.646283 -0.090919 122 115 123 14 7
2.423171 -1.014104 -0.386545 38 32 22 0 0
2.431870 -1.046733 -0.389727 72 51 39 0 0
2.435072 -1.036127 -0.388995 30 26 22 0 0
2.416707 -1.044188 -0.388855 47 40 30 0 0
2.408706 -1.038207 -0.389486 44 38 28 0 0
2.094433 -0.972346 0.342615 191 191 185 14 7
2.105272 -0.981146 0.337361 191 190 184 14 7
2.768736 -0.459012 -0.154450 253 254 206 14 7
2.754874 -0.475557 -0.147973 254 253 195 14 7
2.763697 -0.441825 -0.147942 254 255 194 14 7
2.096440 -0.983945 0.240836 214 142 73 14 7
2.776054 -0.427811 -0.155538 241 217 108 0 0
2.776497 -0.404934 -0.148113 254 254 192 0 0
2.195225 -1.048994 -0.144082 140 125 125 14 7
2.198357 -1.066892 -0.144279 132 119 114 14 7
2.027334 -1.123085 0.218405 131 89 47 14 7
2.043677 -1.149088 0.215824 136 89 49 14 7
2.039347 -1.135467 0.214051 137 91 56 14 7
2.080947 -1.140860 0.341511 255 251 246 14 7
2.040653 -1.138677 0.347882 237 231 232 14 7
2.064491 -1.141942 0.347496 223 220 221 14 7
2.047750 -1.124807 0.345905 191 188 188 14 7
2.611341 -1.176338 -0.182014 25 20 19 0 0
2.607438 -1.192314 -0.181883 23 21 22 0 0
2.597126 -1.183590 -0.180663 179 145 95 0 0
2.595870 -1.199311 -0.184282 171 141 91 0 0
2.620353 -1.187762 -0.174591 20 18 20 0 0
2.016890 -1.277663 0.355108 244 239 230 14 7
2.579042 -1.077319 -0.408177 28 28 27 0 0
2.573866 -1.068892 -0.420538 27 29 31 2 1
2.585541 -1.065251 -0.398833 55 50 62 0 0
2.575829 -1.078530 -0.401424 41 46 39 0 0
2.581335 -1.067289 -0.415596 29 25 29 0 0
2.588701 -1.060101 -0.411669 26 26 30 0 0
2.592000 -1.047672 -0.394894 51 41 46 0 0
2.565672 -1.080955 -0.396514 50 46 54 0 0
2.570693 -1.066260 -0.389949 53 52 54 0 0
2.582965 -1.044052 -0.383879 47 56 41 0 0
2.129598 -0.861303 0.339926 238 237 216 14 7
2.142267 -0.835397 0.337883 254 253 235 0 0
2.211625 -0.485138 0.170797 155 92 44 14 8
2.253919 -0.495901 0.185014 173 107 38 14 8
2.401021 -0.834240 -0.147765 141 129 136 14 7
2.122081 -1.213026 -0.139585 105 90 79 14 7
2.136258 -1.188312 -0.140848 125 105 102 14 7
2.602437 -0.531780 -0.170167 157 142 152 0 0
2.624793 -0.515053 -0.168809 150 143 155 0 0
2.614436 -0.506118 -0.169778 125 115 105 0 0
2.305395 -0.502057 0.074704 240 168 70 14 8
2.273693 -0.495557 0.071671 228 156 72 14 8
2.290522 -0.497688 0.053672 234 160 76 14 8
2.681170 -1.052538 -0.351924 67 64 80 5 3
2.670720 -0.560229 -0.171389 148 130 116 0 0
2.663097 -0.550401 -0.170908 155 145 146 0 0
2.678942 -0.545826 -0.168933 160 141 125 0 0
2.658489 -0.571055 -0.176895 157 141 125 0 0
2.435647 -1.115005 -0.360000 26 20 16 5 3
2.407883 -1.126472 -0.360381 24 20 14 5 3
2.389468 -1.139439 -0.364244 25 28 24 5 3
2.405978 -1.142292 -0.360207 23 19 14 5 3
2.830284 -1.143150 0.013788 98 92 100 5 3
2.833217 -1.124338 0.011261 103 101 114 5 3
2.842093 -1.374061 0.095265 40 43 41 5 3
2.825576 -1.397255 0.098324 54 53 49 5 3
2.820662 -1.371080 0.100698 124 117 120 5 3
2.825495 -1.389500 0.100169 86 82 87 5 3
2.840380 -1.365258 0.114151 146 153 170 5 3
2.826534 -1.138175 0.003716 149 114 114 5 3
2.839740 -1.371119 0.122604 170 175 198 5 3
2.842047 -1.376537 0.111291 78 80 78 5 3
2.829514 -1.387905 0.113505 75 70 74 5 3
2.833452 -1.388654 0.110524 74 72 72 5 3
2.839534 -1.402327 0.109598 54 48 51 5 3
2.344513 -0.675031 -0.147786 96 87 91 14 7
2.370659 -0.690856 -0.147773 129 117 123 14 7
2.361380 -0.683993 -0.146041 128 113 115 14 7
2.671259 -1.078477 -0.359979 62 60 85 5 3
2.663498 -1.066037 -0.355548 68 68 58 5 3
2.677101 -1.056363 -0.389093 73 76 72 5 3
2.677197 -1.045044 -0.381908 77 82 79 5 3
2.770059 -1.184986 -0.245503 65 67 70 5 3
2.764591 -1.195947 -0.232217 73 71 74 5 3
2.025991 -1.161571 0.351722 252 230 172 14 7
2.033030 -1.148484 0.354159 253 247 215 14 7
2.020762 -1.154622 0.349864 252 253 235 14 7
2.043638 -1.149924 0.355034 223 218 218 14 7
2.038180 -1.159741 0.357277 247 236 226 14 7
2.356648 -0.604067 0.099532 221 157 72 14 7
2.357390 -0.605080 0.114546 241 167 91 14 7
2.343802 -0.604998 0.119932 214 154 68 14 7
2.655127 -0.646606 -0.138750 121 109 123 14 7
2.660749 -0.637581 -0.127428 115 105 127 14 7
2.631886 -0.645586 -0.133095 111 116 124 14 7
2.635274 -0.657249 -0.145225 114 108 123 14 7
2.370829 -1.289831 -0.349606 23 20 13 5 3
2.360698 -1.291002 -0.341760 26 18 15 5 3
2.357346 -1.276882 -0.345832 21 19 13 5 3
2.356431 -0.512391 -0.016578 235 160 73 14 8
2.113091 -1.116756 -0.141756 113 84 93 14 7
2.092819 -1.114784 -0.140048 113 89 75 14 7
2.104100 -1.135051 -0.140500 116 90 75 14 7
2.327553 -1.087273 -0.143323 127 123 130 14 7
2.308386 -1.107580 -0.142895 127 122 128 14 7
2.685207 -0.643750 -0.040618 114 110 121 14 7
2.690672 -0.636909 -0.053137 116 109 114 14 7
2.673460 -0.647554 -0.050983 113 112 118 14 7
2.679159 -0.642143 -0.069763 113 114 110 14 7
2.663085 -1.022616 -0.162902 32 23 22 0 0
2.666420 -0.990418 -0.166352 53 30 25 0 0
2.166827 -0.768298 0.319034 255 254 253 0 0
2.160885 -0.772823 0.339014 252 253 246 0 0
2.161132 -0.778911 0.327811 254 254 245 0 0
2.162274 -0.793456 0.324905 254 254 254 0 0
2.164443 -0.772746 0.335386 253 252 241 0 0
2.132790 -0.841697 -0.146103 114 88 78 14 7
2.167056 -0.830439 -0.145032 112 91 66 14 7
2.468643 -1.032294 -0.144190 120 117 133 14 7
2.116449 -0.893799 0.272423 137 88 55 0 0
2.114924 -0.913331 0.275298 145 92 51 0 0
2.183675 -0.678276 0.328664 254 254 246 0 0
2.188688 -0.664577 0.334683 255 254 249 0 0
2.185350 -0.684046 0.321143 255 252 236 0 0
2.180866 -0.682749 0.339478 252 254 247 0 0
2.181543 -0.689416 0.336230 252 254 247 0 0
2.117987 -0.431698 0.202105 150 102 51 14 8
2.104291 -0.425658 0.197675 114 71 51 14 8
2.099384 -0.439571 0.192397 116 72 55 14 8
2.089403 -0.439479 0.182741 161 111 59 14 8
2.528662 -1.057474 -0.353684 68 62 68 5 3
2.488647 -1.059255 -0.356128 32 37 38 5 3
2.095320 -0.415070 0.195412 150 109 50 14 8
2.049260 -0.700211 -0.123360 157 108 45 14 7
2.485072 -0.538861 -0.086986 237 169 89 14 8
2.470747 -0.536909 -0.081703 240 172 93 14 8
2.581997 -0.643368 0.005196 136 115 106 14 7
2.589737 -0.650021 0.025460 88 70 64 14 7
2.575634 -0.639340 0.016394 88 71 59 14 7
2.569169 -0.644449 -0.007414 182 133 62 14 7
2.774807 -1.199527 -0.172312 68 62 70 5 3
2.669190 -1.026914 -0.423160 75 68 81 0 0
2.513690 -0.613528 0.079944 57 43 48 14 7
2.531820 -0.606672 0.081608 144 102 58 14 7
2.527613 -0.617835 0.063733 125 91 66 14 7
2.509895 -0.606519 0.088688 114 85 55 14 7
2.817607 -1.165255 -0.043578 51 44 54 5 3
2.798633 -1.176556 -0.037172 80 68 60 5 3
2.502226 -1.207853 -0.141759 107 115 126 14 7
2.475607 -1.212457 -0.141397 109 116 128 14 7
2.488642 -1.230162 -0.141625 107 113 119 14 7
2.124749 -0.720918 -0.149368 76 59 56 14 7
2.157322 -0.711333 -0.147443 74 66 53 14 7
2.172372 -0.695467 -0.145564 37 33 27 14 7
2.141950 -0.697083 -0.148791 57 48 56 14 7
2.875085 -1.304264 0.128962 130 133 152 5 3
2.014323 -1.357966 0.287326 159 104 52 14 7
2.014367 -1.380237 0.295282 137 89 48 14 7
2.036483 -1.356226 0.304677 140 86 60 14 7
2.025468 -1.329654 0.295889 139 86 54 14 7
2.571509 -1.228793 -0.136242 110 114 127 14 7
2.583066 -1.227436 -0.136660 203 181 118 14 7
2.567243 -1.220131 -0.138078 114 117 128 14 7
2.270323 -0.840582 -0.146934 141 128 130 14 7
2.235170 -0.830237 -0.145766 129 116 117 14 7
2.606179 -1.137349 -0.359187 48 50 57 5 3
2.591962 -1.110914 -0.356689 51 57 59 5 3
2.606564 -1.092614 -0.357878 53 51 62 5 3
2.674919 -0.413476 -0.151919 151 140 154 14 8
2.689586 -0.423881 -0.149644 149 138 150 14 8
2.193216 -1.246398 -0.140342 136 136 146 14 7
2.411791 -1.231721 -0.355682 34 26 24 5 3
2.819211 -1.136005 -0.021579 54 45 48 5 3
2.805487 -1.164330 -0.031732 150 124 91 5 3
2.166489 -0.469772 0.068047 167 99 51 14 8
2.443693 -0.483895 -0.177952 148 127 128 0 0
2.449204 -0.475666 -0.175440 147 127 128 0 0
2.429466 -0.497288 -0.179394 157 139 136 0 0
2.452257 -0.489641 -0.180450 148 129 127 0 0
