ply
format ascii 1.0
element vertex 1122
property float x
property float y
property float z
property uchar red
property uchar green
property uchar blue
property uchar semantic_label
property uchar instance_label
end_header
0.358077 -0.040369 -0.003717 0 255 0 62 14
0.350259 -0.042303 0.009151 0 255 0 62 14
0.502567 -0.124147 0.015109 0 255 0 62 14
0.408705 -0.118671 0.009355 0 255 0 62 14
0.358400 -0.015772 -0.003717 0 255 0 62 14
0.360193 -0.177379 0.014766 0 255 0 62 14
0.484795 -0.105169 0.007291 0 255 0 62 14
0.362608 0.007153 0.006283 0 255 0 62 14
0.489909 -0.141691 0.007295 0 255 0 62 14
0.367977 -0.067707 0.014283 0 255 0 62 14
0.360015 -0.119794 0.014660 0 255 0 62 14
0.496330 -0.038935 0.009329 0 255 0 62 14
0.502667 -0.021619 0.009405 0 255 0 62 14
0.399044 -0.184205 0.014436 0 255 0 62 14
0.464980 -0.183520 0.004282 0 255 0 62 14
0.444021 -0.150307 0.015284 0 255 0 62 14
0.466779 -0.096958 0.014964 0 255 0 62 14
0.398005 -0.050074 0.015024 0 255 0 62 14
0.482188 -0.138172 0.015043 0 255 0 62 14
0.372934 -0.074394 0.014383 0 255 0 62 14
0.361390 -0.149173 -0.001718 0 255 0 62 14
0.497781 0.008583 0.014805 0 255 0 62 14
0.360504 -0.098259 0.014928 0 255 0 62 14
0.384158 -0.087280 0.014984 0 255 0 62 14
0.357967 -0.163264 0.006283 0 255 0 62 14
0.506297 -0.139834 0.014630 0 255 0 62 14
0.455200 0.031096 0.009398 0 255 0 62 14
0.460719 -0.069331 0.014856 0 255 0 62 14
0.380572 -0.163353 0.014585 0 255 0 62 14
0.384352 -0.127777 0.014705 0 255 0 62 14
0.436189 -0.020851 0.009368 0 255 0 62 14
0.484634 -0.030496 0.009399 0 255 0 62 14
0.407894 0.009138 0.009308 0 255 0 62 14
0.476619 -0.089009 0.009422 0 255 0 62 14
0.367361 -0.173709 0.000283 0 255 0 62 14
0.467597 0.020785 0.009296 0 255 0 62 14
0.436838 -0.073989 0.009458 0 255 0 62 14
0.492878 0.021696 0.009351 0 255 0 62 14
0.459074 -0.076352 0.009368 0 255 0 62 14
0.438628 -0.158728 0.015024 0 255 0 62 14
0.365581 0.068051 0.006283 0 255 0 62 14
0.416839 0.059458 0.009350 0 255 0 62 14
0.431953 -0.043787 0.009390 0 255 0 62 14
0.419574 -0.016388 0.009431 0 255 0 62 14
0.375769 -0.047712 0.015015 0 255 0 62 14
0.494689 -0.177317 0.004282 0 255 0 62 14
0.388360 -0.098520 0.014979 0 255 0 62 14
0.363373 -0.037400 0.009430 0 255 0 62 14
0.455717 -0.158746 0.015254 0 255 0 62 14
0.371617 0.014792 0.011515 0 255 0 62 14
0.449430 -0.124797 0.009429 0 255 0 62 14
0.405776 -0.002330 0.009291 0 255 0 62 14
0.432948 0.016370 0.009374 0 255 0 62 14
0.394874 -0.138789 0.014439 0 255 0 62 14
0.492028 -0.130223 0.014567 0 255 0 62 14
0.432181 -0.050108 0.014588 0 255 0 62 14
0.353472 0.003738 0.000283 0 255 0 62 14
0.373473 -0.001596 0.009373 0 255 0 62 14
0.423702 -0.104523 0.008282 0 255 0 62 14
0.383491 -0.051231 0.014854 0 255 0 62 14
0.488593 -0.052504 0.014825 0 255 0 62 14
0.353533 -0.156380 -0.009718 0 255 0 62 14
0.420485 -0.041669 0.009322 0 255 0 62 14
0.444315 -0.088275 0.009456 0 255 0 62 14
0.353007 -0.017788 0.006283 0 255 0 62 14
0.511056 -0.061186 0.013222 0 255 0 62 14
0.465740 0.037172 0.009356 0 255 0 62 14
0.435177 -0.098098 0.014780 0 255 0 62 14
0.480609 -0.076840 0.009383 0 255 0 62 14
0.505352 -0.148728 -0.003524 0 255 0 62 14
0.507672 -0.063559 -0.009718 0 255 0 62 14
0.454755 -0.184727 -0.008120 0 255 0 62 14
0.433532 -0.105118 0.009368 0 255 0 62 14
0.425723 -0.161419 0.008282 0 255 0 62 14
0.472577 -0.152441 0.014453 0 255 0 62 14
0.476718 0.013519 0.015118 0 255 0 62 14
0.394324 0.016876 0.009347 0 255 0 62 14
0.502278 0.059374 0.009332 0 255 0 62 14
0.503620 -0.098130 0.014283 0 255 0 62 14
0.440180 -0.008683 0.009382 0 255 0 62 14
0.366731 0.044994 0.014714 0 255 0 62 14
0.505194 -0.171147 -0.011717 0 255 0 62 14
0.425421 -0.020607 0.015166 0 255 0 62 14
0.454138 -0.097414 0.009356 0 255 0 62 14
0.437767 -0.082182 0.014975 0 255 0 62 14
0.351776 -0.075900 -0.005718 0 255 0 62 14
0.446160 -0.184583 0.012282 0 255 0 62 14
0.416543 -0.002574 0.014696 0 255 0 62 14
0.473489 -0.177723 0.014427 0 255 0 62 14
0.456693 -0.137028 0.014283 0 255 0 62 14
0.405709 -0.070681 0.014733 0 255 0 62 14
0.406231 -0.014971 0.009373 0 255 0 62 14
0.360832 -0.002051 0.014711 0 255 0 62 14
0.356528 0.053991 -0.007717 0 255 0 62 14
0.427633 -0.152163 0.014639 0 255 0 62 14
0.461031 0.009789 0.014701 0 255 0 62 14
0.505530 -0.046408 0.014283 0 255 0 62 14
0.450848 -0.111456 0.014636 0 255 0 62 14
0.361222 -0.083044 0.014947 0 255 0 62 14
0.382967 -0.106942 0.009440 0 255 0 62 14
0.370672 0.005898 0.009304 0 255 0 62 14
0.357264 -0.061036 0.015028 0 255 0 62 14
0.446906 -0.072360 0.009452 0 255 0 62 14
0.467235 -0.109599 0.014821 0 255 0 62 14
0.409194 -0.097137 0.014938 0 255 0 62 14
0.401473 -0.093617 0.009377 0 255 0 62 14
0.445783 -0.023670 0.015096 0 255 0 62 14
0.457176 -0.025588 0.014283 0 255 0 62 14
0.445328 -0.011029 0.015010 0 255 0 62 14
0.490549 0.033636 0.009395 0 255 0 62 14
0.416410 -0.139278 0.007291 0 255 0 62 14
0.507520 -0.085996 -0.010576 0 255 0 62 14
0.436172 -0.037940 0.014920 0 255 0 62 14
0.391929 -0.039534 0.014611 0 255 0 62 14
0.379549 -0.012135 0.009300 0 255 0 62 14
0.441075 -0.051053 0.009342 0 255 0 62 14
0.366663 -0.023358 0.009359 0 255 0 62 14
0.483300 0.041602 0.009368 0 255 0 62 14
0.359632 -0.013177 0.006283 0 255 0 62 14
0.359660 -0.004626 -0.002747 0 255 0 62 14
0.367492 -0.134080 0.009390 0 255 0 62 14
0.425972 -0.176273 0.014645 0 255 0 62 14
0.422231 0.067880 0.014906 0 255 0 62 14
0.504879 -0.153175 0.007285 0 255 0 62 14
0.368359 0.034926 0.009368 0 255 0 62 14
0.463944 -0.123640 0.007289 0 255 0 62 14
0.364734 0.038913 -0.003717 0 255 0 62 14
0.401527 -0.173713 -0.005718 0 255 0 62 14
0.357607 -0.061955 -0.007717 0 255 0 62 14
0.431597 0.071382 0.011239 0 255 0 62 14
0.462838 -0.057863 0.009443 0 255 0 62 14
0.429490 -0.168551 0.014562 0 255 0 62 14
0.406443 -0.038379 0.009329 0 255 0 62 14
0.507587 -0.017644 0.014795 0 255 0 62 14
0.494329 0.069213 0.009429 0 255 0 62 14
0.475269 -0.165353 0.008282 0 255 0 62 14
0.425699 0.024336 0.009377 0 255 0 62 14
0.498331 -0.147083 0.014722 0 255 0 62 14
0.351611 -0.035392 -0.001718 0 255 0 62 14
0.510244 0.066623 0.009371 0 255 0 62 14
0.493005 -0.087152 0.009369 0 255 0 62 14
0.497241 -0.064216 0.009423 0 255 0 62 14
0.479842 -0.103341 0.014283 0 255 0 62 14
0.403052 -0.154949 0.014720 0 255 0 62 14
0.505614 -0.120873 -0.002302 0 255 0 62 14
0.451011 -0.177587 0.006283 0 255 0 62 14
0.365846 -0.141101 0.014431 0 255 0 62 14
0.432097 -0.135547 0.014711 0 255 0 62 14
0.512801 0.048361 0.014856 0 255 0 62 14
0.398960 0.073009 0.010283 0 255 0 62 14
0.437673 0.060841 0.014638 0 255 0 62 14
0.505407 -0.159384 -0.003717 0 255 0 62 14
0.439540 -0.184010 -0.008646 0 255 0 62 14
0.358125 -0.094879 -0.003717 0 255 0 62 14
0.487992 0.051897 0.014567 0 255 0 62 14
0.379382 -0.183015 -0.002397 0 255 0 62 14
0.444905 0.035788 0.014176 0 255 0 62 14
0.458980 0.066673 0.014883 0 255 0 62 14
0.367753 -0.106224 0.014639 0 255 0 62 14
0.508726 -0.049246 -0.003009 0 255 0 62 14
0.353922 -0.126342 -0.008516 0 255 0 62 14
0.511268 0.058174 -0.003717 0 255 0 62 14
0.357431 -0.181411 0.008282 0 255 0 62 14
0.413481 -0.022936 0.009432 0 255 0 62 14
0.470588 -0.175677 -0.003717 0 255 0 62 14
0.387448 -0.073238 0.009436 0 255 0 62 14
0.438957 -0.062521 0.009396 0 255 0 62 14
0.423798 -0.176172 0.004282 0 255 0 62 14
0.391681 0.041080 0.014283 0 255 0 62 14
0.473431 -0.114751 0.008282 0 255 0 62 14
0.396146 0.023963 0.014283 0 255 0 62 14
0.349947 -0.093666 0.008282 0 255 0 62 14
0.471604 0.050040 0.014448 0 255 0 62 14
0.512429 -0.011563 0.012282 0 255 0 62 14
0.391668 -0.067390 0.014341 0 255 0 62 14
0.406670 -0.044699 0.014360 0 255 0 62 14
0.491672 -0.015053 0.009448 0 255 0 62 14
0.508726 -0.049246 0.005370 0 255 0 62 14
0.389229 -0.180797 0.000283 0 255 0 62 14
0.350744 -0.080556 0.008282 0 255 0 62 14
0.481816 -0.040091 0.014512 0 255 0 62 14
0.471345 -0.183413 0.000283 0 255 0 62 14
0.419228 -0.129684 0.007290 0 255 0 62 14
0.486129 -0.177267 0.007318 0 255 0 62 14
0.377481 0.027660 0.015345 0 255 0 62 14
0.474194 0.065956 0.014691 0 255 0 62 14
0.357392 0.069970 0.012282 0 255 0 62 14
0.435688 -0.173707 -0.005718 0 255 0 62 14
0.360186 -0.134677 0.006283 0 255 0 62 14
0.429028 -0.091856 0.014283 0 255 0 62 14
0.470948 -0.142374 0.009386 0 255 0 62 14
0.458974 -0.178880 0.014834 0 255 0 62 14
0.442593 0.064817 0.009319 0 255 0 62 14
0.347196 -0.177967 0.000283 0 255 0 62 14
0.430646 -0.183066 0.014929 0 255 0 62 14
0.506558 -0.111979 -0.002697 0 255 0 62 14
0.446740 -0.100469 0.014283 0 255 0 62 14
0.513712 0.023080 0.011434 0 255 0 62 14
0.356385 -0.050689 -0.003717 0 255 0 62 14
0.448895 -0.084428 0.014283 0 255 0 62 14
0.477680 0.039501 0.015307 0 255 0 62 14
0.354088 0.004565 0.008282 0 255 0 62 14
0.504540 -0.169401 0.006283 0 255 0 62 14
0.354340 0.042496 0.014283 0 255 0 62 14
0.366303 -0.153742 0.009386 0 255 0 62 14
0.513505 0.014462 0.012282 0 255 0 62 14
0.505481 -0.160494 0.006283 0 255 0 62 14
0.352510 0.018324 0.010283 0 255 0 62 14
0.478870 0.059163 0.015215 0 255 0 62 14
0.489326 -0.020201 0.014184 0 255 0 62 14
0.354588 0.036183 -0.007717 0 255 0 62 14
0.465623 -0.082443 0.009369 0 255 0 62 14
0.448468 -0.150779 0.009435 0 255 0 62 14
0.406054 0.042615 0.015180 0 255 0 62 14
0.506937 -0.112992 0.006283 0 255 0 62 14
0.364646 0.067702 -0.008714 0 255 0 62 14
0.441430 -0.166222 0.007311 0 255 0 62 14
0.373067 0.062309 0.015121 0 255 0 62 14
0.369787 -0.180197 -0.010396 0 255 0 62 14
0.478930 -0.126579 0.008282 0 255 0 62 14
0.488650 -0.115479 0.008282 0 255 0 62 14
0.512023 -0.149439 0.010283 0 255 0 62 14
0.505793 -0.186997 0.010283 0 255 0 62 14
0.407716 0.066723 0.009399 0 255 0 62 14
0.468947 -0.034226 0.009369 0 255 0 62 14
0.461074 -0.158878 0.008282 0 255 0 62 14
0.395609 -0.106487 0.015159 0 255 0 62 14
0.449797 -0.058468 0.014283 0 255 0 62 14
0.506723 -0.143945 0.008282 0 255 0 62 14
0.356896 -0.080391 0.000283 0 255 0 62 14
0.398115 -0.176011 0.009385 0 255 0 62 14
0.353987 0.029553 0.008282 0 255 0 62 14
0.423387 0.053365 0.011406 0 255 0 62 14
0.422241 -0.160585 0.015103 0 255 0 62 14
0.502684 -0.004531 0.009365 0 255 0 62 14
0.390622 -0.178812 0.015172 0 255 0 62 14
0.350665 -0.106208 0.014138 0 255 0 62 14
0.349020 -0.176049 0.014283 0 255 0 62 14
0.446333 -0.179335 -0.010623 0 255 0 62 14
0.432089 -0.181215 -0.009718 0 255 0 62 14
0.461620 -0.182161 -0.009718 0 255 0 62 14
0.367887 0.030480 0.015095 0 255 0 62 14
0.501216 -0.069136 0.015245 0 255 0 62 14
0.508444 0.018975 -0.003717 0 255 0 62 14
0.487486 0.013274 0.009296 0 255 0 62 14
0.407347 0.016312 0.010283 0 255 0 62 14
0.496152 0.018650 0.015346 0 255 0 62 14
0.404664 -0.182103 -0.008271 0 255 0 62 14
0.463082 -0.047095 0.015181 0 255 0 62 14
0.377042 0.057390 0.009309 0 255 0 62 14
0.409473 -0.052193 0.014499 0 255 0 62 14
0.377091 -0.119815 0.014283 0 255 0 62 14
0.393363 -0.009105 0.015099 0 255 0 62 14
0.384207 -0.036016 0.014654 0 255 0 62 14
0.358892 -0.071104 0.014015 0 255 0 62 14
0.469092 -0.125987 0.015163 0 255 0 62 14
0.469614 -0.070275 0.014445 0 255 0 62 14
0.487369 -0.106342 0.015287 0 255 0 62 14
0.395398 -0.083078 0.014391 0 255 0 62 14
0.464322 0.023831 0.014978 0 255 0 62 14
0.502717 0.029645 0.015482 0 255 0 62 14
0.508549 0.008338 0.015401 0 255 0 62 14
0.377314 -0.143218 0.015056 0 255 0 62 14
0.406440 -0.169723 0.008282 0 255 0 62 14
0.364174 0.063254 0.015284 0 255 0 62 14
0.449151 -0.169741 0.014674 0 255 0 62 14
0.413547 0.045416 0.015037 0 255 0 62 14
0.401151 0.055727 0.015299 0 255 0 62 14
0.432932 -0.000717 0.015065 0 255 0 62 14
0.352994 -0.118148 0.014938 0 255 0 62 14
0.506728 -0.161025 -0.011717 0 255 0 62 14
0.445622 0.051003 0.015221 0 255 0 62 14
0.435066 0.027839 0.014754 0 255 0 62 14
0.464839 -0.166011 0.014687 0 255 0 62 14
0.362478 0.004969 0.014431 0 255 0 62 14
0.422452 -0.183994 -0.010666 0 255 0 62 14
0.455690 0.052631 0.009297 0 255 0 62 14
0.366976 0.055761 0.015186 0 255 0 62 14
0.425566 -0.112368 0.009386 0 255 0 62 14
0.445573 -0.000261 0.009449 0 255 0 62 14
0.434688 -0.119633 0.014371 0 255 0 62 14
0.400856 -0.006304 0.015127 0 255 0 62 14
0.477235 -0.176323 0.007286 0 255 0 62 14
0.376892 -0.096402 0.009368 0 255 0 62 14
0.362635 0.024246 0.002283 0 255 0 62 14
0.413347 -0.159640 0.014790 0 255 0 62 14
0.413303 0.034648 0.009313 0 255 0 62 14
0.489115 0.003207 0.009313 0 255 0 62 14
0.359693 0.029551 0.014675 0 255 0 62 14
0.481015 -0.140746 0.007289 0 255 0 62 14
0.379010 -0.084935 0.009344 0 255 0 62 14
0.430880 0.056167 0.009290 0 255 0 62 14
0.447007 0.030168 0.009414 0 255 0 62 14
0.468147 -0.134881 0.007286 0 255 0 62 14
0.457640 -0.106781 0.009399 0 255 0 62 14
0.479048 0.001578 0.009318 0 255 0 62 14
0.461158 -0.099059 0.009391 0 255 0 62 14
0.501317 0.033392 0.009328 0 255 0 62 14
0.442737 -0.026944 0.009315 0 255 0 62 14
0.404781 -0.062487 0.009315 0 255 0 62 14
0.420646 -0.116342 0.014908 0 255 0 62 14
0.424426 -0.080764 0.009493 0 255 0 62 14
0.455183 0.014009 0.014715 0 255 0 62 14
0.394014 -0.062243 0.009368 0 255 0 62 14
0.370572 -0.096630 0.014971 0 255 0 62 14
0.358048 0.022530 -0.008640 0 255 0 62 14
0.405759 -0.019418 0.015078 0 255 0 62 14
0.435243 -0.029745 0.009444 0 255 0 62 14
0.351797 -0.056674 -0.003717 0 255 0 62 14
0.445994 -0.047079 0.014997 0 255 0 62 14
0.487537 0.064538 0.009293 0 255 0 62 14
0.451125 -0.066512 0.014969 0 255 0 62 14
0.471387 -0.172103 0.009432 0 255 0 62 14
0.396460 0.045433 0.009341 0 255 0 62 14
0.425504 0.064833 0.009302 0 255 0 62 14
0.393658 0.052926 0.009306 0 255 0 62 14
0.485081 -0.174462 -0.007717 0 255 0 62 14
0.452005 -0.183086 -0.001718 0 255 0 62 14
0.404864 0.022953 0.014982 0 255 0 62 14
0.443193 -0.039585 0.014964 0 255 0 62 14
0.376386 -0.135025 0.009328 0 255 0 62 14
0.481065 -0.089482 0.015006 0 255 0 62 14
0.371389 0.021112 0.015052 0 255 0 62 14
0.422425 0.027383 0.014960 0 255 0 62 14
0.424409 -0.097853 0.014956 0 255 0 62 14
0.437395 0.015898 0.014955 0 255 0 62 14
0.413380 -0.125464 0.009374 0 255 0 62 14
0.499604 -0.041981 0.014901 0 255 0 62 14
0.397616 0.030919 0.014970 0 255 0 62 14
0.413862 -0.183862 0.012282 0 255 0 62 14
0.455445 0.041863 0.014898 0 255 0 62 14
0.357981 -0.045822 -0.008690 0 255 0 62 14
0.461487 -0.002852 0.009453 0 255 0 62 14
0.466314 -0.181378 0.014283 0 255 0 62 14
0.436595 -0.181845 0.002283 0 255 0 62 14
0.388293 -0.166872 0.014434 0 255 0 62 14
0.408038 -0.082622 0.009462 0 255 0 62 14
0.479942 0.073428 0.010283 0 255 0 62 14
0.368031 -0.061282 0.009341 0 255 0 62 14
0.404520 -0.090343 0.014925 0 255 0 62 14
0.372495 -0.044666 0.009322 0 255 0 62 14
0.349623 -0.153573 0.008282 0 255 0 62 14
0.407516 -0.138333 0.007285 0 255 0 62 14
0.360094 -0.025814 0.008282 0 255 0 62 14
0.499538 -0.110333 0.009399 0 255 0 62 14
0.385642 -0.005587 0.015139 0 255 0 62 14
0.415860 0.016388 0.009328 0 255 0 62 14
0.416249 -0.064605 0.014865 0 255 0 62 14
0.394158 -0.154003 0.014868 0 255 0 62 14
0.488543 -0.095226 0.008282 0 255 0 62 14
0.501055 0.005537 0.009319 0 255 0 62 14
0.454216 -0.143307 0.008282 0 255 0 62 14
0.498311 -0.172713 0.008282 0 255 0 62 14
0.380232 -0.031096 0.009358 0 255 0 62 14
0.502001 0.014431 0.014767 0 255 0 62 14
0.475235 -0.068175 0.009362 0 255 0 62 14
0.425615 -0.061103 0.009466 0 255 0 62 14
0.356640 0.066272 -0.007717 0 255 0 62 14
0.448390 0.009333 0.009385 0 255 0 62 14
0.446458 -0.173960 0.002283 0 255 0 62 14
0.482550 -0.007788 0.014849 0 255 0 62 14
0.363071 0.014805 0.000283 0 255 0 62 14
0.426350 -0.028801 0.014883 0 255 0 62 14
0.421464 0.001401 0.009291 0 255 0 62 14
0.360693 -0.113135 -0.009718 0 255 0 62 14
0.472938 -0.022058 0.014916 0 255 0 62 14
0.387042 -0.009333 0.009341 0 255 0 62 14
0.423370 0.036277 0.009309 0 255 0 62 14
0.430830 0.004902 0.009344 0 255 0 62 14
0.451926 0.034143 0.015114 0 255 0 62 14
0.351997 -0.013895 0.012282 0 255 0 62 14
0.472272 0.013991 0.009399 0 255 0 62 14
0.509310 -0.170736 0.014768 0 255 0 62 14
0.388815 -0.111162 0.009356 0 255 0 62 14
0.453960 -0.039830 0.009423 0 255 0 62 14
0.357804 -0.102456 0.004282 0 255 0 62 14
0.385592 -0.056851 0.009382 0 255 0 62 14
0.483200 -0.060925 0.014840 0 255 0 62 14
0.351357 -0.067516 0.004282 0 255 0 62 14
0.374935 -0.182543 0.009058 0 255 0 62 14
0.490955 -0.030269 0.014741 0 255 0 62 14
0.393018 -0.122401 0.009359 0 255 0 62 14
0.349405 -0.165657 0.006283 0 255 0 62 14
0.353093 -0.019892 -0.001718 0 255 0 62 14
0.456095 -0.011274 0.009385 0 255 0 62 14
0.493333 0.009055 0.009301 0 255 0 62 14
0.487469 -0.003813 0.009449 0 255 0 62 14
0.400283 -0.113280 0.014755 0 255 0 62 14
0.394603 0.061820 0.014728 0 255 0 62 14
0.461453 -0.037028 0.014732 0 255 0 62 14
0.360977 -0.093812 0.009338 0 255 0 62 14
0.370411 -0.021957 0.015190 0 255 0 62 14
0.364496 -0.086090 0.009359 0 255 0 62 14
0.514624 -0.002202 0.015077 0 255 0 62 14
0.471149 0.062681 0.009350 0 255 0 62 14
0.495891 -0.009206 0.009432 0 255 0 62 14
0.374368 -0.181029 0.002283 0 255 0 62 14
0.350438 -0.099888 0.003883 0 255 0 62 14
0.482110 0.021941 0.014794 0 255 0 62 14
0.365280 -0.002524 0.009390 0 255 0 62 14
0.393852 0.012429 0.014664 0 255 0 62 14
0.443860 -0.075634 0.014772 0 255 0 62 14
0.462482 0.057306 0.015020 0 255 0 62 14
0.451715 0.057551 0.014719 0 255 0 62 14
0.507536 -0.068909 -0.002316 0 255 0 62 14
0.439023 0.005831 0.014659 0 255 0 62 14
0.501022 -0.028639 0.009395 0 255 0 62 14
0.395448 -0.031814 0.015091 0 255 0 62 14
0.471732 -0.058807 0.009387 0 255 0 62 14
0.492078 -0.078959 0.009453 0 255 0 62 14
0.380639 -0.095001 0.015050 0 255 0 62 14
0.444527 -0.111684 0.009471 0 255 0 62 14
0.353926 -0.179722 -0.009718 0 255 0 62 14
0.503677 -0.184225 -0.009718 0 255 0 62 14
0.444137 -0.030691 0.014930 0 255 0 62 14
0.350323 -0.108471 0.000283 0 255 0 62 14
0.490448 -0.068891 0.009498 0 255 0 62 14
0.410334 -0.128738 0.015007 0 255 0 62 14
0.449980 0.045060 0.010283 0 255 0 62 14
0.487047 0.043002 0.014977 0 255 0 62 14
0.505597 -0.137961 -0.003358 0 255 0 62 14
0.456450 -0.126443 0.009392 0 255 0 62 14
0.507259 -0.113851 0.014669 0 255 0 62 14
0.429118 -0.070471 0.014699 0 255 0 62 14
0.353594 0.010189 -0.003717 0 255 0 62 14
0.421903 -0.028328 0.009386 0 255 0 62 14
0.397566 -0.020346 0.009430 0 255 0 62 14
0.508337 0.031746 0.009411 0 255 0 62 14
0.391473 -0.026894 0.009431 0 255 0 62 14
0.506563 -0.126924 0.010283 0 255 0 62 14
0.480576 -0.111017 0.009368 0 255 0 62 14
0.377238 -0.023088 0.014283 0 255 0 62 14
0.385103 -0.078386 0.014529 0 255 0 62 14
0.430863 0.039079 0.009351 0 255 0 62 14
0.478608 0.031307 0.014915 0 255 0 62 14
0.359658 -0.122063 -0.001718 0 255 0 62 14
0.508076 0.003891 0.009399 0 255 0 62 14
0.416899 -0.117743 0.009368 0 255 0 62 14
0.434510 -0.062048 0.014565 0 255 0 62 14
0.406999 0.051508 0.014826 0 255 0 62 14
0.357176 -0.089355 0.014283 0 255 0 62 14
0.411929 -0.172981 0.014737 0 255 0 62 14
0.451336 -0.089921 0.009387 0 255 0 62 14
0.472171 -0.088536 0.014933 0 255 0 62 14
0.454416 -0.052470 0.014620 0 255 0 62 14
0.483884 -0.079887 0.014889 0 255 0 62 14
0.454349 -0.120822 0.014858 0 255 0 62 14
0.494684 -0.045956 0.009320 0 255 0 62 14
0.465445 -0.024860 0.009459 0 255 0 62 14
0.352132 -0.041603 0.001827 0 255 0 62 14
0.430813 -0.012186 0.014603 0 255 0 62 14
0.403981 -0.163142 0.009395 0 255 0 62 14
0.376081 0.031408 0.009331 0 255 0 62 14
0.482906 -0.122957 0.014862 0 255 0 62 14
0.378799 -0.061526 0.009305 0 255 0 62 14
0.514796 0.037316 0.012282 0 255 0 62 14
0.359298 -0.135009 -0.000727 0 255 0 62 14
0.376255 -0.157519 0.014283 0 255 0 62 14
0.404803 -0.176762 0.008282 0 255 0 62 14
0.434882 -0.160129 0.009543 0 255 0 62 14
0.382234 -0.139245 0.009436 0 255 0 62 14
0.435793 -0.176870 0.008282 0 255 0 62 14
0.359298 -0.135009 -0.010701 0 255 0 62 14
0.445561 -0.131582 0.008282 0 255 0 62 14
0.471994 -0.030953 0.014488 0 255 0 62 14
0.381235 -0.173781 -0.005718 0 255 0 62 14
0.423077 -0.139978 0.008282 0 255 0 62 14
0.357970 -0.146181 0.006283 0 255 0 62 14
0.437429 0.050074 0.014808 0 255 0 62 14
0.499232 0.056100 0.014861 0 255 0 62 14
0.359711 -0.173288 -0.005718 0 255 0 62 14
0.421207 -0.106421 0.014283 0 255 0 62 14
0.439446 -0.040986 0.009440 0 255 0 62 14
0.479576 -0.182583 -0.009718 0 255 0 62 14
0.394402 -0.143236 0.009363 0 255 0 62 14
0.498576 -0.136314 0.009373 0 255 0 62 14
0.360419 0.070391 0.000283 0 255 0 62 14
0.411168 0.006093 0.014841 0 255 0 62 14
0.496263 -0.107287 0.014848 0 255 0 62 14
0.508309 -0.068619 0.014283 0 255 0 62 14
0.359623 -0.153010 0.008282 0 255 0 62 14
0.506820 -0.084122 0.014814 0 255 0 62 14
0.516320 0.056084 0.013237 0 255 0 62 14
0.398638 -0.120300 0.014799 0 255 0 62 14
0.476149 -0.161994 0.014283 0 255 0 62 14
0.417294 0.046817 0.009413 0 255 0 62 14
0.458811 -0.144777 0.014283 0 255 0 62 14
0.358052 -0.074568 -0.003717 0 255 0 62 14
0.417505 0.023408 0.009395 0 255 0 62 14
0.368487 -0.073922 0.009310 0 255 0 62 14
0.419522 -0.067652 0.009317 0 255 0 62 14
0.460425 -0.131362 0.014902 0 255 0 62 14
0.410435 -0.026210 0.014413 0 255 0 62 14
0.399650 -0.043054 0.009392 0 255 0 62 14
0.412696 -0.106503 0.014472 0 255 0 62 14
0.415433 -0.173807 -0.007717 0 255 0 62 14
0.363289 -0.122840 0.009456 0 255 0 62 14
0.431641 -0.122907 0.009413 0 255 0 62 14
0.493850 -0.180786 -0.010616 0 255 0 62 14
0.453665 -0.101861 0.014394 0 255 0 62 14
0.469531 -0.155716 0.009408 0 255 0 62 14
0.460392 -0.165539 0.009409 0 255 0 62 14
0.423025 -0.077019 0.014826 0 255 0 62 14
0.483345 -0.152686 0.007302 0 255 0 62 14
0.395870 -0.078631 0.009453 0 255 0 62 14
0.412874 -0.164087 0.009377 0 255 0 62 14
0.459970 -0.118721 0.009385 0 255 0 62 14
0.415063 -0.181363 0.000283 0 255 0 62 14
0.393213 -0.162897 0.009377 0 255 0 62 14
0.354991 0.066227 0.006283 0 255 0 62 14
0.357525 -0.031046 -0.001718 0 255 0 62 14
0.452500 -0.184405 0.010283 0 255 0 62 14
0.429251 0.066234 0.014732 0 255 0 62 14
0.507293 -0.079676 0.009430 0 255 0 62 14
0.377610 -0.081187 0.014650 0 255 0 62 14
0.495174 -0.024421 0.014642 0 255 0 62 14
0.364055 0.037587 0.004282 0 255 0 62 14
0.419464 -0.147449 0.014283 0 255 0 62 14
0.448924 -0.163421 0.009337 0 255 0 62 14
0.404014 -0.128966 0.009470 0 255 0 62 14
0.397897 -0.181136 0.002283 0 255 0 62 14
0.357002 -0.088892 -0.008699 0 255 0 62 14
0.393391 -0.182047 -0.007717 0 255 0 62 14
0.415404 0.029029 0.014582 0 255 0 62 14
0.359936 -0.162528 -0.001718 0 255 0 62 14
0.406192 0.030825 0.010283 0 255 0 62 14
0.357864 -0.088570 -0.001718 0 255 0 62 14
0.476903 -0.175435 -0.001718 0 255 0 62 14
0.504717 -0.181294 0.000283 0 255 0 62 14
0.512895 -0.094663 0.009287 0 255 0 62 14
0.476196 -0.042192 0.009459 0 255 0 62 14
0.365507 -0.008844 0.015263 0 255 0 62 14
0.484766 -0.184184 0.008282 0 255 0 62 14
0.466112 -0.060909 0.014687 0 255 0 62 14
0.377576 -0.115364 0.009435 0 255 0 62 14
0.492295 -0.113806 0.014283 0 255 0 62 14
0.508794 0.019106 0.009355 0 255 0 62 14
0.500255 -0.095118 0.009480 0 255 0 62 14
0.507030 -0.107531 -0.008690 0 255 0 62 14
0.390745 -0.173430 0.004282 0 255 0 62 14
0.510683 -0.104031 0.012282 0 255 0 62 14
0.501024 -0.177127 -0.003717 0 255 0 62 14
0.426743 0.015833 0.014283 0 255 0 62 14
0.388494 0.038184 0.009305 0 255 0 62 14
0.361614 0.001570 -0.001718 0 255 0 62 14
0.401540 -0.025265 0.014669 0 255 0 62 14
0.361728 -0.044421 0.009387 0 255 0 62 14
0.349957 -0.132096 0.000283 0 255 0 62 14
0.390106 0.011029 0.009332 0 255 0 62 14
0.510912 0.030574 -0.008510 0 255 0 62 14
0.492390 0.000161 0.015221 0 255 0 62 14
0.354268 -0.013046 -0.008244 0 255 0 62 14
0.432442 -0.022252 0.014542 0 255 0 62 14
0.410874 -0.055939 0.009329 0 255 0 62 14
0.455817 -0.056217 0.009327 0 255 0 62 14
0.372262 -0.010589 0.014283 0 255 0 62 14
0.381244 0.046150 0.009333 0 255 0 62 14
0.394924 0.068346 0.014283 0 255 0 62 14
0.441631 0.038834 0.009431 0 255 0 62 14
0.439116 -0.182875 0.008282 0 255 0 62 14
0.429035 -0.155910 0.009346 0 255 0 62 14
0.476836 -0.103874 0.008282 0 255 0 62 14
0.414898 -0.009595 0.014479 0 255 0 62 14
0.429979 -0.147015 0.009345 0 255 0 62 14
0.430890 -0.172298 0.009390 0 255 0 62 14
0.370521 -0.147894 0.009403 0 255 0 62 14
0.453167 -0.131941 0.008282 0 255 0 62 14
0.369840 -0.086227 0.014283 0 255 0 62 14
0.351658 -0.120287 -0.007717 0 255 0 62 14
0.441414 -0.183309 -0.001809 0 255 0 62 14
0.497706 -0.185387 -0.001718 0 255 0 62 14
0.503170 -0.089758 0.014283 0 255 0 62 14
0.480171 -0.052824 0.014283 0 255 0 62 14
0.444449 0.048429 0.009398 0 255 0 62 14
0.370590 0.068938 0.010283 0 255 0 62 14
0.366196 -0.176299 0.008282 0 255 0 62 14
0.370032 -0.169429 0.009378 0 255 0 62 14
0.412257 -0.076774 0.015117 0 255 0 62 14
0.457902 -0.078925 0.015170 0 255 0 62 14
0.485563 -0.038690 0.009367 0 255 0 62 14
0.507081 -0.056267 0.014507 0 255 0 62 14
0.357753 -0.039501 -0.010704 0 255 0 62 14
0.374301 -0.112317 0.014473 0 255 0 62 14
0.349245 -0.151578 -0.005718 0 255 0 62 14
0.376809 -0.181842 -0.008186 0 255 0 62 14
0.382089 -0.047484 0.009350 0 255 0 62 14
0.402234 -0.142443 0.014283 0 255 0 62 14
0.351226 -0.119130 0.002283 0 255 0 62 14
0.469761 -0.082090 0.014283 0 255 0 62 14
0.409285 -0.000294 0.014283 0 255 0 62 14
0.461404 -0.088292 0.009444 0 255 0 62 14
0.414737 0.065078 0.015550 0 255 0 62 14
0.353411 -0.002691 0.000283 0 255 0 62 14
0.443849 0.010058 0.014283 0 255 0 62 14
0.358921 -0.028389 -0.007717 0 255 0 62 14
0.492479 -0.181299 0.014283 0 255 0 62 14
0.475562 0.028034 0.009305 0 255 0 62 14
0.511511 -0.073828 0.011500 0 255 0 62 14
0.495252 -0.184533 0.008348 0 255 0 62 14
0.374622 -0.170284 0.014283 0 255 0 62 14
0.475168 -0.136526 0.014310 0 255 0 62 14
0.386715 -0.105541 0.014450 0 255 0 62 14
0.483598 0.012253 0.014283 0 255 0 62 14
0.357714 0.017711 0.014283 0 255 0 62 14
0.458619 -0.063710 0.009492 0 255 0 62 14
0.358379 -0.032861 0.010283 0 255 0 62 14
0.385609 -0.039763 0.009402 0 255 0 62 14
0.349926 -0.144208 0.006283 0 255 0 62 14
0.354734 0.051184 0.008282 0 255 0 62 14
0.465868 -0.071677 0.009453 0 255 0 62 14
0.447312 -0.136265 0.015319 0 255 0 62 14
0.499960 -0.157150 0.009530 0 255 0 62 14
0.418250 -0.172753 0.007321 0 255 0 62 14
0.495968 -0.169318 0.014141 0 255 0 62 14
0.398437 0.000166 0.010283 0 255 0 62 14
0.462432 0.006042 0.009376 0 255 0 62 14
0.351905 -0.035282 0.008632 0 255 0 62 14
0.433075 -0.092478 0.009381 0 255 0 62 14
0.410451 -0.009123 0.009362 0 255 0 62 14
0.490049 -0.044977 0.014283 0 255 0 62 14
0.450281 0.027122 0.014298 0 255 0 62 14
0.384030 0.021569 0.011491 0 255 0 62 14
0.354274 0.033931 -0.001718 0 255 0 62 14
0.370883 -0.017510 0.009347 0 255 0 62 14
0.383085 0.012674 0.015096 0 255 0 62 14
0.463655 0.059880 0.009308 0 255 0 62 14
0.428054 -0.181841 0.000283 0 255 0 62 14
0.499993 -0.122973 0.009403 0 255 0 62 14
0.423903 -0.136477 0.014010 0 255 0 62 14
0.354426 0.057475 -0.001718 0 255 0 62 14
0.356964 -0.025970 0.014283 0 255 0 62 14
0.357333 0.047282 -0.007717 0 255 0 62 14
0.462282 -0.147750 0.007289 0 255 0 62 14
0.405321 0.010312 0.015087 0 255 0 62 14
0.491065 -0.156205 0.014593 0 255 0 62 14
0.357010 0.008173 -0.009718 0 255 0 62 14
0.411490 -0.143252 0.009404 0 255 0 62 14
0.455083 -0.088520 0.015023 0 255 0 62 14
0.474795 -0.038446 0.014533 0 255 0 62 14
0.351807 -0.057864 0.014283 0 255 0 62 14
0.498187 -0.055323 0.015079 0 255 0 62 14
0.487074 -0.168373 0.014450 0 255 0 62 14
0.349993 -0.142758 -0.003717 0 255 0 62 14
0.441809 -0.018750 0.014530 0 255 0 62 14
0.461537 0.048413 0.014373 0 255 0 62 14
0.506658 -0.009451 0.015002 0 255 0 62 14
0.359346 -0.006878 0.008282 0 255 0 62 14
0.441970 -0.093423 0.014005 0 255 0 62 14
0.431336 0.043526 0.015284 0 255 0 62 14
0.384318 -0.161953 0.009364 0 255 0 62 14
0.434654 -0.153809 0.014515 0 255 0 62 14
0.365309 0.057274 -0.005718 0 255 0 62 14
0.395381 -0.100166 0.014372 0 255 0 62 14
0.506758 -0.181044 0.006283 0 255 0 62 14
0.401980 -0.054994 0.014553 0 255 0 62 14
0.354851 -0.134537 0.014467 0 255 0 62 14
0.489208 -0.139817 0.014920 0 255 0 62 14
0.461943 -0.015492 0.014538 0 255 0 62 14
0.390545 -0.018700 0.015275 0 255 0 62 14
0.501333 0.050479 0.009373 0 255 0 62 14
0.395186 -0.059669 0.015134 0 255 0 62 14
0.386375 0.026716 0.014916 0 255 0 62 14
0.416738 -0.043070 0.014378 0 255 0 62 14
0.376486 -0.032498 0.014757 0 255 0 62 14
0.415009 -0.135531 0.014354 0 255 0 62 14
0.387137 -0.152358 0.014889 0 255 0 62 14
0.372884 -0.125659 0.014045 0 255 0 62 14
0.348990 -0.074806 0.010283 0 255 0 62 14
0.386882 0.065339 0.015113 0 255 0 62 14
0.460348 0.028750 0.014508 0 255 0 62 14
0.378326 -0.065973 0.014336 0 255 0 62 14
0.413414 -0.091288 0.014416 0 255 0 62 14
0.377904 -0.019155 0.009355 0 255 0 62 14
0.487858 -0.084807 0.015275 0 255 0 62 14
0.381650 -0.017755 0.014486 0 255 0 62 14
0.405676 -0.104857 0.015166 0 255 0 62 14
0.451742 -0.153826 0.014962 0 255 0 62 14
0.474829 -0.004269 0.014803 0 255 0 62 14
0.388410 -0.047256 0.014555 0 255 0 62 14
0.494896 -0.069364 0.014448 0 255 0 62 14
0.354058 0.056043 0.012282 0 255 0 62 14
0.472154 -0.105625 0.015078 0 255 0 62 14
0.387576 -0.182087 0.009188 0 255 0 62 14
0.472744 0.018439 0.014603 0 255 0 62 14
0.434410 -0.164576 0.014775 0 255 0 62 14
0.429479 0.059914 0.014516 0 255 0 62 14
0.420746 -0.013814 0.015091 0 255 0 62 14
0.366074 -0.147421 0.014638 0 255 0 62 14
0.471799 0.009544 0.015338 0 255 0 62 14
0.360410 0.044766 0.014894 0 255 0 62 14
0.412452 -0.117270 0.014544 0 255 0 62 14
0.477058 -0.118738 0.014714 0 255 0 62 14
0.455000 -0.173959 0.014398 0 255 0 62 14
0.362834 -0.110199 0.014808 0 255 0 62 14
0.426721 -0.126882 0.014862 0 255 0 62 14
0.393185 0.048478 0.014795 0 255 0 62 14
0.495941 0.042059 0.014953 0 255 0 62 14
0.436071 -0.140468 0.014493 0 255 0 62 14
0.412224 -0.110950 0.009371 0 255 0 62 14
0.400874 0.010784 0.009440 0 255 0 62 14
0.380327 -0.174121 0.005279 0 255 0 62 14
0.499570 -0.076157 0.014609 0 255 0 62 14
0.360243 -0.126114 0.014786 0 255 0 62 14
0.388799 -0.128249 0.009495 0 255 0 62 14
0.492356 -0.034015 0.009453 0 255 0 62 14
0.369677 -0.054260 0.014481 0 255 0 62 14
0.420940 -0.054310 0.009324 0 255 0 62 14
0.366892 -0.029679 0.009308 0 255 0 62 14
0.448440 0.060597 0.009301 0 255 0 62 14
0.400662 0.034192 0.009426 0 255 0 62 14
0.485706 -0.130451 0.014597 0 255 0 62 14
0.477386 -0.022530 0.009318 0 255 0 62 14
0.377008 0.023214 0.009383 0 255 0 62 14
0.372824 0.051542 0.009295 0 255 0 62 14
0.419134 0.013341 0.014407 0 255 0 62 14
0.465833 -0.105852 0.009413 0 255 0 62 14
0.437017 -0.131574 0.014929 0 255 0 62 14
0.367981 -0.112546 0.009314 0 255 0 62 14
0.401818 0.019678 0.009394 0 255 0 62 14
0.435260 -0.012658 0.009291 0 255 0 62 14
0.370706 0.040074 0.014762 0 255 0 62 14
0.470137 -0.014565 0.015306 0 255 0 62 14
0.404030 -0.111878 0.009493 0 255 0 62 14
0.413075 0.040969 0.009395 0 255 0 62 14
0.472549 0.058935 0.015141 0 255 0 62 14
0.487647 -0.061398 0.009489 0 255 0 62 14
0.382740 -0.100621 0.009390 0 255 0 62 14
0.405448 -0.098537 0.009363 0 255 0 62 14
0.395675 -0.038134 0.009396 0 255 0 62 14
0.432569 -0.131102 0.007286 0 255 0 62 14
0.481589 -0.033771 0.014450 0 255 0 62 14
0.389305 -0.089626 0.009341 0 255 0 62 14
0.381306 -0.131050 0.009440 0 255 0 62 14
0.499098 -0.080604 0.009416 0 255 0 62 14
0.374224 0.047795 0.015072 0 255 0 62 14
0.473183 -0.011290 0.009295 0 255 0 62 14
0.365548 0.050957 0.002283 0 255 0 62 14
0.501005 -0.045728 0.009320 0 255 0 62 14
0.413642 -0.097609 0.009377 0 255 0 62 14
0.486558 0.021468 0.009380 0 255 0 62 14
0.385413 0.000733 0.015221 0 255 0 62 14
0.502473 0.018878 0.009382 0 255 0 62 14
0.491266 0.048851 0.009409 0 255 0 62 14
0.418334 -0.087314 0.009337 0 255 0 62 14
0.501249 -0.034960 0.009398 0 255 0 62 14
0.375541 -0.041391 0.015036 0 255 0 62 14
0.402258 -0.010050 0.009377 0 255 0 62 14
0.444299 -0.105363 0.009435 0 255 0 62 14
0.484406 -0.024176 0.009398 0 255 0 62 14
0.384013 0.004480 0.009332 0 255 0 62 14
0.445050 -0.055973 0.009367 0 255 0 62 14
0.477924 0.050268 0.009382 0 255 0 62 14
0.461749 0.025004 0.009302 0 255 0 62 14
0.452576 -0.018995 0.009336 0 255 0 62 14
0.402780 0.045660 0.009288 0 255 0 62 14
0.363517 -0.129160 0.009492 0 255 0 62 14
0.479809 -0.177495 0.014445 0 255 0 62 14
0.480788 -0.134425 0.009413 0 255 0 62 14
0.364267 -0.079770 0.009358 0 255 0 62 14
0.499410 -0.001485 0.014910 0 255 0 62 14
0.444416 0.014253 0.009420 0 255 0 62 14
0.444188 0.020573 0.014787 0 255 0 62 14
0.491994 -0.164398 0.007290 0 255 0 62 14
0.483950 -0.011535 0.009426 0 255 0 62 14
0.369694 -0.037172 0.009399 0 255 0 62 14
0.472399 -0.094857 0.009382 0 255 0 62 14
0.448029 -0.121050 0.014727 0 255 0 62 14
0.398377 -0.148156 0.007288 0 255 0 62 14
0.425437 -0.003519 0.009296 0 255 0 62 14
0.424882 -0.093407 0.009368 0 255 0 62 14
0.413551 -0.174511 0.002283 0 255 0 62 14
0.359846 -0.019502 0.008282 0 255 0 62 14
0.358377 -0.049944 0.008282 0 255 0 62 14
0.453495 -0.175647 -0.005718 0 255 0 62 14
0.397826 0.007510 0.015302 0 255 0 62 14
0.391245 -0.020573 0.009287 0 255 0 62 14
0.417932 0.073665 0.010283 0 255 0 62 14
0.432020 0.024565 0.009302 0 255 0 62 14
0.505308 0.045560 0.015054 0 255 0 62 14
0.357173 -0.069611 0.006283 0 255 0 62 14
0.357820 0.028850 -0.010598 0 255 0 62 14
0.479520 0.006025 0.014977 0 255 0 62 14
0.483639 -0.090654 0.009386 0 255 0 62 14
0.466685 0.046066 0.009317 0 255 0 62 14
0.579358 -0.112517 0.001288 255 255 0 82 15
0.572576 0.014128 0.006283 255 255 0 82 15
0.514574 -0.053466 0.015056 255 255 0 82 15
0.574896 -0.049187 -0.009718 255 255 0 82 15
0.581264 -0.077641 0.012118 255 255 0 82 15
0.583660 -0.021229 0.011263 255 255 0 82 15
0.508857 -0.026753 -0.007717 255 255 0 82 15
0.578651 -0.144895 0.002283 255 255 0 82 15
0.568691 -0.009745 -0.008286 255 255 0 82 15
0.577273 -0.089810 -0.010668 255 255 0 82 15
0.563094 -0.031054 0.002283 255 255 0 82 15
0.569112 -0.056563 0.012412 255 255 0 82 15
0.502423 -0.032387 0.014522 255 255 0 82 15
0.568311 -0.069673 -0.005718 255 255 0 82 15
0.591752 -0.097208 0.010283 255 255 0 82 15
0.585377 -0.042954 0.008282 255 255 0 82 15
0.568736 -0.095136 0.008282 255 255 0 82 15
0.567678 -0.005853 0.012282 255 255 0 82 15
0.586047 -0.061881 0.000283 255 255 0 82 15
0.509500 -0.045602 -0.007717 255 255 0 82 15
0.585702 -0.001249 0.010283 255 255 0 82 15
0.586459 -0.129080 0.002283 255 255 0 82 15
0.577100 -0.023682 -0.003717 255 255 0 82 15
0.561914 0.002668 -0.000225 255 255 0 82 15
0.588005 -0.081527 -0.001718 255 255 0 82 15
0.515000 -0.023413 0.012282 255 255 0 82 15
0.566937 -0.079299 0.006283 255 255 0 82 15
0.563504 -0.047272 0.000283 255 255 0 82 15
0.569535 -0.103378 -0.005718 255 255 0 82 15
0.574488 -0.033200 0.012282 255 255 0 82 15
0.584808 -0.010124 -0.001718 255 255 0 82 15
0.572742 -0.125668 0.004282 255 255 0 82 15
0.562429 -0.016357 0.004282 255 255 0 82 15
0.578429 -0.104325 0.013002 255 255 0 82 15
0.587796 -0.100822 -0.002577 255 255 0 82 15
0.589729 -0.111705 0.010283 255 255 0 82 15
0.574749 -0.037372 -0.002689 255 255 0 82 15
0.513734 -0.039796 0.012282 255 255 0 82 15
0.582048 0.005925 -0.000637 255 255 0 82 15
0.583154 -0.059853 0.012913 255 255 0 82 15
0.581391 -0.089404 0.006283 255 255 0 82 15
0.571981 0.004297 -0.008640 255 255 0 82 15
0.568123 -0.108177 0.006283 255 255 0 82 15
0.574398 -0.056721 0.000283 255 255 0 82 15
0.570370 -0.068903 0.012282 255 255 0 82 15
0.574538 -0.013964 0.005319 255 255 0 82 15
0.568657 -0.043921 0.011420 255 255 0 82 15
0.585272 -0.048385 -0.002645 255 255 0 82 15
0.573128 -0.001681 0.002283 255 255 0 82 15
0.566505 -0.089565 -0.002187 255 255 0 82 15
0.577155 -0.078075 -0.005718 255 255 0 82 15
0.569146 -0.022386 0.012196 255 255 0 82 15
0.583416 -0.031997 0.003869 255 255 0 82 15
0.576536 -0.062328 -0.009718 255 255 0 82 15
0.564227 -0.062659 0.002283 255 255 0 82 15
0.588912 -0.140973 0.000283 255 255 0 82 15
0.577375 -0.101505 0.002283 255 255 0 82 15
0.579113 -0.123285 -0.004520 255 255 0 82 15
0.576589 -0.070848 0.003298 255 255 0 82 15
0.566507 -0.021237 -0.005718 255 255 0 82 15
0.579830 -0.108070 -0.008712 255 255 0 82 15
0.567533 0.004769 0.009066 255 255 0 82 15
0.581031 -0.118298 0.010283 255 255 0 82 15
0.578018 -0.134371 -0.001718 255 255 0 82 15
0.576378 -0.047440 0.005306 255 255 0 82 15
0.508270 -0.036605 -0.002662 255 255 0 82 15
0.577978 0.005390 0.010283 255 255 0 82 15
0.569991 -0.116020 -0.000458 255 255 0 82 15
0.590035 -0.066835 0.010283 255 255 0 82 15
0.578757 -0.008116 0.012730 255 255 0 82 15
0.573170 -0.087074 0.012282 255 255 0 82 15
0.586259 -0.071503 0.002283 255 255 0 82 15
0.576344 -0.081616 0.003341 255 255 0 82 15
0.588738 -0.083387 0.008282 255 255 0 82 15
0.561903 -0.005877 0.004282 255 255 0 82 15
0.574994 -0.026606 0.005365 255 255 0 82 15
0.568201 -0.031281 -0.005886 255 255 0 82 15
0.568018 -0.080459 -0.003717 255 255 0 82 15
0.576101 -0.092383 -0.000817 255 255 0 82 15
0.582959 -0.019357 0.002123 255 255 0 82 15
0.584116 -0.033871 0.012966 255 255 0 82 15
0.568958 0.009572 -0.001718 255 255 0 82 15
0.585310 -0.103887 0.006283 255 255 0 82 15
0.572142 -0.117350 0.008282 255 255 0 82 15
0.577107 -0.098413 -0.007717 255 255 0 82 15
0.583031 -0.053493 0.006283 255 255 0 82 15
0.587540 -0.120134 0.004282 255 255 0 82 15
0.508356 -0.028033 0.008282 255 255 0 82 15
0.587658 -0.092333 0.000283 255 255 0 82 15
0.565557 -0.038674 -0.001718 255 255 0 82 15
0.578167 -0.132179 0.006822 255 255 0 82 15
0.581641 -0.095782 0.012282 255 255 0 82 15
0.568412 -0.054689 -0.005738 255 255 0 82 15
0.565598 -0.100580 0.002283 255 255 0 82 15
0.564942 -0.070933 0.004282 255 255 0 82 15
0.566017 -0.036367 0.008282 255 255 0 82 15
0.579635 -0.067574 0.012043 255 255 0 82 15
0.515766 -0.031667 0.014283 255 255 0 82 15
0.577322 -0.038545 0.005301 255 255 0 82 15
0.577779 -0.051187 0.012677 255 255 0 82 15
0.565893 -0.002264 -0.005718 255 255 0 82 15
0.578463 -0.061607 0.006283 255 255 0 82 15
0.568218 -0.014192 0.011535 255 255 0 82 15
0.575939 -0.017711 0.012636 255 255 0 82 15
0.573071 -0.078569 0.011774 255 255 0 82 15
0.575450 -0.039247 -0.010696 255 255 0 82 15
0.576850 -0.042993 0.012672 255 255 0 82 15
0.572665 -0.014665 -0.002676 255 255 0 82 15
0.506398 -0.037306 0.009351 255 255 0 82 15
0.581103 -0.002968 0.003434 255 255 0 82 15
0.564176 -0.054780 0.004282 255 255 0 82 15
0.574766 -0.020285 -0.010680 255 255 0 82 15
0.583981 -0.039220 0.000283 255 255 0 82 15
0.586486 -0.108739 -0.001718 255 255 0 82 15
0.573824 -0.003555 -0.007717 255 255 0 82 15
0.571988 -0.044811 -0.003717 255 255 0 82 15
0.563771 -0.013720 -0.003429 255 255 0 82 15
0.576272 -0.069998 -0.005718 255 255 0 82 15
0.574194 -0.001282 0.012282 255 255 0 82 15
0.567161 -0.087184 0.006283 255 255 0 82 15
0.509900 -0.046673 0.012543 255 255 0 82 15
0.581619 -0.115943 -0.005718 255 255 0 82 15
0.564444 -0.024144 0.006283 255 255 0 82 15
0.582032 -0.011163 0.005421 255 255 0 82 15
0.574123 -0.064250 0.000283 255 255 0 82 15
0.573508 0.005922 0.004282 255 255 0 82 15
0.573299 -0.084890 -0.006445 255 255 0 82 15
0.573738 -0.114619 -0.006697 255 255 0 82 15
0.574210 -0.110172 0.011325 255 255 0 82 15
0.584773 -0.078465 0.004282 255 255 0 82 15
0.579494 -0.027219 0.012282 255 255 0 82 15
0.572383 -0.100179 0.012282 255 255 0 82 15
0.570480 -0.094484 -0.005939 255 255 0 82 15
0.588040 -0.090055 0.011253 255 255 0 82 15
0.567390 -0.029448 0.012282 255 255 0 82 15
0.584016 -0.136399 0.003115 255 255 0 82 15
0.579862 -0.125290 0.008282 255 255 0 82 15
0.582062 -0.085485 0.012282 255 255 0 82 15
0.576133 -0.058208 0.012142 255 255 0 82 15
0.572893 -0.020985 0.001289 255 255 0 82 15
0.584260 -0.097075 0.004282 255 255 0 82 15
0.572981 -0.032643 0.002283 255 255 0 82 15
0.569272 -0.062699 -0.005718 255 255 0 82 15
0.574671 -0.028861 -0.007717 255 255 0 82 15
0.583518 -0.066536 0.006283 255 255 0 82 15
0.587381 -0.028380 0.010283 255 255 0 82 15
0.567011 -0.050942 0.009157 255 255 0 82 15
0.586164 -0.054456 0.000283 255 255 0 82 15
0.585463 -0.111713 0.004282 255 255 0 82 15
0.582065 -0.025506 0.005252 255 255 0 82 15
0.572437 -0.008345 0.001297 255 255 0 82 15
0.565830 0.009328 0.004282 255 255 0 82 15
0.563982 -0.041398 0.004282 255 255 0 82 15
0.567467 -0.063583 0.009346 255 255 0 82 15
0.576810 -0.051550 -0.003717 255 255 0 82 15
0.569798 -0.109793 -0.003717 255 255 0 82 15
0.562825 -0.022614 -0.000306 255 255 0 82 15
0.581231 -0.111818 0.011375 255 255 0 82 15
0.583721 -0.072792 0.008282 255 255 0 82 15
0.586639 -0.086307 0.002577 255 255 0 82 15
0.582699 -0.047212 0.003736 255 255 0 82 15
0.577333 -0.104733 -0.003717 255 255 0 82 15
0.575822 -0.137327 0.003661 255 255 0 82 15
0.575837 -0.006016 0.006283 255 255 0 82 15
0.572697 -0.123260 -0.001718 255 255 0 82 15
0.577001 -0.020553 0.006283 255 255 0 82 15
0.507798 -0.041053 0.014826 255 255 0 82 15
0.585188 -0.133825 -0.002632 255 255 0 82 15
0.584339 -0.120129 -0.001718 255 255 0 82 15
0.508803 -0.032321 0.014283 255 255 0 82 15
0.563543 -0.007400 -0.002674 255 255 0 82 15
0.569114 0.003225 -0.001718 255 255 0 82 15
0.563236 0.001028 0.006283 255 255 0 82 15
0.565358 -0.094264 0.002283 255 255 0 82 15
0.580875 0.003352 0.005066 255 255 0 82 15
0.581215 -0.128905 -0.002594 255 255 0 82 15
0.567182 -0.074366 -0.001718 255 255 0 82 15
0.583888 -0.027550 -0.000506 255 255 0 82 15
0.584247 -0.048768 0.010283 255 255 0 82 15
0.509075 -0.033047 -0.007717 255 255 0 82 15
0.576606 -0.053760 0.005295 255 255 0 82 15
0.573279 -0.042194 0.002283 255 255 0 82 15
0.564632 -0.010313 0.008282 255 255 0 82 15
0.577501 -0.096130 0.005318 255 255 0 82 15
0.586885 -0.075540 -0.002697 255 255 0 82 15
0.571670 -0.074823 -0.006200 255 255 0 82 15
0.582478 -0.015266 0.010283 255 255 0 82 15
0.574227 -0.093084 0.012640 255 255 0 82 15
0.579830 -0.108070 0.005400 255 255 0 82 15
0.573121 -0.027306 0.012017 255 255 0 82 15
0.585728 -0.061026 0.007317 255 255 0 82 15
0.578669 -0.085017 -0.003717 255 255 0 82 15
0.573838 -0.012091 0.012995 255 255 0 82 15
0.574304 0.000894 -0.003717 255 255 0 82 15
0.574309 -0.056755 -0.005718 255 255 0 82 15
0.589481 -0.033999 0.010283 255 255 0 82 15
0.564684 -0.058218 -0.001718 255 255 0 82 15
0.578691 -0.076468 0.005309 255 255 0 82 15
0.573460 -0.028213 -0.001718 255 255 0 82 15
0.574894 -0.129133 -0.000098 255 255 0 82 15
0.572665 -0.014665 -0.008657 255 255 0 82 15
0.508705 -0.026346 0.014283 255 255 0 82 15
0.581148 -0.039251 0.010283 255 255 0 82 15
0.566893 -0.106502 0.000283 255 255 0 82 15
0.586472 -0.099181 0.012282 255 255 0 82 15
0.578033 -0.031875 0.006283 255 255 0 82 15
0.580402 -0.001096 0.012843 255 255 0 82 15
0.569716 -0.037119 -0.005718 255 255 0 82 15
0.577493 -0.087592 0.002283 255 255 0 82 15
0.575146 -0.075658 0.000283 255 255 0 82 15
0.507452 -0.040127 -0.007717 255 255 0 82 15
0.582683 -0.083516 0.006283 255 255 0 82 15
0.565242 -0.083632 0.000283 255 255 0 82 15
0.587090 -0.056246 0.010283 255 255 0 82 15
0.515047 -0.049018 0.011343 255 255 0 82 15
0.567437 -0.048648 -0.003717 255 255 0 82 15
0.571003 -0.038774 0.012489 255 255 0 82 15
0.586133 -0.124931 0.007137 255 255 0 82 15
0.572631 -0.048840 0.011707 255 255 0 82 15
-0.139512 0.246462 0.014283 255 255 0 64 16
-0.025572 0.066291 0.020283 255 255 0 64 16
-0.011809 0.300614 0.022282 255 255 0 64 16
-0.135544 0.121968 0.022282 255 255 0 64 16
-0.029052 0.184105 -0.001718 255 255 0 64 16
-0.229309 0.217159 -0.008690 255 255 0 64 16
-0.093271 0.312861 0.022282 255 255 0 64 16
-0.062615 0.245320 0.025478 255 255 0 64 16
-0.096937 0.062996 0.004282 255 255 0 64 16
-0.063432 0.127577 0.027056 255 255 0 64 16
-0.104340 0.185592 0.026282 255 255 0 64 16
-0.141397 0.299138 0.002283 255 255 0 64 16
-0.013241 0.227481 0.022794 255 255 0 64 16
-0.029973 0.112329 -0.006625 255 255 0 64 16
-0.120756 0.155255 -0.008681 255 255 0 64 16
-0.022802 0.264475 -0.004326 255 255 0 64 16
-0.019173 0.146260 0.022332 255 255 0 64 16
-0.125853 0.208865 -0.006693 255 255 0 64 16
-0.101449 0.269235 0.025567 255 255 0 64 16
-0.061019 0.201077 0.023884 255 255 0 64 16
-0.054677 0.288856 0.026282 255 255 0 64 16
-0.139077 0.075806 0.002283 255 255 0 64 16
-0.097869 0.099755 0.027023 255 255 0 64 16
-0.056871 0.078785 -0.005718 255 255 0 64 16
-0.100554 0.226864 0.021410 255 255 0 64 16
-0.100922 0.143453 0.026282 255 255 0 64 16
-0.053332 0.163382 0.021455 255 255 0 64 16
-0.134325 0.162993 0.024796 255 255 0 64 16
-0.038411 0.100633 0.027165 255 255 0 64 16
-0.121506 0.105864 -0.006707 255 255 0 64 16
-0.066963 0.062779 0.024283 255 255 0 64 16
-0.135692 0.200915 0.025605 255 255 0 64 16
-0.026826 0.218131 -0.006657 255 255 0 64 16
-0.030068 0.255353 0.026616 255 255 0 64 16
-0.134680 0.278162 0.026275 255 255 0 64 16
-0.127786 0.271145 -0.005718 255 255 0 64 16
-0.118619 0.075298 0.026282 255 255 0 64 16
-0.028717 0.200342 0.025482 255 255 0 64 16
-0.067912 0.093874 0.021524 255 255 0 64 16
-0.039479 0.314791 0.022282 255 255 0 64 16
-0.123179 0.310220 0.023260 255 255 0 64 16
-0.135088 0.182170 0.002283 255 255 0 64 16
-0.027553 0.083012 -0.003717 255 255 0 64 16
-0.081888 0.165517 0.026838 255 255 0 64 16
-0.042269 0.225169 0.021375 255 255 0 64 16
-0.019100 0.174619 0.022282 255 255 0 64 16
-0.074294 0.270846 0.021366 255 255 0 64 16
-0.019707 0.119138 0.022282 255 255 0 64 16
-0.126520 0.244914 -0.008705 255 255 0 64 16
-0.128738 0.130918 -0.002174 255 255 0 64 16
-0.126174 0.225826 0.026282 255 255 0 64 16
-0.067280 0.311903 0.022282 255 255 0 64 16
-0.029106 0.281336 0.026501 255 255 0 64 16
-0.133027 0.095151 0.018282 255 255 0 64 16
-0.075745 0.223329 0.025786 255 255 0 64 16
-0.092775 0.074707 0.026282 255 255 0 64 16
-0.025948 0.158673 0.001486 255 255 0 64 16
-0.087424 0.248855 0.021493 255 255 0 64 16
-0.114660 0.081843 -0.005718 255 255 0 64 16
-0.018143 0.240594 0.001251 255 255 0 64 16
-0.115280 0.249117 0.021384 255 255 0 64 16
-0.086613 0.121045 0.021573 255 255 0 64 16
-0.047095 0.078170 0.021363 255 255 0 64 16
-0.043053 0.141602 0.026029 255 255 0 64 16
-0.087002 0.202038 0.021547 255 255 0 64 16
-0.139879 0.223537 0.006283 255 255 0 64 16
-0.111894 0.120134 0.026241 255 255 0 64 16
-0.083004 0.079690 -0.005718 255 255 0 64 16
-0.106107 0.293114 0.026376 255 255 0 64 16
-0.010000 0.267127 0.022282 255 255 0 64 16
-0.050658 0.264736 0.021335 255 255 0 64 16
-0.123149 0.141548 0.020283 255 255 0 64 16
-0.080658 0.293579 0.026282 255 255 0 64 16
-0.112511 0.207447 0.025846 255 255 0 64 16
-0.111305 0.164246 0.022282 255 255 0 64 16
-0.018666 0.087799 0.022282 255 255 0 64 16
-0.040674 0.180926 0.027659 255 255 0 64 16
-0.026542 0.131706 0.004282 255 255 0 64 16
-0.040319 0.065756 0.002813 255 255 0 64 16
-0.071012 0.062188 0.002283 255 255 0 64 16
-0.077929 0.143509 0.021511 255 255 0 64 16
-0.120922 0.064327 0.006283 255 255 0 64 16
-0.018860 0.202533 0.006283 255 255 0 64 16
-0.065956 0.180013 0.026875 255 255 0 64 16
-0.026404 0.285529 -0.005718 255 255 0 64 16
-0.043908 0.121047 0.022282 255 255 0 64 16
-0.124240 0.181710 0.021415 255 255 0 64 16
-0.139811 0.297595 0.022862 255 255 0 64 16
-0.134249 0.151367 0.006283 255 255 0 64 16
-0.032969 0.160319 0.027299 255 255 0 64 16
-0.139983 0.267638 0.010283 255 255 0 64 16
-0.025070 0.099215 0.007086 255 255 0 64 16
-0.119331 0.177140 -0.007717 255 255 0 64 16
-0.137731 0.200658 0.006283 255 255 0 64 16
-0.116831 0.099071 0.027481 255 255 0 64 16
-0.131750 0.258904 0.026282 255 255 0 64 16
-0.133874 0.111916 0.006283 255 255 0 64 16
-0.085145 0.183515 0.022282 255 255 0 64 16
-0.059002 0.110017 0.021393 255 255 0 64 16
-0.044827 0.243430 0.021438 255 255 0 64 16
-0.127280 0.289469 -0.005718 255 255 0 64 16
-0.015798 0.245742 0.020356 255 255 0 64 16
-0.083203 0.060527 0.016282 255 255 0 64 16
-0.130629 0.091777 0.000283 255 255 0 64 16
-0.105526 0.063123 0.020283 255 255 0 64 16
-0.125658 0.168369 0.009288 255 255 0 64 16
-0.074950 0.078431 0.027623 255 255 0 64 16
-0.060369 0.147939 0.027002 255 255 0 64 16
-0.029789 0.300297 0.025991 255 255 0 64 16
-0.059130 0.218864 0.021365 255 255 0 64 16
-0.117592 0.278145 0.021434 255 255 0 64 16
-0.127554 0.227446 -0.005718 255 255 0 64 16
-0.020302 0.274921 0.010283 255 255 0 64 16
-0.029384 0.236392 0.026209 255 255 0 64 16
-0.128586 0.310333 0.006283 255 255 0 64 16
-0.075575 0.108656 0.026282 255 255 0 64 16
-0.132702 0.284292 0.010283 255 255 0 64 16
-0.132756 0.069629 0.018282 255 255 0 64 16
-0.014765 0.209829 0.022282 255 255 0 64 16
