ply
format ascii 1.0
element vertex 1181
property float x
property float y
property float z
property uchar red
property uchar green
property uchar blue
property uchar semantic_label
property uchar instance_label
end_header
0.460671 0.113189 0.168002 255 0 255 74 5
0.393563 0.076438 0.154002 255 0 255 74 5
0.335464 0.101306 0.174002 255 0 255 74 5
0.443733 0.105649 0.154002 255 0 255 74 5
0.341368 0.090603 0.167030 255 0 255 74 5
0.394754 0.077211 0.174002 255 0 255 74 5
0.420174 0.167908 0.170002 255 0 255 74 5
0.424371 0.083183 0.166002 255 0 255 74 5
0.446911 0.096550 0.194002 255 0 255 74 5
0.365108 0.057999 0.170002 255 0 255 74 5
0.385868 0.060697 0.158002 255 0 255 74 5
0.417853 0.171474 0.162002 255 0 255 74 5
0.450955 0.097980 0.184002 255 0 255 74 5
0.402402 0.069924 0.180002 255 0 255 74 5
0.456156 0.111187 0.158998 255 0 255 74 5
0.413564 0.083958 0.180002 255 0 255 74 5
0.451535 0.118303 0.167043 255 0 255 74 5
0.433303 0.147963 0.174002 255 0 255 74 5
0.418804 0.089370 0.164002 255 0 255 74 5
0.352652 0.066737 0.172002 255 0 255 74 5
0.362226 0.063678 0.177082 255 0 255 74 5
0.445651 0.140001 0.172002 255 0 255 74 5
0.390984 0.073923 0.189745 255 0 255 74 5
0.374795 0.065096 0.186949 255 0 255 74 5
0.430771 0.087957 0.192252 255 0 255 74 5
0.431664 0.087767 0.164002 255 0 255 74 5
0.446864 0.105948 0.162002 255 0 255 74 5
0.441062 0.102127 0.180002 255 0 255 74 5
0.434274 0.099481 0.156002 255 0 255 74 5
0.332849 0.117861 0.172002 255 0 255 74 5
0.381581 0.058544 0.174002 255 0 255 74 5
0.411822 0.075627 0.174002 255 0 255 74 5
0.380550 0.067962 0.148002 255 0 255 74 5
0.404971 0.082009 0.182002 255 0 255 74 5
0.380564 0.067959 0.178002 255 0 255 74 5
0.398465 0.068243 0.164002 255 0 255 74 5
0.450289 0.100166 0.154002 255 0 255 74 5
0.371407 0.051503 0.172002 255 0 255 74 5
0.436629 0.101025 0.148002 255 0 255 74 5
0.445373 0.127792 0.167009 255 0 255 74 5
0.390861 0.063725 0.175394 255 0 255 74 5
0.369221 0.058112 0.182002 255 0 255 74 5
0.340709 0.106743 0.172002 255 0 255 74 5
0.458877 0.110609 0.178002 255 0 255 74 5
0.394065 0.069178 0.151502 255 0 255 74 5
0.432047 0.161294 0.171331 255 0 255 74 5
0.446711 0.095610 0.168002 255 0 255 74 5
0.370197 0.053085 0.164002 255 0 255 74 5
0.439211 0.137280 0.174828 255 0 255 74 5
0.456449 0.102946 0.157838 255 0 255 74 5
0.346648 0.096203 0.170002 255 0 255 74 5
0.342492 0.086274 0.172991 255 0 255 74 5
0.441699 0.129750 0.174002 255 0 255 74 5
0.325670 0.122565 0.166929 255 0 255 74 5
0.417175 0.081710 0.166002 255 0 255 74 5
0.355355 0.079451 0.171686 255 0 255 74 5
0.384073 0.070267 0.154002 255 0 255 74 5
0.436651 0.101020 0.186002 255 0 255 74 5
0.425943 0.084478 0.188002 255 0 255 74 5
0.448135 0.106758 0.174002 255 0 255 74 5
0.427181 0.094854 0.182002 255 0 255 74 5
0.450996 0.106150 0.186840 255 0 255 74 5
0.371462 0.063759 0.170002 255 0 255 74 5
0.451241 0.126544 0.176589 255 0 255 74 5
0.453832 0.113726 0.174002 255 0 255 74 5
0.439106 0.151615 0.172002 255 0 255 74 5
0.428427 0.153885 0.172934 255 0 255 74 5
0.372934 0.056342 0.152002 255 0 255 74 5
0.402013 0.077712 0.186740 255 0 255 74 5
0.427154 0.094860 0.170002 255 0 255 74 5
0.380328 0.057785 0.184002 255 0 255 74 5
0.419744 0.088256 0.180002 255 0 255 74 5
0.406054 0.077486 0.160002 255 0 255 74 5
0.422427 0.091775 0.158002 255 0 255 74 5
0.425885 0.170783 0.172920 255 0 255 74 5
0.329460 0.111536 0.172964 255 0 255 74 5
0.444470 0.094686 0.160002 255 0 255 74 5
0.343612 0.101163 0.176002 255 0 255 74 5
0.404805 0.071608 0.172002 255 0 255 74 5
0.377373 0.067606 0.154002 255 0 255 74 5
0.421230 0.081547 0.172002 255 0 255 74 5
0.436832 0.092803 0.150002 255 0 255 74 5
0.447268 0.133523 0.170002 255 0 255 74 5
0.390779 0.063339 0.188002 255 0 255 74 5
0.379619 0.062026 0.192002 255 0 255 74 5
0.421181 0.090934 0.170002 255 0 255 74 5
0.391190 0.074893 0.168002 255 0 255 74 5
0.384068 0.070242 0.166002 255 0 255 74 5
0.361909 0.052568 0.172002 255 0 255 74 5
0.399225 0.074216 0.151276 255 0 255 74 5
0.409418 0.080228 0.170002 255 0 255 74 5
0.367603 0.060118 0.176002 255 0 255 74 5
0.441507 0.099988 0.192697 255 0 255 74 5
0.453042 0.099581 0.168002 255 0 255 74 5
0.428151 0.085250 0.178002 255 0 255 74 5
0.437448 0.090508 0.188002 255 0 255 74 5
0.383731 0.059040 0.164002 255 0 255 74 5
0.455637 0.101074 0.180002 255 0 255 74 5
0.442117 0.093236 0.172002 255 0 255 74 5
0.431187 0.089913 0.151158 255 0 255 74 5
0.398308 0.079519 0.158002 255 0 255 74 5
0.387498 0.067142 0.192002 255 0 255 74 5
0.419742 0.084167 0.184987 255 0 255 74 5
0.409545 0.084290 0.175145 255 0 255 74 5
0.420981 0.176568 0.164002 255 0 255 74 5
0.451824 0.119663 0.174002 255 0 255 74 5
0.346757 0.081279 0.174002 255 0 255 74 5
0.375870 0.064867 0.164002 255 0 255 74 5
0.393593 0.065189 0.170002 255 0 255 74 5
0.347653 0.091312 0.176820 255 0 255 74 5
0.357730 0.071388 0.170002 255 0 255 74 5
0.402627 0.080602 0.168002 255 0 255 74 5
0.433053 0.098691 0.162002 255 0 255 74 5
0.426028 0.166663 0.168002 255 0 255 74 5
0.428296 0.095552 0.156002 255 0 255 74 5
0.403645 0.071231 0.166002 255 0 255 74 5
0.435344 0.142191 0.174002 255 0 255 74 5
0.334706 0.102242 0.168002 255 0 255 74 5
0.338287 0.095347 0.171039 255 0 255 74 5
0.460878 0.104547 0.178002 255 0 255 74 5
0.366423 0.058696 0.164002 255 0 255 74 5
0.396853 0.072675 0.190678 255 0 255 74 5
0.446252 0.103069 0.149120 255 0 255 74 5
0.425967 0.084592 0.160002 255 0 255 74 5
0.396269 0.066665 0.178002 255 0 255 74 5
0.399137 0.078324 0.178002 255 0 255 74 5
0.445758 0.105218 0.168002 255 0 255 74 5
0.331169 0.105039 0.172002 255 0 255 74 5
0.327211 0.120193 0.161283 255 0 255 74 5
0.442574 0.093627 0.190002 255 0 255 74 5
0.358793 0.068497 0.176002 255 0 255 74 5
0.393216 0.065270 0.164002 255 0 255 74 5
0.460807 0.104210 0.170002 255 0 255 74 5
0.381691 0.068678 0.184002 255 0 255 74 5
0.423901 0.084494 0.154002 255 0 255 74 5
0.388816 0.073344 0.156002 255 0 255 74 5
0.446862 0.105939 0.182002 255 0 255 74 5
0.435132 0.089235 0.170002 255 0 255 74 5
0.374567 0.064025 0.158002 255 0 255 74 5
0.650998 0.248668 0.150002 255 0 0 73 6
0.604483 0.235055 0.154002 255 0 0 73 6
0.624623 0.253265 0.154002 255 0 0 73 6
0.633573 0.234029 0.144002 255 0 0 73 6
0.605170 0.254312 0.152002 255 0 0 73 6
0.621618 0.235502 0.156800 255 0 0 73 6
0.614822 0.242007 0.142002 255 0 0 73 6
0.645804 0.233855 0.156002 255 0 0 73 6
0.654166 0.234718 0.143258 255 0 0 73 6
0.638223 0.246285 0.156796 255 0 0 73 6
0.643457 0.242051 0.142002 255 0 0 73 6
0.613500 0.245406 0.156985 255 0 0 73 6
0.657370 0.240171 0.156793 255 0 0 73 6
0.633772 0.234963 0.157078 255 0 0 73 6
0.629566 0.244036 0.149009 255 0 0 73 6
0.605552 0.236872 0.143056 255 0 0 73 6
0.622686 0.235275 0.144002 255 0 0 73 6
0.642037 0.254608 0.152002 255 0 0 73 6
0.652247 0.254546 0.142002 255 0 0 73 6
0.615163 0.253231 0.151009 255 0 0 73 6
0.615034 0.233382 0.150002 255 0 0 73 6
0.657786 0.242127 0.147605 255 0 0 73 6
0.605259 0.245113 0.151115 255 0 0 73 6
0.648004 0.244206 0.157430 255 0 0 73 6
0.625654 0.244868 0.157141 255 0 0 73 6
0.641929 0.234862 0.148002 255 0 0 73 6
0.653890 0.233417 0.152002 255 0 0 73 6
0.657268 0.254505 0.152002 255 0 0 73 6
0.618953 0.242203 0.151141 255 0 0 73 6
0.633602 0.253402 0.151104 255 0 0 73 6
0.643100 0.245249 0.150002 255 0 0 73 6
0.652115 0.244304 0.142002 255 0 0 73 6
0.635217 0.241762 0.142002 255 0 0 73 6
0.613793 0.237165 0.157273 255 0 0 73 6
0.627314 0.233442 0.150002 255 0 0 73 6
0.649309 0.240723 0.150002 255 0 0 73 6
0.657333 0.249616 0.146002 255 0 0 73 6
0.655121 0.248828 0.156364 255 0 0 73 6
0.610475 0.240796 0.148002 255 0 0 73 6
0.625020 0.241885 0.142002 255 0 0 73 6
0.640888 0.239585 0.157013 255 0 0 73 6
0.637166 0.241315 0.150002 255 0 0 73 6
0.647385 0.250910 0.156002 255 0 0 73 6
0.610805 0.232727 0.144002 255 0 0 73 6
0.608014 0.240438 0.156002 255 0 0 73 6
0.644942 0.234634 0.142002 255 0 0 73 6
0.624113 0.247240 0.151059 255 0 0 73 6
0.639537 0.233226 0.154002 255 0 0 73 6
0.608124 0.248971 0.156002 255 0 0 73 6
0.636475 0.247680 0.150002 255 0 0 73 6
0.620284 0.248464 0.156002 255 0 0 73 6
0.658495 0.235842 0.148186 255 0 0 73 6
0.632365 0.249575 0.156002 255 0 0 73 6
0.851866 0.039344 0.176115 0 0 255 62 7
0.670100 0.035042 0.154002 0 0 255 62 7
0.764702 -0.075033 0.156002 0 0 255 62 7
0.815561 0.161563 0.154002 0 0 255 62 7
0.760699 0.077125 0.156002 0 0 255 62 7
0.780410 0.001371 0.173673 0 0 255 62 7
0.866420 0.107814 0.153094 0 0 255 62 7
0.714031 -0.022331 0.154002 0 0 255 62 7
0.910998 0.053356 0.152002 0 0 255 62 7
0.835109 -0.014345 0.146002 0 0 255 62 7
0.812038 0.082833 0.188002 0 0 255 62 7
0.725746 0.032782 0.170002 0 0 255 62 7
0.778148 0.125404 0.178002 0 0 255 62 7
0.803668 0.043455 0.159014 0 0 255 62 7
0.801438 -0.043992 0.166076 0 0 255 62 7
0.818845 0.114861 0.154002 0 0 255 62 7
0.757056 -0.031541 0.152002 0 0 255 62 7
0.718335 0.074873 0.166002 0 0 255 62 7
0.872008 0.066766 0.152002 0 0 255 62 7
0.765886 0.038858 0.172002 0 0 255 62 7
0.881751 0.026029 0.154002 0 0 255 62 7
0.836291 0.081504 0.159040 0 0 255 62 7
0.825783 0.014218 0.168002 0 0 255 62 7
0.698741 0.011551 0.152002 0 0 255 62 7
0.741459 -0.000573 0.166002 0 0 255 62 7
0.858500 0.003175 0.166002 0 0 255 62 7
0.788781 0.093647 0.166002 0 0 255 62 7
0.700570 0.049012 0.157019 0 0 255 62 7
0.808091 -0.012692 0.163034 0 0 255 62 7
0.841857 0.136547 0.154002 0 0 255 62 7
0.824185 0.053407 0.180366 0 0 255 62 7
0.757950 0.107336 0.162002 0 0 255 62 7
0.796948 0.136894 0.157005 0 0 255 62 7
0.739509 -0.056379 0.152002 0 0 255 62 7
0.743438 0.058302 0.172797 0 0 255 62 7
0.781115 -0.053026 0.146002 0 0 255 62 7
0.783469 0.063863 0.168002 0 0 255 62 7
0.778501 -0.026849 0.170821 0 0 255 62 7
0.799802 0.015651 0.157012 0 0 255 62 7
0.736179 0.091487 0.154002 0 0 255 62 7
0.811446 0.070427 0.165013 0 0 255 62 7
0.852943 0.063651 0.169029 0 0 255 62 7
0.800615 0.115668 0.171617 0 0 255 62 7
0.723677 0.013430 0.153003 0 0 255 62 7
0.842944 0.112804 0.161684 0 0 255 62 7
0.859446 0.017286 0.186369 0 0 255 62 7
0.873924 0.046924 0.166602 0 0 255 62 7
0.760969 0.015727 0.165009 0 0 255 62 7
0.895529 0.071613 0.156002 0 0 255 62 7
0.821180 0.096984 0.170082 0 0 255 62 7
0.734092 -0.033767 0.160303 0 0 255 62 7
0.763586 -0.010441 0.162002 0 0 255 62 7
0.820010 0.139577 0.162002 0 0 255 62 7
0.828891 0.037068 0.164002 0 0 255 62 7
0.859474 0.084755 0.159870 0 0 255 62 7
0.881985 0.090193 0.154002 0 0 255 62 7
0.762898 -0.052158 0.160221 0 0 255 62 7
0.780901 0.042160 0.155043 0 0 255 62 7
0.717884 0.053510 0.172310 0 0 255 62 7
0.783443 0.025262 0.170790 0 0 255 62 7
0.836266 -0.005190 0.166002 0 0 255 62 7
0.890971 0.045345 0.150002 0 0 255 62 7
0.863065 0.024696 0.165048 0 0 255 62 7
0.690127 0.028740 0.161365 0 0 255 62 7
0.779850 0.104551 0.182002 0 0 255 62 7
0.761461 0.056516 0.161060 0 0 255 62 7
0.710937 0.030451 0.155027 0 0 255 62 7
0.746274 0.033163 0.165013 0 0 255 62 7
0.741728 0.079112 0.170366 0 0 255 62 7
0.814076 0.063563 0.196002 0 0 255 62 7
0.712110 -0.002513 0.160525 0 0 255 62 7
0.742163 -0.015035 0.151032 0 0 255 62 7
0.768530 0.089773 0.170250 0 0 255 62 7
0.824934 -0.024450 0.164002 0 0 255 62 7
0.843898 0.021098 0.174002 0 0 255 62 7
0.783292 -0.052403 0.165849 0 0 255 62 7
0.819658 0.003252 0.153022 0 0 255 62 7
0.800785 0.097229 0.181235 0 0 255 62 7
0.834089 0.061525 0.165098 0 0 255 62 7
0.797355 -0.024722 0.173570 0 0 255 62 7
0.801220 0.003082 0.171001 0 0 255 62 7
0.810538 0.027682 0.166715 0 0 255 62 7
0.846486 0.095694 0.152002 0 0 255 62 7
0.796627 0.077667 0.173267 0 0 255 62 7
0.736662 0.016804 0.169453 0 0 255 62 7
0.774049 -0.038171 0.157082 0 0 255 62 7
0.764375 0.113147 0.178002 0 0 255 62 7
0.800294 0.056440 0.170792 0 0 255 62 7
0.790068 -0.010905 0.165029 0 0 255 62 7
0.728176 -0.003884 0.153164 0 0 255 62 7
0.826803 0.075342 0.172984 0 0 255 62 7
0.830252 0.101189 0.155041 0 0 255 62 7
0.835384 0.038758 0.181573 0 0 255 62 7
0.783717 0.113126 0.167131 0 0 255 62 7
0.855902 0.048710 0.161052 0 0 255 62 7
0.884660 0.058954 0.160614 0 0 255 62 7
0.704916 0.064445 0.164002 0 0 255 62 7
0.752464 0.091143 0.164606 0 0 255 62 7
0.809745 -0.029400 0.158002 0 0 255 62 7
0.805406 0.090113 0.165008 0 0 255 62 7
0.780561 0.079037 0.161010 0 0 255 62 7
0.683455 0.045449 0.154002 0 0 255 62 7
0.831329 0.125497 0.161044 0 0 255 62 7
0.815944 0.053114 0.165085 0 0 255 62 7
0.855009 0.121466 0.154002 0 0 255 62 7
0.845506 -0.000198 0.153072 0 0 255 62 7
0.878312 0.029088 0.170002 0 0 255 62 7
0.748173 -0.044475 0.160002 0 0 255 62 7
0.734659 0.045855 0.165048 0 0 255 62 7
0.682376 0.016075 0.154002 0 0 255 62 7
0.828494 0.150635 0.153038 0 0 255 62 7
0.792717 0.030415 0.156002 0 0 255 62 7
0.768644 -0.063603 0.145023 0 0 255 62 7
0.729177 -0.018409 0.161213 0 0 255 62 7
0.789700 -0.041497 0.155049 0 0 255 62 7
0.856357 0.070089 0.154002 0 0 255 62 7
0.809394 0.128114 0.165594 0 0 255 62 7
0.751113 -0.021027 0.162800 0 0 255 62 7
0.754328 -0.063616 0.152002 0 0 255 62 7
0.791372 0.129901 0.170411 0 0 255 62 7
0.730369 0.064154 0.166002 0 0 255 62 7
0.749430 0.067252 0.161007 0 0 255 62 7
0.842240 0.051774 0.176002 0 0 255 62 7
0.761069 0.001393 0.172002 0 0 255 62 7
0.809224 0.146553 0.153005 0 0 255 62 7
0.698213 -0.005694 0.154002 0 0 255 62 7
0.890283 0.037312 0.163402 0 0 255 62 7
0.820367 -0.003033 0.167294 0 0 255 62 7
0.791427 0.053205 0.158002 0 0 255 62 7
0.709104 0.041064 0.167278 0 0 255 62 7
0.813005 -0.028049 0.173254 0 0 255 62 7
0.808733 0.105764 0.163054 0 0 255 62 7
0.817116 0.020150 0.155028 0 0 255 62 7
0.763683 -0.029222 0.166002 0 0 255 62 7
0.825150 0.067567 0.186002 0 0 255 62 7
0.786613 0.011318 0.164002 0 0 255 62 7
0.775773 0.056514 0.156002 0 0 255 62 7
0.880865 0.076119 0.160002 0 0 255 62 7
0.841716 0.010831 0.163067 0 0 255 62 7
0.750725 0.044485 0.173544 0 0 255 62 7
0.788159 -0.039125 0.170577 0 0 255 62 7
0.823630 -0.011905 0.156002 0 0 255 62 7
0.818269 0.083290 0.163007 0 0 255 62 7
0.773123 0.015188 0.173575 0 0 255 62 7
0.899063 0.049759 0.161430 0 0 255 62 7
0.772896 -0.062836 0.160002 0 0 255 62 7
0.866638 0.060741 0.164803 0 0 255 62 7
0.757180 0.026755 0.173824 0 0 255 62 7
0.719056 0.020546 0.164898 0 0 255 62 7
0.854976 0.102074 0.162002 0 0 255 62 7
0.773397 0.103051 0.165030 0 0 255 62 7
0.770240 0.068962 0.163401 0 0 255 62 7
0.847613 0.077052 0.167004 0 0 255 62 7
0.869794 0.094829 0.160382 0 0 255 62 7
0.803430 0.071194 0.190002 0 0 255 62 7
0.729461 0.083764 0.164002 0 0 255 62 7
0.749525 0.009980 0.171319 0 0 255 62 7
0.843209 0.037095 0.165011 0 0 255 62 7
0.776015 0.048031 0.168002 0 0 255 62 7
0.773586 -0.011491 0.172080 0 0 255 62 7
0.770855 0.119949 0.167084 0 0 255 62 7
0.871429 0.035186 0.159003 0 0 255 62 7
0.817362 0.040544 0.171426 0 0 255 62 7
0.874756 0.050836 0.153041 0 0 255 62 7
0.728782 0.006211 0.164002 0 0 255 62 7
0.839202 0.095198 0.164119 0 0 255 62 7
0.815679 0.128823 0.153038 0 0 255 62 7
0.788310 0.038541 0.166450 0 0 255 62 7
0.810216 0.013438 0.166002 0 0 255 62 7
0.864899 0.014083 0.173796 0 0 255 62 7
0.787685 0.093318 0.180002 0 0 255 62 7
0.894857 0.058832 0.151084 0 0 255 62 7
0.810490 0.080854 0.174002 0 0 255 62 7
0.865560 0.036433 0.171552 0 0 255 62 7
0.834430 0.024648 0.163010 0 0 255 62 7
0.695913 0.036720 0.152002 0 0 255 62 7
0.814335 0.061634 0.176002 0 0 255 62 7
0.840905 0.122450 0.152002 0 0 255 62 7
0.743375 -0.028571 0.152002 0 0 255 62 7
0.828540 0.136313 0.152002 0 0 255 62 7
0.826047 0.110262 0.164406 0 0 255 62 7
0.771290 0.025801 0.165073 0 0 255 62 7
0.797553 0.024308 0.167125 0 0 255 62 7
0.873556 0.016332 0.163804 0 0 255 62 7
0.807089 0.001834 0.159015 0 0 255 62 7
0.792695 0.105083 0.174002 0 0 255 62 7
0.871212 0.082260 0.153081 0 0 255 62 7
0.708736 0.010472 0.160708 0 0 255 62 7
0.798460 0.067053 0.163005 0 0 255 62 7
0.903352 0.041077 0.152002 0 0 255 62 7
0.753730 0.000908 0.161006 0 0 255 62 7
0.852310 0.108769 0.151043 0 0 255 62 7
0.832748 0.002514 0.156002 0 0 255 62 7
0.732457 0.025877 0.161044 0 0 255 62 7
0.857612 0.027899 0.178635 0 0 255 62 7
0.746689 0.083215 0.156002 0 0 255 62 7
0.734977 -0.044178 0.152002 0 0 255 62 7
0.800266 -0.011028 0.173186 0 0 255 62 7
0.700923 0.021814 0.160002 0 0 255 62 7
0.815141 0.116670 0.166979 0 0 255 62 7
0.831323 0.048508 0.170002 0 0 255 62 7
0.727098 -0.028191 0.151045 0 0 255 62 7
0.750214 0.099800 0.155014 0 0 255 62 7
0.856658 0.013790 0.159026 0 0 255 62 7
0.720675 0.042694 0.162002 0 0 255 62 7
0.747691 0.020594 0.163010 0 0 255 62 7
0.844995 0.055117 0.163033 0 0 255 62 7
0.772833 -0.019510 0.162002 0 0 255 62 7
0.790654 -0.027387 0.163006 0 0 255 62 7
0.771044 0.005406 0.165076 0 0 255 62 7
0.797950 0.122368 0.161057 0 0 255 62 7
0.848861 0.082921 0.153052 0 0 255 62 7
0.818652 0.075475 0.196002 0 0 255 62 7
0.703358 0.052508 0.168920 0 0 255 62 7
0.753881 0.078574 0.166571 0 0 255 62 7
0.822692 0.027143 0.170149 0 0 255 62 7
0.799904 0.083465 0.184002 0 0 255 62 7
0.831254 0.086664 0.169611 0 0 255 62 7
0.845922 0.001759 0.170716 0 0 255 62 7
0.781808 0.084906 0.172044 0 0 255 62 7
0.710399 0.018297 0.151032 0 0 255 62 7
0.760648 -0.043501 0.151008 0 0 255 62 7
0.807042 0.030470 0.155063 0 0 255 62 7
0.817872 -0.014771 0.170705 0 0 255 62 7
0.741284 0.009688 0.159054 0 0 255 62 7
0.889452 0.033400 0.147141 0 0 255 62 7
0.861969 0.096493 0.151038 0 0 255 62 7
0.779802 0.128270 0.166002 0 0 255 62 7
0.845534 0.067271 0.159014 0 0 255 62 7
0.845874 0.030394 0.181950 0 0 255 62 7
0.822767 0.065976 0.165020 0 0 255 62 7
0.832747 0.112927 0.153079 0 0 255 62 7
0.763088 0.102650 0.172002 0 0 255 62 7
0.841055 -0.011519 0.156214 0 0 255 62 7
0.751651 -0.008874 0.167853 0 0 255 62 7
0.720379 0.065248 0.173868 0 0 255 62 7
0.764201 0.088648 0.159014 0 0 255 62 7
0.851544 0.028209 0.166002 0 0 255 62 7
0.755176 0.055807 0.171412 0 0 255 62 7
0.712402 -0.010754 0.151006 0 0 255 62 7
0.737201 0.028957 0.171762 0 0 255 62 7
0.740534 -0.003457 0.154002 0 0 255 62 7
0.783864 -0.059333 0.156002 0 0 255 62 7
0.836849 -0.002447 0.145011 0 0 255 62 7
0.784268 0.115719 0.182002 0 0 255 62 7
0.730699 0.075323 0.173017 0 0 255 62 7
0.852329 0.012665 0.173130 0 0 255 62 7
0.838125 0.070891 0.171330 0 0 255 62 7
0.707072 0.002647 0.151016 0 0 255 62 7
0.730453 0.054928 0.173472 0 0 255 62 7
0.771760 -0.048944 0.152002 0 0 255 62 7
0.766791 0.043115 0.161014 0 0 255 62 7
0.867176 0.072894 0.160850 0 0 255 62 7
0.885353 0.066986 0.152002 0 0 255 62 7
0.693208 0.023996 0.151016 0 0 255 62 7
0.678976 0.027021 0.158002 0 0 255 62 7
0.750744 -0.051619 0.151021 0 0 255 62 7
0.786449 -0.018315 0.173395 0 0 255 62 7
0.701453 0.033928 0.162002 0 0 255 62 7
0.761310 -0.021150 0.157032 0 0 255 62 7
0.778018 0.095935 0.173268 0 0 255 62 7
0.835677 0.030517 0.173055 0 0 255 62 7
0.720644 -0.010461 0.160869 0 0 255 62 7
0.739894 0.089725 0.164877 0 0 255 62 7
0.830151 0.062362 0.176002 0 0 255 62 7
0.806260 0.046034 0.170002 0 0 255 62 7
0.882458 0.038976 0.155039 0 0 255 62 7
0.791732 -0.003080 0.173373 0 0 255 62 7
0.825252 0.092029 0.160002 0 0 255 62 7
0.818297 0.150758 0.159663 0 0 255 62 7
0.889426 0.081376 0.154002 0 0 255 62 7
0.759383 0.065978 0.168002 0 0 255 62 7
0.807582 0.138827 0.162002 0 0 255 62 7
0.804745 0.067762 0.173867 0 0 255 62 7
0.777697 0.036707 0.170189 0 0 255 62 7
0.799188 -0.035335 0.159062 0 0 255 62 7
0.740868 -0.011507 0.162002 0 0 255 62 7
0.814574 0.037048 0.161019 0 0 255 62 7
0.884316 0.047719 0.162002 0 0 255 62 7
0.799245 0.099602 0.165047 0 0 255 62 7
0.861770 0.047462 0.170644 0 0 255 62 7
0.803517 -0.034211 0.173184 0 0 255 62 7
0.809026 0.097523 0.172669 0 0 255 62 7
0.780022 0.066883 0.157040 0 0 255 62 7
0.795058 0.012570 0.171295 0 0 255 62 7
0.757303 0.036953 0.165036 0 0 255 62 7
0.775060 0.110876 0.173897 0 0 255 62 7
0.763436 -0.040004 0.161274 0 0 255 62 7
0.718221 0.002322 0.152002 0 0 255 62 7
0.753192 -0.011246 0.157036 0 0 255 62 7
0.816625 -0.020639 0.157045 0 0 255 62 7
0.713014 0.030602 0.166002 0 0 255 62 7
0.745688 0.049645 0.165036 0 0 255 62 7
0.825650 0.012202 0.157041 0 0 255 62 7
0.796163 0.089067 0.174194 0 0 255 62 7
0.830125 -0.014840 0.166002 0 0 255 62 7
0.808720 0.120079 0.158002 0 0 255 62 7
0.738108 0.071703 0.163015 0 0 255 62 7
0.771495 0.078919 0.168002 0 0 255 62 7
0.809754 -0.004866 0.170639 0 0 255 62 7
0.726002 0.043606 0.172147 0 0 255 62 7
0.691497 0.044806 0.161656 0 0 255 62 7
0.855779 0.038513 0.165120 0 0 255 62 7
0.818099 0.101728 0.159008 0 0 255 62 7
0.801910 0.035184 0.166002 0 0 255 62 7
0.777500 -0.038904 0.168002 0 0 255 62 7
0.776771 0.090066 0.163022 0 0 255 62 7
0.848152 0.089206 0.162126 0 0 255 62 7
0.691545 0.016170 0.160376 0 0 255 62 7
0.791589 0.082827 0.165043 0 0 255 62 7
0.730009 -0.014497 0.151034 0 0 255 62 7
0.762196 -0.065080 0.160002 0 0 255 62 7
0.858190 0.059476 0.158002 0 0 255 62 7
0.790607 0.001248 0.163005 0 0 255 62 7
0.771487 0.058474 0.166002 0 0 255 62 7
0.765426 0.049539 0.170002 0 0 255 62 7
0.793775 -0.050542 0.162002 0 0 255 62 7
0.817191 0.058983 0.186647 0 0 255 62 7
0.904889 0.062833 0.152002 0 0 255 62 7
0.793284 0.042701 0.156002 0 0 255 62 7
0.722017 0.030140 0.160002 0 0 255 62 7
0.712431 0.056714 0.163039 0 0 255 62 7
0.868103 0.019536 0.155023 0 0 255 62 7
0.901435 0.051299 0.147031 0 0 255 62 7
0.780362 0.030007 0.161048 0 0 255 62 7
0.794302 0.047490 0.166813 0 0 255 62 7
0.762545 0.066509 0.156002 0 0 255 62 7
0.811124 0.011200 0.155038 0 0 255 62 7
0.799557 -0.004743 0.163027 0 0 255 62 7
0.811211 -0.036492 0.166002 0 0 255 62 7
0.783641 0.074293 0.170637 0 0 255 62 7
0.748433 -0.033634 0.160002 0 0 255 62 7
0.832228 0.004670 0.167265 0 0 255 62 7
0.781118 -0.004914 0.165040 0 0 255 62 7
0.841281 0.104979 0.153091 0 0 255 62 7
0.739696 0.040695 0.172934 0 0 255 62 7
0.797411 0.110215 0.163017 0 0 255 62 7
0.820827 0.124185 0.162002 0 0 255 62 7
0.803640 -0.024013 0.165042 0 0 255 62 7
0.761294 -0.019102 0.168002 0 0 255 62 7
0.773927 -0.048368 0.163022 0 0 255 62 7
0.827143 0.038465 0.174756 0 0 255 62 7
0.856979 0.073017 0.164357 0 0 255 62 7
0.749326 -0.039050 0.151019 0 0 255 62 7
0.743649 0.068911 0.172002 0 0 255 62 7
0.756454 0.047357 0.164002 0 0 255 62 7
0.865061 0.043706 0.160002 0 0 255 62 7
0.788896 0.022059 0.161059 0 0 255 62 7
0.726071 -0.038196 0.154002 0 0 255 62 7
0.815831 -0.005135 0.158002 0 0 255 62 7
0.852821 0.053454 0.171396 0 0 255 62 7
0.818345 0.006691 0.164002 0 0 255 62 7
0.848298 -0.004880 0.162002 0 0 255 62 7
0.830772 0.101079 0.166002 0 0 255 62 7
0.827037 -0.019752 0.150002 0 0 255 62 7
0.805698 0.129964 0.156002 0 0 255 62 7
0.685090 0.033900 0.153075 0 0 255 62 7
0.738401 -0.023112 0.160002 0 0 255 62 7
0.751869 -0.055948 0.160429 0 0 255 62 7
0.764324 0.098845 0.161018 0 0 255 62 7
0.836168 0.071306 0.161002 0 0 255 62 7
0.732334 0.015679 0.159096 0 0 255 62 7
0.699247 0.004310 0.159409 0 0 255 62 7
0.792591 0.068301 0.171532 0 0 255 62 7
0.908456 0.045718 0.160002 0 0 255 62 7
0.766481 -0.030428 0.156002 0 0 255 62 7
0.746567 0.024922 0.173159 0 0 255 62 7
0.778852 0.018060 0.164002 0 0 255 62 7
0.821057 0.086787 0.172255 0 0 255 62 7
0.791249 0.119703 0.172738 0 0 255 62 7
0.735526 0.035448 0.164002 0 0 255 62 7
0.883828 0.055042 0.151034 0 0 255 62 7
0.783594 0.102928 0.167114 0 0 255 62 7
0.807410 0.061062 0.165095 0 0 255 62 7
0.802496 0.076419 0.165026 0 0 255 62 7
0.783122 -0.033965 0.161040 0 0 255 62 7
0.857054 0.111850 0.159510 0 0 255 62 7
0.796239 0.143179 0.149030 0 0 255 62 7
0.689677 0.007383 0.154002 0 0 255 62 7
0.788088 0.071303 0.162002 0 0 255 62 7
0.899186 0.059956 0.160205 0 0 255 62 7
0.827219 0.077298 0.163027 0 0 255 62 7
0.836414 0.091701 0.155006 0 0 255 62 7
0.836263 0.014035 0.171006 0 0 255 62 7
0.725709 0.051847 0.165090 0 0 255 62 7
0.844491 0.043126 0.182002 0 0 255 62 7
0.815924 0.071520 0.174002 0 0 255 62 7
0.710987 0.061110 0.172002 0 0 255 62 7
0.783086 -0.019645 0.164002 0 0 255 62 7
0.783396 0.053898 0.164505 0 0 255 62 7
0.832700 0.141563 0.159501 0 0 255 62 7
0.774351 0.117161 0.182437 0 0 255 62 7
0.842330 0.061818 0.172036 0 0 255 62 7
0.816974 0.106057 0.169385 0 0 255 62 7
0.846918 0.121880 0.160002 0 0 255 62 7
0.870891 0.023032 0.172921 0 0 255 62 7
0.878082 0.066487 0.160270 0 0 255 62 7
0.808800 -0.018976 0.172913 0 0 255 62 7
0.764050 0.010982 0.173275 0 0 255 62 7
0.762066 -0.056070 0.151051 0 0 255 62 7
0.880502 0.039392 0.166416 0 0 255 62 7
0.766545 0.022720 0.173395 0 0 255 62 7
0.825461 0.126744 0.153040 0 0 255 62 7
0.707148 0.041480 0.157040 0 0 255 62 7
0.800445 0.134106 0.167084 0 0 255 62 7
0.860599 0.080426 0.151016 0 0 255 62 7
0.766819 0.110583 0.165019 0 0 255 62 7
0.818779 0.027975 0.161106 0 0 255 62 7
0.815802 0.139021 0.153081 0 0 255 62 7
0.697371 0.057870 0.160002 0 0 255 62 7
0.849248 0.017409 0.165046 0 0 255 62 7
0.782489 0.011153 0.172962 0 0 255 62 7
0.761508 0.027880 0.165040 0 0 255 62 7
0.804820 0.106595 0.172055 0 0 255 62 7
0.777313 -0.063401 0.150002 0 0 255 62 7
0.770921 -0.004791 0.165032 0 0 255 62 7
0.733951 0.004050 0.156002 0 0 255 62 7
0.871334 0.092457 0.151067 0 0 255 62 7
0.751113 -0.021027 0.153068 0 0 255 62 7
0.868178 0.058368 0.155066 0 0 255 62 7
0.754420 0.090727 0.155100 0 0 255 62 7
0.770146 0.078136 0.158002 0 0 255 62 7
0.780418 -0.046686 0.156002 0 0 255 62 7
0.788282 -0.028928 0.172290 0 0 255 62 7
0.828762 -0.006862 0.148002 0 0 255 62 7
0.825551 0.055161 0.166002 0 0 255 62 7
0.718517 0.008393 0.159483 0 0 255 62 7
0.817116 0.020150 0.166476 0 0 255 62 7
0.822522 0.045582 0.165053 0 0 255 62 7
0.838172 0.042255 0.172455 0 0 255 62 7
0.841035 0.084585 0.166756 0 0 255 62 7
0.748646 0.034704 0.174152 0 0 255 62 7
0.895921 0.034979 0.154002 0 0 255 62 7
0.817269 0.049726 0.174002 0 0 255 62 7
0.801610 0.053013 0.162002 0 0 255 62 7
0.813402 0.070012 0.189049 0 0 255 62 7
0.742106 0.061654 0.164002 0 0 255 62 7
0.762954 0.082779 0.166488 0 0 255 62 7
0.814272 0.093346 0.164002 0 0 255 62 7
0.721503 0.060920 0.165005 0 0 255 62 7
0.807243 0.089135 0.182002 0 0 255 62 7
0.855409 0.089708 0.152002 0 0 255 62 7
0.851029 0.017031 0.182002 0 0 255 62 7
0.797240 0.008017 0.162002 0 0 255 62 7
0.788738 0.122282 0.164002 0 0 255 62 7
0.722723 -0.000680 0.160183 0 0 255 62 7
0.727713 0.022796 0.168569 0 0 255 62 7
0.864606 0.010055 0.164002 0 0 255 62 7
0.896984 0.039978 0.145146 0 0 255 62 7
0.764221 -0.007456 0.171627 0 0 255 62 7
0.710815 0.020253 0.160386 0 0 255 62 7
0.789832 0.132273 0.161022 0 0 255 62 7
0.734045 -0.005131 0.161542 0 0 255 62 7
0.788329 -0.051429 0.154002 0 0 255 62 7
0.840402 0.129702 0.160105 0 0 255 62 7
0.847038 0.045486 0.164002 0 0 255 62 7
0.734781 0.056053 0.165009 0 0 255 62 7
0.751564 0.000334 0.170002 0 0 255 62 7
0.720780 -0.014580 0.152002 0 0 255 62 7
0.877912 0.084925 0.160424 0 0 255 62 7
0.825140 0.067517 0.195245 0 0 255 62 7
0.761112 -0.070180 0.149013 0 0 255 62 7
0.880577 0.078224 0.151015 0 0 255 62 7
0.884292 0.028363 0.162553 0 0 255 62 7
0.852843 0.005462 0.158002 0 0 255 62 7
0.770212 0.001494 0.173353 0 0 255 62 7
0.825357 0.020443 0.161072 0 0 255 62 7
0.751263 0.056639 0.163008 0 0 255 62 7
0.723602 -0.025403 0.159199 0 0 255 62 7
0.834117 0.128993 0.151029 0 0 255 62 7
0.773577 0.036564 0.162002 0 0 255 62 7
0.787015 0.061307 0.159027 0 0 255 62 7
0.702281 0.028201 0.153087 0 0 255 62 7
0.718447 0.022720 0.156002 0 0 255 62 7
0.789633 0.083242 0.176806 0 0 255 62 7
0.876003 0.056705 0.162418 0 0 255 62 7
0.690970 0.051943 0.156002 0 0 255 62 7
0.755101 0.016974 0.172990 0 0 255 62 7
0.863846 0.102228 0.160002 0 0 255 62 7
0.845317 0.114345 0.153045 0 0 255 62 7
0.677265 0.035563 0.160589 0 0 255 62 7
0.799434 -0.014941 0.165040 0 0 255 62 7
0.782243 -0.009242 0.173561 0 0 255 62 7
0.738912 0.008147 0.168135 0 0 255 62 7
0.869255 0.082676 0.161886 0 0 255 62 7
0.833794 -0.016818 0.158002 0 0 255 62 7
0.857225 0.093412 0.160827 0 0 255 62 7
0.845622 0.099967 0.160002 0 0 255 62 7
0.739379 -0.041025 0.160002 0 0 255 62 7
0.857905 0.019658 0.174589 0 0 255 62 7
0.788754 0.107965 0.181631 0 0 255 62 7
0.790560 0.029884 0.167708 0 0 255 62 7
0.674791 0.043163 0.154002 0 0 255 62 7
0.789482 0.005577 0.172551 0 0 255 62 7
0.756083 0.098552 0.168226 0 0 255 62 7
0.734420 -0.022605 0.152002 0 0 255 62 7
0.837369 0.105811 0.161430 0 0 255 62 7
0.737447 0.049352 0.173616 0 0 255 62 7
0.776129 -0.028389 0.161106 0 0 255 62 7
0.714510 0.066496 0.165066 0 0 255 62 7
0.743751 -0.046043 0.151016 0 0 255 62 7
0.685921 0.037813 0.161054 0 0 255 62 7
0.736445 0.063878 0.173432 0 0 255 62 7
0.799734 0.024950 0.156002 0 0 255 62 7
0.738231 0.081900 0.161042 0 0 255 62 7
0.790512 0.058519 0.168476 0 0 255 62 7
0.798366 0.124325 0.170278 0 0 255 62 7
0.829686 0.021567 0.170825 0 0 255 62 7
0.718885 0.038985 0.169748 0 0 255 62 7
0.838434 0.120443 0.162002 0 0 255 62 7
0.769135 -0.022813 0.169291 0 0 255 62 7
0.847196 0.128258 0.154002 0 0 255 62 7
0.906179 0.054380 0.159320 0 0 255 62 7
0.845465 0.076567 0.158002 0 0 255 62 7
0.743300 0.096128 0.160002 0 0 255 62 7
0.790507 0.020016 0.170002 0 0 255 62 7
0.751897 0.011521 0.163067 0 0 255 62 7
0.821378 0.146014 0.151024 0 0 255 62 7
0.827124 0.134569 0.161413 0 0 255 62 7
0.773907 0.047736 0.159071 0 0 255 62 7
0.770355 0.122100 0.176002 0 0 255 62 7
0.810075 0.054361 0.172539 0 0 255 62 7
0.820122 -0.023427 0.171145 0 0 255 62 7
0.897287 0.041404 0.160002 0 0 255 62 7
0.873678 0.026529 0.157093 0 0 255 62 7
0.726049 0.014970 0.165258 0 0 255 62 7
0.771409 0.103316 0.176002 0 0 255 62 7
0.826425 -0.003393 0.156002 0 0 255 62 7
0.780636 0.117870 0.173673 0 0 255 62 7
0.823477 0.107791 0.156002 0 0 255 62 7
0.890236 0.065948 0.159790 0 0 255 62 7
0.756859 -0.032472 0.161433 0 0 255 62 7
0.726909 0.072039 0.166002 0 0 255 62 7
0.843087 0.026898 0.165057 0 0 255 62 7
0.769423 0.017019 0.166002 0 0 255 62 7
0.719519 -0.006133 0.153077 0 0 255 62 7
0.699738 0.045099 0.164639 0 0 255 62 7
0.752077 0.074868 0.158002 0 0 255 62 7
0.691497 0.044806 0.151011 0 0 255 62 7
0.735830 -0.035208 0.152002 0 0 255 62 7
0.863557 0.065485 0.153025 0 0 255 62 7
0.820101 0.154464 0.152002 0 0 255 62 7
0.712648 0.009640 0.153093 0 0 255 62 7
0.874072 0.042803 0.156002 0 0 255 62 7
0.753066 0.026641 0.166002 0 0 255 62 7
0.871984 0.100498 0.154002 0 0 255 62 7
0.833674 0.011475 0.160002 0 0 255 62 7
0.763719 -0.000197 0.164002 0 0 255 62 7
0.800767 0.145242 0.156002 0 0 255 62 7
0.810799 0.005135 0.168002 0 0 255 62 7
0.827777 -0.006652 0.164998 0 0 255 62 7
0.792781 -0.046242 0.169507 0 0 255 62 7
0.773272 -0.056407 0.146002 0 0 255 62 7
0.804962 0.020688 0.164956 0 0 255 62 7
0.810245 0.035923 0.168858 0 0 255 62 7
0.844750 0.034723 0.173037 0 0 255 62 7
0.863188 0.034893 0.163033 0 0 255 62 7
0.814554 0.133152 0.160872 0 0 255 62 7
0.745981 0.041404 0.167107 0 0 255 62 7
0.864218 0.087836 0.153084 0 0 255 62 7
0.867592 0.074850 0.151025 0 0 255 62 7
0.776505 -0.012112 0.164002 0 0 255 62 7
0.712724 0.048473 0.161006 0 0 255 62 7
0.750555 0.062923 0.171092 0 0 255 62 7
0.808875 0.019857 0.157043 0 0 255 62 7
0.772612 0.070503 0.155031 0 0 255 62 7
0.812324 0.045704 0.163086 0 0 255 62 7
0.818562 0.075049 0.165035 0 0 255 62 7
0.810028 0.082997 0.165020 0 0 255 62 7
0.740698 0.026169 0.163044 0 0 255 62 7
0.822010 0.060003 0.172002 0 0 255 62 7
0.762986 0.073312 0.164002 0 0 255 62 7
0.746926 -0.059961 0.154002 0 0 255 62 7
0.770969 -0.033426 0.166987 0 0 255 62 7
0.817042 -0.030952 0.162002 0 0 255 62 7
0.760705 0.091436 0.167493 0 0 255 62 7
0.755508 -0.048448 0.162002 0 0 255 62 7
0.837879 0.050496 0.165044 0 0 255 62 7
0.832831 0.045985 0.178002 0 0 255 62 7
0.708490 -0.009923 0.158447 0 0 255 62 7
0.807731 0.120289 0.168767 0 0 255 62 7
0.800048 0.036046 0.157265 0 0 255 62 7
0.825527 0.002004 0.162942 0 0 255 62 7
0.843592 0.010039 0.172002 0 0 255 62 7
0.771679 -0.068562 0.154002 0 0 255 62 7
0.892052 0.055255 0.162002 0 0 255 62 7
0.757303 0.036953 0.173383 0 0 255 62 7
0.775202 0.024969 0.172399 0 0 255 62 7
0.796400 -0.038832 0.171853 0 0 255 62 7
0.778208 -0.018608 0.172130 0 0 255 62 7
0.714557 0.037860 0.159049 0 0 255 62 7
0.805406 0.090113 0.173783 0 0 255 62 7
0.822909 0.067991 0.178002 0 0 255 62 7
0.728050 0.039081 0.164002 0 0 255 62 7
0.783635 0.045406 0.166002 0 0 255 62 7
0.782564 0.049985 0.157217 0 0 255 62 7
0.763833 0.058056 0.169156 0 0 255 62 7
0.825706 0.147139 0.160460 0 0 255 62 7
0.813647 0.090406 0.172982 0 0 255 62 7
0.744903 0.017097 0.171048 0 0 255 62 7
0.785522 0.035044 0.157013 0 0 255 62 7
0.757085 0.084027 0.159129 0 0 255 62 7
0.710767 0.048889 0.169383 0 0 255 62 7
0.792318 -0.019562 0.165035 0 0 255 62 7
0.793376 0.100849 0.181510 0 0 255 62 7
0.827710 0.118087 0.160847 0 0 255 62 7
0.827020 0.028268 0.163076 0 0 255 62 7
0.792025 -0.011321 0.173481 0 0 255 62 7
0.805605 0.139143 0.153051 0 0 255 62 7
0.854559 0.100112 0.151022 0 0 255 62 7
0.790947 -0.035628 0.163072 0 0 255 62 7
0.815651 0.061355 0.165018 0 0 255 62 7
0.779285 0.005699 0.165029 0 0 255 62 7
0.832454 0.121168 0.153043 0 0 255 62 7
0.684967 0.023703 0.151013 0 0 255 62 7
0.882165 0.047217 0.153071 0 0 255 62 7
0.765128 0.035290 0.163010 0 0 255 62 7
0.768362 0.060126 0.156002 0 0 255 62 7
0.759306 0.007901 0.163027 0 0 255 62 7
0.770581 0.032086 0.172192 0 0 255 62 7
0.745905 0.002571 0.159027 0 0 255 62 7
0.784842 0.108797 0.174047 0 0 255 62 7
0.722781 0.081095 0.160002 0 0 255 62 7
0.834798 0.055240 0.175508 0 0 255 62 7
0.750630 0.101756 0.162979 0 0 255 62 7
0.836093 0.032473 0.165095 0 0 255 62 7
0.752218 0.070748 0.169303 0 0 255 62 7
0.752676 -0.071389 0.154002 0 0 255 62 7
0.802883 0.010907 0.169228 0 0 255 62 7
0.799245 0.099602 0.173549 0 0 255 62 7
0.861477 0.055703 0.168681 0 0 255 62 7
0.755195 -0.040297 0.159661 0 0 255 62 7
0.815653 0.109461 0.160002 0 0 255 62 7
0.863897 0.028608 0.173206 0 0 255 62 7
0.845950 0.069227 0.169694 0 0 255 62 7
0.726126 0.005713 0.152002 0 0 255 62 7
0.857691 0.018648 0.166002 0 0 255 62 7
0.811337 -0.021560 0.164002 0 0 255 62 7
0.744256 0.076530 0.160002 0 0 255 62 7
0.726318 0.021047 0.158002 0 0 255 62 7
0.811929 0.154157 0.154002 0 0 255 62 7
0.702365 0.018981 0.152002 0 0 255 62 7
0.877819 0.060409 0.152002 0 0 255 62 7
0.699705 0.012391 0.160002 0 0 255 62 7
0.693884 0.036793 0.160002 0 0 255 62 7
0.888908 0.029426 0.156002 0 0 255 62 7
0.758966 0.044778 0.172333 0 0 255 62 7
0.718980 -0.018287 0.159845 0 0 255 62 7
0.747107 -0.005863 0.158002 0 0 255 62 7
0.746888 0.084150 0.166790 0 0 255 62 7
0.819393 0.078961 0.172884 0 0 255 62 7
0.805488 0.077828 0.186002 0 0 255 62 7
0.729035 0.067497 0.173433 0 0 255 62 7
0.797525 -0.043161 0.159147 0 0 255 62 7
0.841423 0.019072 0.165093 0 0 255 62 7
0.791419 0.101265 0.167070 0 0 255 62 7
0.805180 -0.026386 0.173267 0 0 255 62 7
0.744459 -0.052328 0.156747 0 0 255 62 7
0.840053 0.003006 0.159040 0 0 255 62 7
0.835875 0.079547 0.170036 0 0 255 62 7
0.796797 0.059228 0.161027 0 0 255 62 7
0.852773 0.082090 0.163098 0 0 255 62 7
0.732580 0.036074 0.172212 0 0 255 62 7
0.703868 -0.002806 0.158695 0 0 255 62 7
0.863319 0.022597 0.182002 0 0 255 62 7
0.816332 -0.012398 0.161045 0 0 255 62 7
0.863018 0.053331 0.159084 0 0 255 62 7
0.756632 0.062655 0.160002 0 0 255 62 7
0.795900 0.090089 0.182002 0 0 255 62 7
0.835800 0.040714 0.165026 0 0 255 62 7
0.780094 0.120030 0.166002 0 0 255 62 7
0.828882 0.085123 0.161045 0 0 255 62 7
0.850366 0.061144 0.160002 0 0 255 62 7
0.824801 0.046685 0.174002 0 0 255 62 7
0.807070 0.097938 0.165063 0 0 255 62 7
0.783970 0.085457 0.164002 0 0 255 62 7
0.849201 0.046045 0.172992 0 0 255 62 7
0.859842 0.115347 0.153043 0 0 255 62 7
0.736109 -0.009659 0.152002 0 0 255 62 7
0.770727 0.095440 0.164002 0 0 255 62 7
0.778229 -0.056987 0.162002 0 0 255 62 7
0.672277 0.026400 0.154002 0 0 255 62 7
0.782844 -0.044892 0.168002 0 0 255 62 7
0.684551 0.021746 0.159498 0 0 255 62 7
0.804235 0.076049 0.174002 0 0 255 62 7
0.882201 0.032896 0.150002 0 0 255 62 7
0.756600 0.096398 0.160002 0 0 255 62 7
0.788759 0.098369 0.174002 0 0 255 62 7
0.677265 0.035563 0.151037 0 0 255 62 7
0.853120 0.004318 0.172002 0 0 255 62 7
0.859212 0.009157 0.172002 0 0 255 62 7
0.797581 0.091776 0.167096 0 0 255 62 7
0.706193 0.027370 0.160920 0 0 255 62 7
0.873801 0.036726 0.169147 0 0 255 62 7
0.770732 0.109752 0.180732 0 0 255 62 7
0.776941 0.071628 0.167949 0 0 255 62 7
0.722042 0.073073 0.172495 0 0 255 62 7
0.857706 0.034013 0.174002 0 0 255 62 7
0.879474 0.021208 0.164002 0 0 255 62 7
0.849404 0.107342 0.162002 0 0 255 62 7
0.745953 -0.026064 0.160265 0 0 255 62 7
0.823799 0.061208 0.190002 0 0 255 62 7
0.722270 -0.022048 0.152002 0 0 255 62 7
0.809980 0.111632 0.169669 0 0 255 62 7
0.779591 0.103335 0.174002 0 0 255 62 7
0.888059 0.074947 0.158002 0 0 255 62 7
0.810737 0.076712 0.192235 0 0 255 62 7
0.791126 0.109506 0.167131 0 0 255 62 7
0.704993 -0.007135 0.151035 0 0 255 62 7
0.770307 -0.055777 0.159738 0 0 255 62 7
0.897107 0.050175 0.153081 0 0 255 62 7
0.794746 0.116915 0.165137 0 0 255 62 7
0.767765 -0.038879 0.153028 0 0 255 62 7
0.850496 0.023278 0.176847 0 0 255 62 7
0.799830 0.083120 0.167104 0 0 255 62 7
0.766498 0.051356 0.159002 0 0 255 62 7
0.840632 -0.007340 0.150002 0 0 255 62 7
0.829884 0.070598 0.165084 0 0 255 62 7
0.703944 0.036026 0.153015 0 0 255 62 7
0.793805 0.112491 0.174002 0 0 255 62 7
0.793518 0.014942 0.161026 0 0 255 62 7
0.806068 0.112464 0.161038 0 0 255 62 7
0.798064 -0.031007 0.165065 0 0 255 62 7
0.843824 0.088081 0.155053 0 0 255 62 7
0.740991 0.017929 0.161010 0 0 255 62 7
0.833223 -0.005765 0.154002 0 0 255 62 7
0.885834 0.040303 0.148002 0 0 255 62 7
0.705730 0.054049 0.161095 0 0 255 62 7
0.778543 0.059925 0.164002 0 0 255 62 7
0.712110 -0.002513 0.153060 0 0 255 62 7
0.771611 0.085029 0.161105 0 0 255 62 7
0.805305 -0.038680 0.162002 0 0 255 62 7
0.728885 -0.010168 0.159680 0 0 255 62 7
0.891476 0.047282 0.160002 0 0 255 62 7
0.859634 0.066268 0.166002 0 0 255 62 7
0.827499 -0.020906 0.158002 0 0 255 62 7
0.724392 0.078708 0.168002 0 0 255 62 7
0.771262 -0.041667 0.164645 0 0 255 62 7
0.869303 0.054040 0.166419 0 0 255 62 7
0.812847 0.145783 0.160002 0 0 255 62 7
0.796935 0.040639 0.166002 0 0 255 62 7
0.849745 0.010125 0.164002 0 0 255 62 7
0.794087 0.137502 0.164002 0 0 255 62 7
0.736690 0.084272 0.168640 0 0 255 62 7
0.864634 0.089792 0.161835 0 0 255 62 7
0.878914 0.070399 0.151046 0 0 255 62 7
0.817488 0.065054 0.182002 0 0 255 62 7
0.808653 0.052619 0.164002 0 0 255 62 7
0.804634 0.009522 0.158002 0 0 255 62 7
0.720618 -0.029821 0.154002 0 0 255 62 7
0.824743 0.061467 0.182002 0 0 255 62 7
0.746179 0.090434 0.155053 0 0 255 62 7
0.852575 0.033059 0.180828 0 0 255 62 7
0.834703 0.112511 0.160096 0 0 255 62 7
0.863856 0.014304 0.158002 0 0 255 62 7
0.689588 0.016586 0.153122 0 0 255 62 7
0.757350 0.008317 0.172344 0 0 255 62 7
0.870182 0.029317 0.163103 0 0 255 62 7
0.817598 0.032315 0.170002 0 0 255 62 7
0.779824 0.017853 0.172194 0 0 255 62 7
0.786968 0.089943 0.172806 0 0 255 62 7
0.723044 0.058548 0.173041 0 0 255 62 7
0.811446 0.070427 0.196012 0 0 255 62 7
0.807410 0.061062 0.173201 0 0 255 62 7
0.715852 0.015093 0.161039 0 0 255 62 7
0.740792 -0.031102 0.160955 0 0 255 62 7
0.766886 -0.014157 0.171014 0 0 255 62 7
0.850081 0.115377 0.160002 0 0 255 62 7
0.695513 0.001014 0.154002 0 0 255 62 7
0.763880 0.029421 0.172888 0 0 255 62 7
0.828589 0.093364 0.169205 0 0 255 62 7
0.746103 0.051601 0.173181 0 0 255 62 7
0.732146 0.077060 0.164002 0 0 255 62 7
0.775788 0.008487 0.173288 0 0 255 62 7
0.869841 0.066194 0.161118 0 0 255 62 7
0.794690 -0.018022 0.173267 0 0 255 62 7
0.775250 -0.003666 0.173181 0 0 255 62 7
0.696321 0.051960 0.164002 0 0 255 62 7
0.783122 -0.033965 0.170744 0 0 255 62 7
0.862139 0.078054 0.161002 0 0 255 62 7
0.794255 0.076126 0.165135 0 0 255 62 7
0.786212 0.124863 0.170494 0 0 255 62 7
0.756395 -0.005793 0.161091 0 0 255 62 7
0.797629 0.063141 0.171604 0 0 255 62 7
0.772660 0.041867 0.170308 0 0 255 62 7
0.833531 0.145475 0.153149 0 0 255 62 7
0.785787 -0.040666 0.161101 0 0 255 62 7
0.731427 -0.027066 0.160255 0 0 255 62 7
0.859719 0.105149 0.153050 0 0 255 62 7
0.842330 0.061818 0.163040 0 0 255 62 7
0.719008 0.049182 0.165060 0 0 255 62 7
0.773520 0.113248 0.167062 0 0 255 62 7
0.877912 0.084925 0.151011 0 0 255 62 7
0.766007 0.010566 0.165026 0 0 255 62 7
0.835365 0.134862 0.160150 0 0 255 62 7
0.778557 0.108088 0.167056 0 0 255 62 7
0.820839 0.133860 0.153044 0 0 255 62 7
0.778434 0.097891 0.165026 0 0 255 62 7
0.677314 0.021240 0.154002 0 0 255 62 7
0.853898 0.077761 0.153052 0 0 255 62 7
0.825754 0.118503 0.153108 0 0 255 62 7
0.818950 0.009537 0.157040 0 0 255 62 7
0.818344 0.122123 0.153012 0 0 255 62 7
0.808269 -0.011855 0.172002 0 0 255 62 7
0.905722 0.048344 0.152002 0 0 255 62 7
0.754316 -0.015574 0.166227 0 0 255 62 7
0.873877 0.075559 0.161550 0 0 255 62 7
0.799906 0.141190 0.162002 0 0 255 62 7
0.735878 -0.015744 0.159069 0 0 255 62 7
0.841130 0.027313 0.176380 0 0 255 62 7
0.821764 0.037564 0.164002 0 0 255 62 7
0.878338 0.033717 0.158002 0 0 255 62 7
0.766464 0.108910 0.172002 0 0 255 62 7
0.786429 0.077789 0.165108 0 0 255 62 7
0.770193 0.097598 0.171954 0 0 255 62 7
0.801787 0.082704 0.174325 0 0 255 62 7
0.773321 0.064218 0.159114 0 0 255 62 7
0.896320 0.065711 0.152002 0 0 255 62 7
0.774264 0.126368 0.170002 0 0 255 62 7
0.820102 0.072677 0.189670 0 0 255 62 7
0.810050 0.063862 0.190002 0 0 255 62 7
0.782763 0.099016 0.178717 0 0 255 62 7
0.769328 -0.055569 0.152002 0 0 255 62 7
0.802297 0.027389 0.162907 0 0 255 62 7
0.713527 -0.015083 0.156722 0 0 255 62 7
0.762562 -0.063357 0.150002 0 0 255 62 7
0.902473 0.056181 0.152002 0 0 255 62 7
0.826168 0.005017 0.156002 0 0 255 62 7
0.720719 0.028371 0.167836 0 0 255 62 7
0.750046 -0.031024 0.152002 0 0 255 62 7
0.810642 0.133983 0.153056 0 0 255 62 7
0.876999 0.095342 0.154002 0 0 255 62 7
0.766054 -0.018069 0.161116 0 0 255 62 7
0.858458 0.041496 0.172002 0 0 255 62 7
0.870598 0.031273 0.172019 0 0 255 62 7
0.746075 -0.015867 0.163345 0 0 255 62 7
0.739422 -0.047168 0.156819 0 0 255 62 7
0.851791 0.000511 0.166398 0 0 255 62 7
0.732844 -0.039636 0.156732 0 0 255 62 7
0.825282 -0.018390 0.169371 0 0 255 62 7
0.736642 0.072014 0.172002 0 0 255 62 7
0.829149 0.028661 0.172002 0 0 255 62 7
0.777016 0.110460 0.184057 0 0 255 62 7
0.866948 0.042964 0.170002 0 0 255 62 7
0.855497 0.022215 0.182002 0 0 255 62 7
0.760119 0.107918 0.168802 0 0 255 62 7
0.756346 -0.025267 0.164002 0 0 255 62 7
0.868880 0.013572 0.168002 0 0 255 62 7
0.831424 0.068225 0.172761 0 0 255 62 7
0.815678 -0.008170 0.170002 0 0 255 62 7
0.812269 0.026205 0.156002 0 0 255 62 7
0.809754 -0.004866 0.161066 0 0 255 62 7
0.791956 0.065312 0.162002 0 0 255 62 7
0.716847 0.014882 0.152002 0 0 255 62 7
0.768719 -0.024770 0.159041 0 0 255 62 7
0.757434 -0.006013 0.170002 0 0 255 62 7
0.850694 0.072308 0.157041 0 0 255 62 7
0.822289 -0.022849 0.154002 0 0 255 62 7
0.788908 -0.054841 0.160002 0 0 255 62 7
0.743884 -0.021535 0.152002 0 0 255 62 7
0.796746 0.130803 0.160002 0 0 255 62 7
0.764910 0.082363 0.155031 0 0 255 62 7
0.742041 -0.039546 0.152002 0 0 255 62 7
0.796674 0.049031 0.159076 0 0 255 62 7
0.782271 0.058226 0.155054 0 0 255 62 7
0.774664 0.012816 0.165050 0 0 255 62 7
0.846855 0.056767 0.172002 0 0 255 62 7
0.705391 0.009138 0.152002 0 0 255 62 7
0.691534 0.030486 0.152002 0 0 255 62 7
0.759597 -0.058068 0.160002 0 0 255 62 7
0.758943 -0.075853 0.152002 0 0 255 62 7
0.821425 0.117378 0.164567 0 0 255 62 7
0.696611 0.027362 0.160002 0 0 255 62 7
0.887985 0.060292 0.152002 0 0 255 62 7
0.818961 0.057687 0.180002 0 0 255 62 7
0.813597 0.003594 0.156002 0 0 255 62 7
0.890700 0.053581 0.152002 0 0 255 62 7
0.768281 -0.069659 0.148002 0 0 255 62 7
0.858028 0.029856 0.165045 0 0 255 62 7
0.817132 -0.027874 0.156002 0 0 255 62 7
0.838512 0.005378 0.169589 0 0 255 62 7
0.767037 0.063509 0.166387 0 0 255 62 7
0.842718 -0.003694 0.168431 0 0 255 62 7
0.726267 -0.032104 0.156828 0 0 255 62 7
0.795572 0.034226 0.164002 0 0 255 62 7
0.824383 0.102437 0.167528 0 0 255 62 7
0.759008 -0.070456 0.156002 0 0 255 62 7
0.754534 -0.062648 0.158629 0 0 255 62 7
0.704738 0.059000 0.168002 0 0 255 62 7
0.746321 0.004527 0.169169 0 0 255 62 7
0.767396 -0.069471 0.159046 0 0 255 62 7
0.789558 0.044410 0.163082 0 0 255 62 7
0.790047 0.075572 0.172002 0 0 255 62 7
0.756356 -0.025218 0.154002 0 0 255 62 7
0.755611 -0.038341 0.153124 0 0 255 62 7
0.826831 0.142810 0.153118 0 0 255 62 7
0.803429 -0.030103 0.160002 0 0 255 62 7
0.752265 0.042113 0.165023 0 0 255 62 7
0.750035 -0.045334 0.153101 0 0 255 62 7
0.758304 0.022427 0.167106 0 0 255 62 7
0.707461 -0.014765 0.154002 0 0 255 62 7
0.739696 0.040695 0.165050 0 0 255 62 7
0.873877 0.075559 0.153078 0 0 255 62 7
0.810737 0.076712 0.167065 0 0 255 62 7
0.883365 0.081721 0.156708 0 0 255 62 7
0.849106 0.103316 0.153083 0 0 255 62 7
0.728797 0.032788 0.162002 0 0 255 62 7
0.739866 0.022257 0.171490 0 0 255 62 7
0.720794 0.067204 0.167095 0 0 255 62 7
0.868471 0.050127 0.157060 0 0 255 62 7
0.814432 0.122954 0.164964 0 0 255 62 7
0.758645 -0.014449 0.159049 0 0 255 62 7
0.835570 0.135826 0.152002 0 0 255 62 7
0.830961 0.094905 0.157054 0 0 255 62 7
0.804745 0.067762 0.165009 0 0 255 62 7
0.735708 0.002694 0.165485 0 0 255 62 7
0.782052 0.023513 0.162002 0 0 255 62 7
0.840402 0.129702 0.153017 0 0 255 62 7
0.835705 0.097986 0.153019 0 0 255 62 7
0.770224 -0.012821 0.162002 0 0 255 62 7
0.835139 0.018364 0.161023 0 0 255 62 7
0.799906 0.017674 0.168002 0 0 255 62 7
0.777357 0.073584 0.159031 0 0 255 62 7
0.782413 -0.027680 0.163081 0 0 255 62 7
0.808289 0.036339 0.159067 0 0 255 62 7
0.746907 -0.011955 0.155087 0 0 255 62 7
0.699111 0.042148 0.154002 0 0 255 62 7
0.835186 -0.010272 0.161929 0 0 255 62 7
0.826317 -0.013519 0.148002 0 0 255 62 7
0.816903 0.014061 0.164002 0 0 255 62 7
0.775694 0.065759 0.165174 0 0 255 62 7
0.757164 0.069697 0.158002 0 0 255 62 7
0.839286 0.047497 0.180002 0 0 255 62 7
0.765488 0.072017 0.158002 0 0 255 62 7
0.832596 0.035261 0.176452 0 0 255 62 7
0.775523 0.084197 0.170368 0 0 255 62 7
0.845860 0.005861 0.160002 0 0 255 62 7
0.783424 0.121367 0.178838 0 0 255 62 7
0.863246 0.020568 0.160002 0 0 255 62 7
0.731086 0.009810 0.155011 0 0 255 62 7
0.746198 -0.005670 0.166336 0 0 255 62 7
0.716220 0.045685 0.170897 0 0 255 62 7
0.765270 -0.050617 0.153130 0 0 255 62 7
0.838303 -0.000711 0.154002 0 0 255 62 7
0.853236 0.055410 0.161045 0 0 255 62 7
0.823032 -0.009733 0.168191 0 0 255 62 7
0.844727 -0.006166 0.156002 0 0 255 62 7
0.782734 0.031547 0.169316 0 0 255 62 7
0.741435 0.087353 0.159032 0 0 255 62 7
0.754818 -0.056574 0.152002 0 0 255 62 7
0.896482 0.047237 0.146002 0 0 255 62 7
0.707856 0.035195 0.164820 0 0 255 62 7
0.711401 0.003771 0.161956 0 0 255 62 7
0.902190 0.045234 0.158002 0 0 255 62 7
0.852235 0.069936 0.167619 0 0 255 62 7
0.738838 0.051101 0.166002 0 0 255 62 7
0.733459 0.011351 0.166747 0 0 255 62 7
0.861307 0.074142 0.153051 0 0 255 62 7
0.826094 0.081626 0.171635 0 0 255 62 7
0.835970 0.022276 0.172155 0 0 255 62 7
0.784540 -0.046535 0.151028 0 0 255 62 7
0.885539 0.034232 0.166525 0 0 255 62 7
0.802098 -0.003239 0.172002 0 0 255 62 7
0.891068 0.069861 0.151112 0 0 255 62 7
0.885833 0.074094 0.152002 0 0 255 62 7
0.837438 -0.014840 0.152002 0 0 255 62 7
0.800830 0.116682 0.162002 0 0 255 62 7
0.796296 0.083871 0.178002 0 0 255 62 7
0.874921 0.090092 0.158002 0 0 255 62 7
0.732287 0.044315 0.173367 0 0 255 62 7
0.730916 0.028249 0.170562 0 0 255 62 7
0.786571 0.045044 0.156002 0 0 255 62 7
0.812768 0.115129 0.159057 0 0 255 62 7
0.774814 0.090482 0.171525 0 0 255 62 7
0.815925 0.149218 0.153053 0 0 255 62 7
0.817588 0.157043 0.158549 0 0 255 62 7
0.742361 0.033995 0.173079 0 0 255 62 7
0.859548 0.008147 0.160002 0 0 255 62 7
0.795691 -0.032547 0.172860 0 0 255 62 7
0.788849 0.050694 0.165511 0 0 255 62 7
0.799292 0.070966 0.172875 0 0 255 62 7
0.801003 0.050156 0.169798 0 0 255 62 7
0.813846 0.139436 0.159887 0 0 255 62 7
0.747181 0.075909 0.169398 0 0 255 62 7
0.788045 0.114250 0.176157 0 0 255 62 7
0.850009 0.094945 0.160002 0 0 255 62 7
0.780734 -0.057994 0.150002 0 0 255 62 7
0.840837 0.035554 0.182464 0 0 255 62 7
0.694210 0.009470 0.158572 0 0 255 62 7
