ply
format ascii 1.0
element vertex 1120
property float x
property float y
property float z
property uchar red
property uchar green
property uchar blue
property uchar semantic_label
property uchar instance_label
end_header
-0.573288 -0.466872 -0.582861 77 82 80 5 3
-0.048081 -0.459356 -0.685972 58 62 65 5 2
-0.056097 -0.476114 -0.663260 49 45 43 5 2
-0.060112 -0.477168 -0.690060 52 57 60 5 2
-0.036903 -0.447785 -0.682379 56 60 60 5 2
-0.053944 -0.464830 -0.673889 55 58 62 5 2
-0.640144 -0.560374 -0.409161 75 77 71 5 3
-0.636161 -0.554442 -0.419284 75 80 72 5 3
-0.666999 -0.550029 -0.436730 74 73 71 5 3
-0.641400 -0.547595 -0.437810 69 70 68 5 3
-0.656124 -0.553921 -0.423975 73 75 69 5 3
-0.421494 -0.439128 -0.590478 78 84 91 5 3
-0.637538 -0.511070 -0.381186 97 95 84 5 3
-0.313037 -0.444254 -0.484306 94 92 89 5 3
-0.734792 -0.481974 -0.474366 72 71 68 5 3
-0.708529 -0.482296 -0.474633 76 74 67 5 3
-0.330930 -0.464822 -0.369065 137 137 131 5 3
-0.322922 -0.472600 -0.349341 193 199 197 5 3
-0.341245 -0.472057 -0.343152 94 93 86 5 3
-0.348472 -0.463299 -0.367797 90 84 80 5 3
-0.638444 -0.329620 -0.508502 236 230 208 7 8
-0.024742 -0.573086 -0.435292 150 159 155 5 2
-0.047631 -0.582146 -0.425139 176 180 168 5 2
-0.062387 -0.583333 -0.427457 87 82 76 5 2
-0.055871 -0.586816 -0.417414 84 76 74 5 2
-0.034659 -0.584810 -0.417441 152 158 158 5 2
-0.021445 -0.567492 -0.458222 65 72 72 5 2
-0.012271 -0.569085 -0.450793 67 73 72 5 2
-0.014925 -0.561511 -0.469564 67 71 67 5 2
-0.023601 -0.569139 -0.445928 114 122 119 5 2
-0.808527 -0.497317 -0.471204 61 62 61 5 3
-0.810400 -0.509472 -0.456397 65 62 51 5 3
-0.802994 -0.498432 -0.460689 63 57 57 5 3
-0.567377 -0.412905 -0.479509 147 134 122 7 8
-0.556971 -0.410328 -0.477181 109 101 89 7 8
0.046942 -0.389728 -0.721258 62 64 67 5 2
0.034627 -0.380445 -0.722977 61 64 60 5 2
0.057953 -0.384742 -0.722310 64 65 69 5 2
-0.372737 -0.427024 -0.573580 48 52 52 5 3
-0.368578 -0.414875 -0.587911 49 53 53 5 3
-0.367642 -0.423265 -0.612665 38 45 41 5 3
-0.362983 -0.419016 -0.598446 38 48 45 5 3
-0.370677 -0.421788 -0.575921 62 61 70 5 3
-0.372736 -0.428573 -0.586540 40 47 51 5 3
-0.377662 -0.416751 -0.602554 65 73 75 5 3
-0.649243 -0.483382 -0.464530 72 65 65 5 3
-0.656650 -0.505458 -0.502957 57 62 63 5 3
-0.036247 -0.502162 -0.544078 62 66 51 5 2
-0.053760 -0.502418 -0.554679 65 61 53 5 2
-0.771544 -0.595623 -0.344445 213 196 160 5 3
-0.763573 -0.583039 -0.341107 86 88 77 5 3
-0.793671 -0.590091 -0.344693 222 198 159 5 3
-0.783154 -0.576506 -0.341001 171 157 128 5 3
-0.788836 -0.562780 -0.311105 219 197 160 5 3
-0.779447 -0.580794 -0.314681 218 199 159 5 3
-0.773490 -0.585989 -0.325520 94 90 75 5 3
-0.795370 -0.578878 -0.325658 221 199 157 5 3
-0.787524 -0.580714 -0.321891 219 197 159 5 3
0.063097 -0.549438 -0.509919 66 67 63 5 2
0.026823 -0.551857 -0.506320 66 68 62 5 2
-0.911011 -0.417171 -0.455503 236 223 201 7 8
-0.919616 -0.444407 -0.458876 110 105 100 7 8
-0.904377 -0.424793 -0.455766 98 91 87 7 8
-0.363837 -0.510369 -0.377700 82 89 81 5 3
-0.363823 -0.516224 -0.365489 84 89 89 5 3
-0.681652 -0.511567 -0.384187 108 96 89 5 3
-0.104200 -0.344180 -0.478793 253 247 225 7 8
-0.131052 -0.332268 -0.479315 254 247 227 7 8
-0.100041 -0.330523 -0.478726 253 246 227 7 8
-0.118006 -0.326332 -0.479710 252 247 228 7 8
-0.118636 -0.319127 -0.481787 253 248 228 7 8
-0.724627 -0.468862 -0.493191 57 60 47 5 3
-0.713853 -0.469913 -0.494118 65 60 67 5 3
-0.730596 -0.475546 -0.484731 70 59 72 5 3
-0.713326 -0.475062 -0.486152 72 66 69 5 3
-0.614530 -0.536860 -0.327589 111 112 107 5 3
-0.595492 -0.533062 -0.330657 109 107 96 5 3
-0.513343 -0.483718 -0.515142 57 63 57 5 3
-0.493165 -0.485571 -0.507640 54 61 62 5 3
-0.632046 -0.558608 -0.483132 61 65 63 5 3
-0.604159 -0.546674 -0.469755 66 67 66 5 3
-0.621660 -0.540521 -0.473829 63 67 62 5 3
-0.610994 -0.545712 -0.482708 60 65 58 5 3
-0.632595 -0.541182 -0.486096 62 64 62 5 3
-0.633763 -0.545169 -0.495175 62 63 62 5 3
-0.621279 -0.551270 -0.483140 61 66 62 5 3
-0.018872 -0.319276 -0.723292 63 63 71 5 2
0.032151 -0.583734 -0.405564 81 83 75 5 2
0.016192 -0.594193 -0.392306 81 83 75 5 2
0.029962 -0.591516 -0.389074 84 84 79 5 2
0.026513 -0.595528 -0.377150 83 85 73 5 2
-0.665203 -0.356467 -0.500847 136 130 108 7 8
-0.809523 -0.523200 -0.418834 87 84 71 5 3
-0.808376 -0.538074 -0.426140 98 98 95 5 3
-0.925370 -0.463916 -0.462653 89 79 83 7 8
-0.911531 -0.464694 -0.460409 84 79 78 7 8
-0.904782 -0.457226 -0.458536 92 83 84 7 8
-0.895042 -0.445042 -0.461119 90 81 80 7 8
-0.918396 -0.468942 -0.464786 82 79 73 7 8
-0.899143 -0.461112 -0.465474 87 83 82 7 8
-0.620152 -0.492359 -0.430641 81 76 76 5 3
-0.602652 -0.485512 -0.448291 74 73 71 5 3
-0.002465 -0.513551 -0.484679 76 73 69 5 2
-0.901623 -0.348907 -0.532325 43 44 49 7 8
-0.923347 -0.333568 -0.537263 149 149 138 7 8
-0.908806 -0.348387 -0.516851 252 249 232 7 8
-0.917722 -0.334119 -0.517887 252 249 232 7 8
-0.889907 -0.344889 -0.516817 252 249 231 7 8
-0.273463 -0.351652 -0.479909 252 244 225 7 8
-0.278765 -0.342446 -0.480202 252 244 225 7 8
-0.280581 -0.323853 -0.482814 230 224 208 7 8
-0.723964 -0.509773 -0.385234 94 92 86 5 3
-0.690897 -0.584597 -0.390780 77 80 68 5 3
-0.679693 -0.587274 -0.383731 75 79 73 5 3
-0.672686 -0.581793 -0.396824 77 78 68 5 3
-0.687230 -0.578200 -0.404494 80 78 72 5 3
-0.673638 -0.577667 -0.402176 74 81 70 5 3
-0.672532 -0.576029 -0.387883 74 81 70 5 3
-0.697353 -0.584351 -0.396407 77 78 72 5 3
-0.664846 -0.587260 -0.405113 78 76 69 5 3
-0.697765 -0.582042 -0.407770 71 78 70 5 3
-0.695889 -0.573956 -0.402486 70 79 67 5 3
-0.360415 -0.395998 -0.476580 62 58 52 7 8
-0.386350 -0.406126 -0.476620 61 58 54 7 8
-0.361029 -0.408823 -0.477180 60 57 56 7 8
-0.352764 -0.391203 -0.479562 99 90 85 7 8
-0.430084 -0.511446 -0.433274 72 77 71 5 3
-0.869402 -0.330532 -0.457038 249 239 220 7 8
0.018016 -0.476274 -0.667088 44 36 38 5 2
0.024200 -0.470562 -0.681004 45 42 44 5 2
-0.035491 -0.442743 -0.669624 56 58 58 5 2
-0.019834 -0.436972 -0.675895 53 57 53 5 2
-0.321846 -0.493998 -0.315977 97 94 90 5 3
-0.350266 -0.478462 -0.327885 89 88 82 5 3
-0.335197 -0.489424 -0.318830 87 82 75 5 3
-0.714114 -0.335001 -0.517068 240 234 213 7 8
-0.707489 -0.334393 -0.523862 39 38 37 7 8
-0.724728 -0.332555 -0.523990 43 43 44 7 8
-0.715380 -0.334543 -0.524134 45 45 45 7 8
-0.712109 -0.329592 -0.514308 241 236 214 7 8
-0.104681 -0.601882 -0.333365 119 110 98 5 2
-0.099560 -0.604761 -0.342877 107 100 89 5 2
-0.103777 -0.597744 -0.337814 132 123 104 5 2
-0.089843 -0.592527 -0.337167 174 174 168 5 2
-0.102659 -0.590961 -0.339720 198 192 179 5 2
-0.115507 -0.597478 -0.344693 199 195 179 5 2
-0.439688 -0.525340 -0.314265 86 74 71 5 3
-0.408386 -0.526232 -0.315254 179 187 191 5 3
-0.405550 -0.508772 -0.316414 135 139 130 5 3
-0.446036 -0.517864 -0.317515 126 125 115 5 3
-0.423645 -0.513540 -0.316773 128 129 127 5 3
-0.851596 -0.386222 -0.490525 48 47 46 7 8
-0.844944 -0.408723 -0.475965 243 231 210 7 8
-0.765741 -0.412323 -0.686438 49 54 54 5 3
-0.770566 -0.412210 -0.675600 49 58 60 5 3
-0.148849 -0.358817 -0.468225 55 50 48 7 8
-0.121988 -0.357834 -0.468721 53 44 48 7 8
-0.138628 -0.351026 -0.463052 120 114 104 7 8
-0.807660 -0.538567 -0.408635 210 190 141 5 3
-0.806268 -0.535148 -0.395271 119 110 89 5 3
-0.795596 -0.521348 -0.372829 82 71 71 5 3
-0.804098 -0.518473 -0.399147 80 75 74 5 3
-0.756277 -0.382032 -0.458444 246 229 213 7 8
-0.792527 -0.381782 -0.458099 246 229 215 7 8
-0.366958 -0.395023 -0.602245 81 87 91 5 3
-0.381240 -0.395508 -0.633897 81 86 94 5 3
-0.371693 -0.385709 -0.625894 82 85 94 5 3
-0.374790 -0.390718 -0.623793 79 88 85 5 3
-0.374022 -0.393600 -0.621382 79 91 89 5 3
-0.371435 -0.390936 -0.614558 79 85 98 5 3
-0.367455 -0.392465 -0.608686 78 88 96 5 3
-0.384554 -0.413579 -0.616811 70 77 80 5 3
-0.365510 -0.415048 -0.605311 45 46 39 5 3
-0.369700 -0.391112 -0.624263 74 87 84 5 3
-0.370380 -0.411777 -0.624515 50 49 56 5 3
0.010704 -0.599945 -0.311708 213 218 210 5 2
0.018553 -0.604795 -0.316450 195 177 143 5 2
0.032068 -0.598644 -0.311482 161 159 148 5 2
0.023257 -0.579674 -0.312978 122 124 116 5 2
-0.529357 -0.408887 -0.478122 112 104 95 7 8
-0.516850 -0.405987 -0.477654 116 104 99 7 8
-0.688023 -0.588935 -0.331376 207 194 172 5 3
-0.697302 -0.584479 -0.341043 144 137 124 5 3
-0.667383 -0.585843 -0.340470 177 169 152 5 3
-0.699050 -0.589658 -0.331283 224 208 182 5 3
-0.683501 -0.590719 -0.321139 236 216 183 5 3
-0.669789 -0.587196 -0.321665 232 209 182 5 3
-0.680372 -0.584732 -0.340898 134 132 123 5 3
-0.689825 -0.586850 -0.317331 234 213 180 5 3
-0.693082 -0.574691 -0.312549 237 220 181 5 3
-0.501783 -0.403485 -0.472754 66 54 61 7 8
-0.486781 -0.401268 -0.472057 170 160 146 7 8
-0.078950 -0.536189 -0.435369 78 75 69 5 2
-0.070402 -0.538000 -0.414771 87 85 78 5 2
-0.064986 -0.322716 -0.478722 252 247 227 7 8
-0.076180 -0.342589 -0.478456 205 197 183 7 8
0.011827 -0.322700 -0.478249 252 245 224 7 8
0.019248 -0.342641 -0.477647 250 243 224 7 8
0.032882 -0.335864 -0.478312 250 242 223 7 8
-0.920152 -0.389032 -0.456958 247 233 213 7 8
-0.913059 -0.404567 -0.456546 247 232 215 7 8
-0.359873 -0.418379 -0.624404 42 44 44 5 3
-0.368640 -0.422111 -0.628737 42 44 51 5 3
-0.297433 -0.250654 -1.185324 39 45 53 2 1
0.045866 0.675532 -1.162661 41 27 27 2 1
0.063149 0.639585 -1.160442 29 28 20 2 1
0.040780 0.655738 -1.160705 35 27 25 2 1
0.070048 0.658844 -1.161963 33 29 25 2 1
-0.324481 -0.156338 -1.185762 38 46 43 2 1
-0.327087 -0.145629 -1.183971 44 52 50 2 1
-0.338968 -0.144248 -1.182386 57 51 53 2 1
-0.321840 -0.116210 -1.181430 53 51 54 2 1
-0.156026 0.589954 -1.162910 31 25 21 2 1
-0.520414 -0.172477 -1.186450 51 48 54 2 1
-0.541214 -0.185639 -1.187147 43 47 48 2 1
-0.758292 0.131012 -1.178624 44 45 44 2 1
-0.745511 0.108341 -1.180426 37 35 38 2 1
-0.731852 0.102104 -1.179782 35 35 35 2 1
-0.762892 0.114851 -1.182784 31 34 26 2 1
-0.753835 0.125264 -1.181236 38 41 40 2 1
-0.242290 -0.140723 -1.179370 50 51 56 2 1
-0.231742 -0.156460 -1.181236 50 53 57 2 1
-0.577227 -0.193272 -0.745338 26 28 30 5 3
-0.514316 -0.097399 -1.177065 69 65 65 2 1
-0.512406 -0.075358 -1.176734 75 75 70 2 1
-0.640448 0.226466 -1.171002 38 39 38 2 1
-0.652013 0.216476 -1.172943 37 34 47 2 1
-0.668680 0.193789 -1.174977 43 43 47 2 1
-0.695418 0.219067 -1.173627 50 49 54 2 1
-0.670864 0.206659 -1.171062 41 37 42 2 1
-0.693908 0.205252 -1.174626 50 51 57 2 1
-0.155242 0.277517 -1.149176 28 25 22 2 1
-0.159183 0.286201 -1.143835 24 24 18 2 1
-0.697024 -0.314247 -0.756422 47 50 52 5 3
-0.687966 -0.300436 -0.739055 49 54 57 5 3
-0.694353 -0.302588 -0.754031 50 57 54 5 3
-0.676908 -0.285599 -0.737804 51 51 59 5 3
-0.683056 -0.309637 -0.728317 51 53 55 5 3
-0.225214 -0.084826 -1.170237 56 63 71 2 1
-0.237602 -0.079180 -1.169579 41 46 55 2 1
-0.252397 -0.085310 -1.166864 35 41 49 2 1
-0.249892 -0.095031 -1.175524 75 82 89 2 1
-0.613446 0.185871 -1.111040 91 85 59 2 1
-0.611640 0.178149 -1.091888 98 84 61 2 1
-0.607599 0.174883 -1.073741 91 80 55 2 1
-0.756764 -0.175780 -0.753331 33 35 40 5 3
-0.778323 -0.162135 -0.756353 35 36 38 5 3
-0.757872 -0.159950 -0.754840 29 30 34 5 3
-0.790465 -0.169295 -0.739046 39 43 43 5 3
-0.768571 -0.173798 -0.754468 40 38 43 5 3
-0.782627 -0.186363 -0.761125 36 39 36 5 3
-0.792028 -0.168184 -0.760693 41 49 48 5 3
-0.776164 -0.162901 -0.737210 41 44 43 5 3
-0.782431 -0.172125 -0.756562 35 34 40 5 3
-0.788183 -0.162426 -0.756561 27 32 30 5 3
-0.162338 -0.177948 -0.757156 65 74 78 5 2
-0.160161 -0.167166 -0.771282 59 66 63 5 2
-0.160709 -0.183622 -0.773173 67 74 74 5 2
-0.464669 0.524058 -1.155637 37 30 25 2 1
-0.451252 0.512401 -1.152503 32 29 22 2 1
-0.929683 0.252132 -1.211502 42 40 37 2 1
-0.914701 0.243076 -1.201998 45 40 43 2 1
-0.913497 0.265580 -1.201816 44 36 44 2 1
-0.898454 0.238477 -1.195249 44 39 44 2 1
-0.900803 0.261097 -1.192961 41 35 47 2 1
-0.929122 0.186615 -1.205620 37 42 41 2 1
-0.658322 0.556912 -1.156913 31 24 25 2 1
-0.681484 0.562553 -1.156411 32 26 25 2 1
0.071861 -0.147398 -1.177488 36 37 39 2 1
-0.700841 0.335174 -1.168979 37 36 41 2 1
-0.724746 0.314059 -1.169555 39 37 37 2 1
-0.735332 0.338552 -1.167052 42 37 36 2 1
-0.709312 0.333226 -1.166637 39 37 37 2 1
-0.718678 0.347925 -1.166136 37 41 34 2 1
-0.070628 -0.170490 -1.179855 51 52 56 2 1
-0.083411 -0.160709 -1.183744 56 55 58 2 1
-0.072372 -0.193153 -1.177980 45 49 51 2 1
-0.082783 -0.174129 -1.179226 48 52 51 2 1
-0.126456 0.573737 -1.160315 30 23 24 2 1
-0.552624 0.435737 -0.739655 30 30 30 5 5
-0.543043 0.443722 -0.736259 24 31 22 5 5
-0.560296 0.438906 -0.736442 32 33 30 5 5
-0.750054 0.338107 -1.167998 36 36 30 2 1
-0.768228 0.339454 -1.175964 42 36 29 2 1
-0.752043 0.350852 -1.164805 37 36 34 2 1
0.015703 0.472404 -1.164097 25 25 19 2 1
0.021877 0.495703 -1.161353 26 24 19 2 1
0.042773 0.517974 -1.159817 28 27 18 2 1
-0.732992 0.003522 -1.176327 41 41 38 2 1
-0.713493 0.025115 -1.178161 35 40 30 2 1
-0.615330 0.649038 -1.152135 40 28 31 2 1
-0.145433 0.295458 -1.156702 27 26 27 2 1
-0.135861 0.280809 -1.154042 32 27 27 2 1
-0.143575 0.274150 -1.146857 26 24 20 2 1
-0.130169 0.278520 -1.142984 24 23 23 2 1
-0.121978 0.288013 -1.146534 27 27 24 2 1
-0.265558 -0.240378 -1.186409 46 47 48 2 1
-0.295532 -0.235398 -1.185074 45 43 52 2 1
0.071532 -0.023998 -0.734252 46 48 47 5 2
0.080213 -0.023504 -0.732333 46 46 48 5 2
-0.593132 0.045518 -1.074887 77 70 56 2 1
-0.592397 0.061081 -1.063674 90 83 59 2 1
-0.240582 0.527642 -1.157284 33 29 28 2 1
-0.216833 0.548223 -1.160264 33 27 26 2 1
-0.241544 0.517083 -1.154607 34 31 22 2 1
-0.891375 0.431569 -1.134770 51 40 42 2 1
0.044491 0.266160 -1.171608 24 28 23 2 1
-0.139781 -0.274580 -0.745851 60 62 69 5 2
-0.127698 -0.281770 -0.742465 73 76 72 5 2
-0.150759 -0.262946 -0.752366 55 59 60 5 2
-0.140993 -0.265794 -0.735504 58 68 64 5 2
-0.131814 -0.250945 -0.729314 59 69 68 5 2
-0.146411 -0.255478 -0.739722 64 68 68 5 2
-0.075433 -0.093081 -1.178757 49 52 56 2 1
-0.074728 -0.075022 -1.176454 46 48 54 2 1
-0.611676 0.442947 -1.162308 23 24 23 2 1
-0.623837 0.445004 -1.160130 24 23 24 2 1
-0.623729 0.425486 -1.159854 25 23 21 2 1
-0.606476 0.432494 -1.165015 26 24 23 2 1
-0.614355 0.422971 -1.164993 25 22 25 2 1
-0.631845 0.438810 -1.158093 25 23 22 2 1
-0.499689 -0.252170 -1.191047 54 53 59 2 1
-0.497705 -0.280127 -1.191179 43 46 51 2 1
-0.489756 -0.265085 -1.189984 52 48 53 2 1
-0.834212 0.388686 -1.175664 32 33 33 2 1
-0.255564 0.554237 -1.156080 32 28 28 2 1
-0.269578 0.575871 -1.153138 29 25 24 2 1
-0.257560 0.573434 -1.159463 32 29 22 2 1
-0.266787 0.554112 -1.149935 30 29 24 2 1
-0.276768 0.558668 -1.150900 43 38 37 2 1
-0.287333 0.538996 -1.154907 42 39 28 2 1
-0.818694 -0.118937 -0.812508 85 74 51 5 3
-0.815557 -0.099308 -0.816869 98 81 61 5 3
-0.829373 -0.107497 -0.800976 73 64 50 5 3
-0.804840 -0.125834 -0.824002 86 75 59 5 3
-0.809114 -0.104331 -0.820117 92 79 61 5 3
-0.910710 0.454051 -1.132271 47 40 35 2 1
-0.908813 0.465396 -1.130402 43 40 39 2 1
-0.911770 0.474169 -1.138445 52 45 35 2 1
-0.907313 0.467603 -1.121497 43 42 32 2 1
-0.914469 0.442806 -1.127377 45 34 28 2 1
-0.900191 0.451805 -1.138710 47 40 34 2 1
-0.915465 0.460701 -1.123618 34 29 27 2 1
-0.902746 0.473671 -1.114506 32 31 31 2 1
-0.897835 0.463377 -1.143530 51 42 44 2 1
-0.902085 0.467083 -1.141946 47 44 33 2 1
-0.326010 -0.201895 -1.185707 52 56 55 2 1
-0.329946 -0.181076 -1.185418 56 58 59 2 1
-0.921528 0.162961 -1.202944 37 39 40 2 1
-0.909594 0.152615 -1.202824 42 43 39 2 1
-0.911711 0.139241 -1.202136 39 37 29 2 1
-0.927032 0.151250 -1.202469 41 37 40 2 1
-0.896917 0.135008 -1.195930 43 43 39 2 1
-0.898006 0.157815 -1.199145 49 40 49 2 1
-0.927619 0.137596 -1.205833 40 40 48 2 1
-0.111578 0.633868 -1.165636 34 29 25 2 1
-0.788894 0.360700 -1.170613 37 36 40 2 1
-0.766874 0.376657 -1.167276 37 36 39 2 1
-0.782727 0.631546 -1.153501 28 29 22 2 1
-0.784344 0.615829 -1.153826 35 29 20 2 1
-0.764416 0.609582 -1.156208 35 29 20 2 1
-0.310771 -0.204944 -1.184531 44 47 51 2 1
-0.285501 -0.203256 -1.183545 46 49 55 2 1
-0.316257 -0.218358 -1.185526 49 50 45 2 1
-0.784570 0.295148 -1.177427 36 38 27 2 1
-0.838446 0.312074 -1.176947 39 38 38 2 1
-0.847229 0.297236 -1.177408 37 36 38 2 1
-0.853954 0.305769 -1.179963 34 37 34 2 1
-0.860955 0.292296 -1.187172 38 38 42 2 1
-0.721458 -0.316743 -0.735926 59 60 66 5 3
-0.726578 -0.293766 -0.761079 56 53 57 5 3
-0.717330 -0.283098 -0.756041 57 57 65 5 3
-0.703969 -0.274143 -0.756135 61 63 67 5 3
-0.706416 -0.318956 -0.756227 53 52 57 5 3
-0.726076 -0.309144 -0.760613 53 56 50 5 3
-0.709082 -0.296961 -0.734886 57 62 63 5 3
-0.717865 -0.306955 -0.755603 54 57 58 5 3
-0.718053 -0.326637 -0.738240 59 62 66 5 3
-0.698919 -0.312651 -0.737495 60 65 62 5 3
-0.772481 0.236567 -1.178944 37 39 43 2 1
-0.697421 0.408999 -0.738664 41 39 33 5 5
-0.682917 0.412984 -0.734222 43 43 33 5 5
-0.733666 -0.152136 -1.176981 35 30 37 2 1
-0.749287 -0.135630 -1.176253 34 35 26 2 1
-0.430645 -0.306061 -1.189513 46 49 52 2 1
-0.423462 -0.288136 -1.186670 46 52 49 2 1
-0.694709 -0.227606 -1.174124 46 47 44 2 1
-0.695194 -0.241791 -1.172515 44 45 46 2 1
-0.668643 -0.255723 -1.180696 44 45 36 2 1
-0.699078 -0.237770 -1.178374 45 46 42 2 1
-0.269552 -0.085201 -1.174082 40 44 50 2 1
-0.269791 -0.077152 -1.178104 45 51 58 2 1
-0.257478 -0.079173 -1.172751 39 46 54 2 1
0.023696 -0.263225 -1.181565 52 48 56 2 1
-0.437982 0.631568 -1.159196 58 49 51 2 1
-0.472363 0.638248 -1.157676 32 32 24 2 1
-0.447670 0.643490 -1.161111 56 47 52 2 1
-0.814430 -0.057564 -1.168011 33 38 33 2 1
-0.800121 -0.053904 -1.168633 38 35 38 2 1
-0.808077 -0.039675 -1.169286 38 38 38 2 1
-0.830729 -0.030607 -1.167083 31 34 34 2 1
-0.589273 0.433939 -0.731058 37 34 30 5 5
-0.536696 0.079474 -1.146211 89 91 84 2 1
0.085344 0.023814 -1.138371 31 39 40 2 1
0.074224 0.007695 -1.134527 25 36 31 2 1
0.083714 0.017715 -1.141143 32 36 38 2 1
0.095866 0.024154 -1.148456 34 39 37 2 1
0.078816 0.015610 -1.139229 28 33 29 2 1
0.075401 0.018487 -1.144150 26 32 29 2 1
0.073447 0.031947 -1.135682 37 39 38 2 1
0.082686 0.033056 -1.139599 39 39 38 2 1
0.080183 0.004311 -1.137565 24 30 34 2 1
0.062918 0.001999 -1.133481 31 40 39 2 1
-0.606617 -0.308026 -1.205517 42 43 37 2 1
-0.617062 -0.289622 -1.204750 32 41 40 2 1
-0.614941 -0.312587 -1.204374 42 38 42 2 1
-0.625399 -0.306985 -1.205642 45 46 44 2 1
-0.120467 0.276992 -1.144112 26 23 20 2 1
-0.493748 0.036306 -1.177442 37 37 36 2 1
-0.364481 0.500352 -1.130831 31 25 27 2 1
-0.362566 0.499827 -1.143471 30 25 24 2 1
-0.347664 0.497607 -1.134889 34 31 25 2 1
-0.825940 0.505322 -1.141547 28 24 22 2 1
-0.845704 0.521106 -1.142850 29 24 25 2 1
-0.363055 0.497252 -1.126158 27 25 21 2 1
-0.349941 0.501040 -1.124337 31 26 25 2 1
-0.682552 -0.182408 -1.178926 40 38 40 2 1
-0.695220 -0.189980 -1.178951 46 41 43 2 1
-0.719512 0.253007 -1.170845 39 30 42 2 1
-0.729949 0.264736 -1.168965 39 40 44 2 1
-0.735183 0.277604 -1.169750 37 37 37 2 1
-0.703964 0.275352 -1.174018 32 34 32 2 1
-0.710810 0.268673 -1.173220 28 31 28 2 1
-0.717580 0.279496 -1.167677 46 39 37 2 1
-0.869141 0.529724 -1.152195 84 75 73 2 1
-0.898636 0.526006 -1.158865 93 84 85 2 1
-0.879890 0.538697 -1.149652 73 64 62 2 1
-0.882975 0.548029 -1.150835 94 86 77 2 1
-0.633115 -0.241039 -0.757497 29 28 30 5 3
-0.651745 -0.240172 -0.758340 28 27 27 5 3
-0.660105 -0.231879 -0.756696 28 28 29 5 3
-0.642954 -0.235574 -0.756793 34 33 37 5 3
-0.641351 -0.230358 -0.751512 25 26 31 5 3
-0.631918 -0.223907 -0.755665 25 26 31 5 3
-0.643116 -0.241939 -0.749314 27 34 32 5 3
-0.641217 -0.253994 -0.736290 33 35 37 5 3
-0.663888 -0.256546 -0.751970 31 34 33 5 3
-0.652268 -0.230592 -0.752553 27 35 40 5 3
-0.636887 -0.246289 -0.735977 36 33 40 5 3
-0.686180 0.477490 -1.150085 27 25 21 2 1
-0.663503 0.481694 -1.149415 25 24 24 2 1
-0.694067 0.458174 -1.154790 28 25 21 2 1
-0.681840 0.447354 -1.157022 26 25 21 2 1
-0.674647 0.462540 -1.150510 29 25 23 2 1
-0.789197 -0.322196 -0.834312 44 42 41 5 3
-0.145944 -0.233471 -0.805263 40 52 43 5 2
-0.137193 -0.216182 -0.807923 46 51 40 5 2
-0.139060 -0.230674 -0.812313 37 40 39 5 2
-0.139879 -0.249207 -0.808254 53 51 51 5 2
-0.128408 -0.250525 -0.803906 46 51 54 5 2
-0.134743 -0.241735 -0.808492 44 49 51 5 2
-0.148458 -0.247442 -0.800699 40 44 40 5 2
-0.711826 -0.274004 -1.170035 46 47 41 2 1
-0.707716 -0.258641 -1.168896 44 48 43 2 1
-0.729367 -0.257900 -1.169112 49 50 47 2 1
-0.810273 0.399555 -1.169345 35 34 34 2 1
-0.790129 0.413446 -1.168973 34 34 35 2 1
-0.793352 0.395166 -1.167399 33 32 32 2 1
-0.470091 -0.303672 -1.189179 53 51 52 2 1
-0.491673 -0.294360 -1.192365 50 47 56 2 1
-0.494775 -0.316028 -1.193292 44 48 53 2 1
-0.334610 -0.269374 -1.183535 47 52 51 2 1
-0.350344 -0.263004 -1.182131 58 60 59 2 1
-0.324008 -0.270864 -1.187818 45 46 49 2 1
-0.473998 -0.097003 -1.158615 25 27 22 2 1
-0.480047 -0.095870 -1.154186 18 18 17 2 1
-0.091532 -0.317589 -0.813809 36 36 42 5 2
-0.588506 0.374941 -1.130706 35 34 34 2 1
-0.604023 0.358999 -1.143166 34 32 38 2 1
-0.598997 0.379448 -1.120055 44 41 42 2 1
-0.601694 0.383039 -1.137279 35 34 32 2 1
-0.582089 0.367990 -1.129059 25 25 25 2 1
-0.597453 0.368660 -1.138034 13 12 12 2 1
-0.589579 0.381651 -1.126540 31 33 32 2 1
-0.596528 0.372082 -1.115899 43 47 47 2 1
0.009656 0.374126 -1.168206 26 26 22 2 1
-0.101712 0.255951 -1.141427 26 23 22 2 1
-0.616959 -0.195156 -0.749198 27 33 36 5 3
-0.694922 0.378388 -1.164304 33 36 27 2 1
-0.677043 0.358275 -1.166634 38 35 40 2 1
-0.673028 0.383852 -1.159646 75 75 67 2 1
-0.702096 0.358778 -1.163749 36 39 40 2 1
-0.791071 -0.194417 -1.167166 46 46 46 2 1
-0.802066 -0.224655 -1.164411 109 116 129 2 1
-0.809691 -0.193000 -1.164469 105 107 118 2 1
-0.824130 -0.206966 -1.160372 141 134 135 2 1
-0.819655 -0.194798 -1.160238 107 107 111 2 1
-0.816334 -0.184133 -1.171922 106 107 109 2 1
-0.825660 -0.217225 -1.161882 144 145 156 2 1
-0.843370 -0.059216 -0.780542 46 44 41 5 3
-0.847562 -0.065863 -0.766639 77 75 70 5 3
-0.842283 -0.053457 -0.788905 63 57 47 5 3
-0.836674 -0.095893 -0.790060 88 76 57 5 3
-0.647432 0.505774 -1.152730 25 26 20 2 1
-0.642141 0.485584 -1.150574 26 25 21 2 1
-0.577240 0.489547 -1.153283 37 34 34 2 1
-0.568290 0.511783 -1.155468 37 29 29 2 1
-0.545425 0.481426 -1.144788 33 31 31 2 1
-0.560406 0.491640 -1.152631 27 28 22 2 1
-0.775625 -0.229629 -1.168088 42 44 45 2 1
-0.735268 -0.204863 -1.170361 48 46 46 2 1
-0.736184 -0.193851 -1.170067 40 42 47 2 1
-0.821466 -0.136338 -1.169544 101 99 101 2 1
-0.803229 -0.141431 -1.170309 44 47 43 2 1
-0.813069 -0.137644 -1.170906 89 89 86 2 1
-0.807192 -0.151457 -1.169153 58 55 52 2 1
-0.818202 -0.147274 -1.173657 134 132 133 2 1
-0.850493 0.000228 -0.742924 42 42 38 5 3
-0.794976 -0.303930 -0.830809 37 35 39 5 3
-0.748948 0.580040 -1.155626 35 28 25 2 1
-0.505670 -0.124089 -0.743455 31 31 35 5 3
-0.495369 -0.121814 -0.738109 30 31 31 5 3
-0.494515 -0.118193 -0.737431 31 31 39 5 3
-0.488274 -0.097394 -0.732279 34 33 40 5 3
-0.504718 -0.111473 -0.731886 32 33 36 5 3
-0.477415 -0.114096 -0.733271 28 29 33 5 3
-0.482713 -0.122947 -0.741727 19 22 22 5 3
-0.611738 0.164100 -1.167974 36 39 44 2 1
-0.605561 0.126535 -1.154194 60 56 51 2 1
-0.608374 0.150736 -1.164683 43 45 40 2 1
-0.615441 0.142053 -1.174786 37 43 41 2 1
-0.714113 0.195065 -1.176887 46 54 49 2 1
-0.722273 0.178697 -1.177235 48 52 46 2 1
-0.921311 0.522146 -1.153719 48 44 37 2 1
-0.911402 0.535743 -1.149814 50 46 39 2 1
-0.901519 0.541708 -1.151341 52 45 39 2 1
-0.879344 0.515687 -1.156044 81 74 73 2 1
0.039957 0.225943 -1.163721 28 27 25 2 1
0.051551 0.217894 -1.167576 28 28 23 2 1
0.051584 0.193967 -1.163361 27 29 28 2 1
0.043430 0.211684 -1.167736 26 25 25 2 1
0.063823 0.199673 -1.173805 31 28 24 2 1
0.037373 0.193449 -1.157934 26 23 19 2 1
-0.602998 0.467320 -1.153243 28 24 23 2 1
-0.584131 0.464875 -1.152830 28 23 23 2 1
-0.580544 0.474403 -1.148191 24 26 18 2 1
-0.585262 0.481738 -1.148118 26 26 23 2 1
-0.589400 0.450423 -1.166749 27 24 21 2 1
-0.595621 0.460162 -1.155662 24 24 20 2 1
-0.903400 -0.084535 -1.164232 39 39 33 2 1
-0.921479 -0.063445 -1.162925 42 39 41 2 1
-0.926402 -0.084282 -1.162390 37 40 33 2 1
-0.821015 0.432354 -1.163072 33 28 28 2 1
-0.802699 0.448597 -1.151687 31 25 21 2 1
-0.814111 0.431851 -1.164314 31 25 27 2 1
-0.804150 0.433398 -1.160557 25 27 23 2 1
-0.806732 0.414711 -1.170936 34 27 26 2 1
-0.795959 0.428280 -1.166204 28 27 26 2 1
0.086519 -0.317716 -1.182325 44 45 57 2 1
0.065242 -0.298659 -1.182299 45 46 48 2 1
0.105397 -0.306231 -1.180620 38 43 49 2 1
0.075233 0.582877 -1.160340 30 29 27 2 1
-0.091817 -0.332841 -1.175613 45 54 47 2 1
-0.124748 -0.327054 -1.183918 43 47 49 2 1
-0.103834 -0.314852 -1.180936 43 46 47 2 1
-0.113390 -0.284255 -1.182438 40 50 47 2 1
-0.100616 -0.289185 -1.179218 49 49 52 2 1
-0.538896 0.096004 -1.176056 95 96 86 2 1
-0.874373 -0.238383 -1.163557 40 40 34 2 1
-0.143028 0.353117 -1.161505 28 25 23 2 1
-0.190083 0.321187 -1.150313 24 24 21 2 1
-0.173167 0.331838 -1.157445 26 25 22 2 1
-0.678018 0.292156 -1.184579 16 19 19 2 1
-0.688573 0.293689 -1.184900 16 20 15 2 1
-0.678746 0.296109 -1.200136 27 32 28 2 1
-0.677667 0.300217 -1.192662 18 19 18 2 1
-0.668883 0.292284 -1.179682 28 32 35 2 1
0.098809 0.534020 -1.160420 38 29 30 2 1
0.069490 0.521794 -1.159606 32 25 28 2 1
-0.391625 -0.105781 -1.179410 53 58 61 2 1
-0.493143 -0.143324 -1.184150 45 50 52 2 1
-0.402245 -0.101025 -1.170173 64 68 74 2 1
-0.638438 -0.001244 -1.182468 43 41 36 2 1
-0.613449 0.011302 -1.184020 46 49 51 2 1
-0.598838 0.023742 -1.176905 47 49 52 2 1
-0.628796 0.011766 -1.184131 43 44 40 2 1
-0.622116 0.027437 -1.184568 44 47 51 2 1
-0.613125 0.036186 -1.182823 42 42 48 2 1
-0.380964 0.607512 -1.159438 27 24 24 2 1
-0.373396 0.608609 -1.162870 30 25 20 2 1
-0.350322 0.595474 -1.163223 29 27 28 2 1
-0.378986 0.589514 -1.150475 29 28 22 2 1
-0.369055 0.580089 -1.155762 23 26 26 2 1
-0.364481 0.586964 -1.158108 25 24 23 2 1
-0.816133 -0.034182 -0.817288 100 95 82 5 3
-0.832641 -0.054887 -0.805006 79 66 51 5 3
-0.820691 -0.042179 -0.816768 95 85 74 5 3
0.082174 -0.000051 -1.145494 29 37 43 2 1
0.069129 -0.005308 -1.141982 32 35 43 2 1
0.068975 -0.006546 -1.132344 30 36 35 2 1
-0.265970 -0.187618 -1.181307 44 49 50 2 1
-0.274071 -0.214188 -1.184880 49 49 55 2 1
-0.661232 -0.272694 -1.173749 51 43 45 2 1
-0.664347 -0.276632 -1.172489 48 49 46 2 1
0.088006 0.153893 -1.170873 33 33 34 2 1
0.099209 0.164536 -1.177679 34 29 32 2 1
0.076668 0.134265 -1.161322 24 25 26 2 1
0.086021 0.130272 -1.166918 36 36 39 2 1
0.076072 0.145474 -1.163667 24 27 24 2 1
0.079376 0.155300 -1.160583 31 31 28 2 1
-0.908489 0.384457 -1.180007 24 18 18 2 1
-0.201236 0.414928 -1.142803 25 24 20 2 1
-0.189945 0.400718 -1.153504 25 23 22 2 1
-0.200446 0.387372 -1.147441 22 23 22 2 1
-0.197237 0.406492 -1.147925 27 24 19 2 1
-0.489228 -0.029813 -1.179456 35 40 39 2 1
-0.497662 -0.011935 -1.180576 45 43 47 2 1
-0.486673 -0.009444 -1.178070 40 42 44 2 1
0.087255 -0.191225 -1.165161 46 47 48 2 1
0.084482 -0.160882 -1.172699 38 43 47 2 1
0.069227 -0.173378 -1.168244 41 44 48 2 1
-0.101733 0.285208 -1.156148 25 23 25 2 1
-0.098898 0.271744 -1.154323 27 25 22 2 1
-0.108955 0.279876 -1.145472 30 24 28 2 1
-0.109951 0.292305 -1.148464 27 25 27 2 1
-0.093337 0.262080 -1.160671 27 23 23 2 1
-0.087995 0.272116 -1.160086 26 24 23 2 1
-0.110060 0.263638 -1.144729 29 23 27 2 1
-0.125377 0.264514 -1.147878 26 22 24 2 1
0.064898 0.560714 -1.159470 26 29 21 2 1
-0.200955 0.319727 -1.129244 29 24 26 2 1
-0.198299 0.314901 -1.139348 27 25 22 2 1
-0.188249 0.313534 -1.143855 27 26 25 2 1
-0.196805 0.306690 -1.124625 24 23 22 2 1
-0.200248 0.291137 -1.142597 24 23 22 2 1
-0.905940 0.571595 -1.145991 55 55 41 2 1
-0.904042 0.553319 -1.148329 48 42 38 2 1
-0.892715 0.563184 -1.149553 55 54 44 2 1
-0.610508 0.166405 -1.098339 98 84 57 2 1
-0.606525 0.141052 -1.103626 95 80 66 2 1
-0.607615 0.152372 -1.121362 99 83 58 2 1
-0.608292 0.152957 -1.086767 99 85 62 2 1
-0.788628 0.651582 -1.152012 29 28 28 2 1
-0.765947 0.638395 -1.152887 38 31 32 2 1
-0.123388 -0.317790 -0.747041 70 74 73 5 2
-0.140023 -0.283898 -0.755225 59 56 66 5 2
-0.130590 -0.299670 -0.749447 69 74 67 5 2
-0.647996 -0.081266 -1.180082 48 39 42 2 1
-0.649379 -0.062579 -1.177488 46 48 45 2 1
-0.827211 0.060282 -1.171206 39 37 37 2 1
-0.829852 0.043167 -1.168416 31 33 34 2 1
-0.832626 0.640669 -1.149144 32 25 32 2 1
-0.836522 0.653101 -1.145987 36 30 35 2 1
-0.063149 -0.268362 -1.184202 54 54 55 2 1
-0.084884 -0.268157 -1.179584 51 55 54 2 1
-0.151137 -0.176504 -0.737528 57 69 72 5 2
-0.853951 -0.024399 -1.164769 35 33 34 2 1
-0.895626 -0.037578 -1.167140 37 39 36 2 1
-0.164980 0.306234 -1.155512 27 23 23 2 1
-0.173440 0.315974 -1.154512 26 24 21 2 1
-0.159831 0.294638 -1.152826 27 24 23 2 1
-0.180943 0.297238 -1.153370 25 26 22 2 1
-0.169616 0.295842 -1.144989 26 26 22 2 1
-0.183342 0.296721 -1.146352 24 22 20 2 1
-0.010134 0.310311 -1.172804 28 25 27 2 1
-0.023324 0.308097 -1.169363 26 23 24 2 1
-0.854389 0.561905 -1.140699 34 28 26 2 1
-0.865901 0.566931 -1.143457 38 28 28 2 1
-0.504390 0.449507 -0.738657 31 31 24 5 5
-0.119128 -0.255561 -1.179304 43 47 52 2 1
-0.105257 -0.266994 -1.179081 45 52 50 2 1
-0.098119 -0.272954 -1.176202 54 56 56 2 1
-0.828591 -0.027894 -0.737508 50 47 53 5 3
-0.818511 -0.040651 -0.734596 46 47 53 5 3
-0.821337 -0.051085 -0.736890 44 46 50 5 3
-0.729901 -0.193027 -1.179236 47 49 45 2 1
-0.901528 0.401392 -1.142568 38 37 29 2 1
-0.597255 0.070101 -1.105526 95 84 66 2 1
-0.597701 0.070128 -1.085795 99 87 63 2 1
-0.790208 0.345168 -1.170800 34 39 35 2 1
-0.772084 0.347947 -1.171443 36 39 36 2 1
-0.782157 0.338996 -1.171904 41 40 38 2 1
-0.650332 0.115223 -1.176342 39 33 37 2 1
-0.641101 0.084347 -1.181459 37 38 37 2 1
-0.665349 0.088204 -1.178402 38 36 44 2 1
-0.653906 0.087962 -1.178555 36 37 38 2 1
-0.507062 0.665058 -1.155445 40 36 28 2 1
-0.133595 0.366318 -1.160793 28 23 21 2 1
-0.840448 -0.076190 -1.161159 64 65 60 2 1
-0.847111 -0.089414 -1.160728 37 32 28 2 1
-0.859020 -0.060971 -1.167534 35 34 33 2 1
-0.828470 -0.080435 -1.165254 98 94 95 2 1
-0.679101 0.020259 -1.176113 43 42 41 2 1
-0.841172 -0.010516 -0.811006 38 34 34 5 3
-0.844203 -0.018746 -0.804163 52 48 45 5 3
-0.847458 0.002825 -0.806436 42 38 34 5 3
-0.834571 -0.022949 -0.818072 42 41 36 5 3
-0.847947 -0.005489 -0.796454 91 85 81 5 3
-0.675821 -0.274480 -1.200528 47 47 48 2 1
-0.688200 -0.268378 -1.205790 44 44 41 2 1
-0.689088 -0.284500 -1.209241 41 43 45 2 1
-0.681502 -0.280090 -1.204863 46 44 45 2 1
-0.209187 0.496986 -1.147892 29 26 25 2 1
-0.211308 0.487490 -1.127543 31 24 22 2 1
-0.213525 0.493767 -1.135757 28 25 22 2 1
-0.116170 -0.292722 -0.812202 34 35 37 5 2
-0.128381 -0.296815 -0.803334 47 45 41 5 2
-0.143668 -0.320026 -0.790308 52 52 60 5 2
-0.131527 -0.315773 -0.799501 41 42 52 5 2
-0.138164 -0.304903 -0.800360 51 55 56 5 2
-0.532278 -0.142940 -0.738032 30 33 37 5 3
-0.532961 -0.145035 -0.749258 25 28 33 5 3
-0.527828 -0.155300 -0.750908 24 29 27 5 3
-0.514930 -0.139930 -0.750405 25 31 28 5 3
-0.526906 -0.153073 -0.734193 27 29 30 5 3
-0.515880 -0.141613 -0.735083 30 30 34 5 3
-0.516480 -0.130488 -0.749636 26 30 26 5 3
-0.514689 -0.132483 -0.736635 34 36 37 5 3
-0.507072 -0.129094 -0.736671 31 32 37 5 3
-0.530589 -0.134189 -0.744074 29 32 36 5 3
-0.519583 -0.127369 -0.744076 31 36 34 5 3
-0.699714 -0.300378 -1.203354 46 46 43 2 1
-0.675653 -0.301282 -1.205021 47 50 45 2 1
-0.687513 -0.296215 -1.205709 46 43 40 2 1
-0.688589 -0.314041 -1.205287 42 43 46 2 1
-0.216469 -0.081997 -1.165253 46 52 63 2 1
-0.213532 -0.089158 -1.174915 40 44 46 2 1
-0.206187 -0.084031 -1.172722 43 49 58 2 1
-0.198617 -0.084398 -1.161270 58 67 73 2 1
-0.176242 0.437328 -1.154492 32 25 25 2 1
-0.184792 0.440204 -1.151593 26 24 21 2 1
-0.156127 -0.252695 -0.770920 48 52 50 5 2
-0.156010 -0.273429 -0.773686 51 56 56 5 2
-0.157459 -0.260062 -0.779680 51 52 54 5 2
-0.060931 -0.097147 -1.177237 57 59 64 2 1
-0.042156 -0.120445 -1.176540 49 43 59 2 1
-0.061277 -0.123235 -1.181105 47 50 56 2 1
-0.823651 -0.223602 -0.778628 126 118 113 5 3
-0.823346 -0.205135 -0.786062 75 69 62 5 3
-0.818769 -0.212031 -0.761808 60 60 61 5 3
-0.823602 -0.206663 -0.774813 71 71 73 5 3
0.090861 0.105490 -1.166729 41 42 51 2 1
0.093940 0.077307 -1.160315 31 35 40 2 1
0.082647 0.067180 -1.154541 37 35 40 2 1
0.082766 0.095825 -1.157979 49 53 57 2 1
-0.861756 0.474530 -1.152238 57 47 39 2 1
-0.880666 0.470505 -1.152818 76 68 62 2 1
-0.884885 0.481825 -1.157027 114 108 101 2 1
-0.865322 0.481740 -1.153949 45 38 31 2 1
-0.890103 0.452826 -1.145511 50 39 36 2 1
-0.879182 0.461498 -1.149969 52 44 41 2 1
-0.356555 0.654685 -0.764703 18 23 21 5 5
-0.360699 0.646219 -0.774760 17 16 18 5 5
-0.366395 0.656166 -0.771827 29 29 29 5 5
-0.374110 0.655622 -0.768631 29 29 29 5 5
-0.366647 0.673637 -0.758098 23 24 21 5 5
-0.371145 0.670429 -0.770956 23 23 22 5 5
-0.368598 0.663025 -0.765012 26 21 22 5 5
-0.715789 0.206235 -1.166776 46 41 50 2 1
-0.706633 0.209927 -1.170537 46 45 42 2 1
-0.733243 0.219961 -1.174348 33 34 36 2 1
-0.705819 0.218341 -1.168841 39 33 39 2 1
-0.746457 0.209772 -1.172065 40 38 41 2 1
-0.742332 0.223033 -1.173426 42 42 45 2 1
-0.751364 0.224857 -1.178590 45 39 45 2 1
-0.760289 0.206549 -1.177433 38 38 43 2 1
-0.749674 0.202137 -1.173393 34 34 38 2 1
-0.388198 0.610687 -0.760542 45 42 36 5 5
-0.431500 -0.189486 -1.186284 53 51 46 2 1
-0.418834 -0.167703 -1.185736 51 49 57 2 1
-0.439531 -0.159837 -1.185147 44 50 50 2 1
-0.269599 0.631227 -1.160295 35 29 26 2 1
-0.275116 0.648588 -1.158914 35 29 21 2 1
-0.282234 0.629833 -1.154427 35 30 27 2 1
0.034513 -0.114859 -1.169119 38 46 53 2 1
0.022584 -0.119517 -1.170189 36 48 53 2 1
0.018090 -0.098381 -1.170530 105 118 125 2 1
-0.422757 0.613040 -1.157045 54 51 48 2 1
-0.422189 0.623058 -1.157160 50 43 41 2 1
-0.431106 0.651106 -1.156435 61 49 48 2 1
-0.406225 0.629236 -1.152877 53 43 46 2 1
-0.419602 0.633793 -1.153898 67 49 52 2 1
-0.381774 0.669729 -0.762197 26 26 24 5 5
-0.398327 0.674800 -0.739756 44 43 43 5 5
-0.571514 -0.045999 -1.174278 64 65 54 2 1
-0.574808 -0.034862 -1.173189 63 60 52 2 1
-0.422454 0.501453 -1.141564 47 44 33 2 1
-0.439695 0.502205 -1.144120 30 26 26 2 1
-0.917902 0.487460 -1.121207 49 42 43 2 1
-0.917987 0.508572 -1.123999 46 42 35 2 1
-0.916327 0.491747 -1.136758 48 42 32 2 1
-0.922920 0.514729 -1.133360 44 42 34 2 1
-0.909662 0.485698 -1.112696 46 45 30 2 1
-0.909891 0.480688 -1.120245 48 47 31 2 1
-0.912565 0.482929 -1.131255 48 41 41 2 1
-0.923726 0.495255 -1.132550 40 38 33 2 1
-0.881562 0.230178 -1.193010 38 36 43 2 1
-0.884990 0.243757 -1.191911 38 39 39 2 1
-0.869947 0.252404 -1.190097 38 38 34 2 1
-0.883155 0.261648 -1.191580 40 40 40 2 1
-0.866341 0.222801 -1.187159 38 39 41 2 1
-0.093405 0.614111 -1.161645 29 23 20 2 1
-0.073657 0.628414 -1.161480 33 29 26 2 1
-0.059495 0.626695 -1.161922 32 28 26 2 1
-0.053630 0.641366 -1.162489 32 29 28 2 1
-0.075871 0.611724 -1.161890 32 26 20 2 1
-0.133470 -0.161666 -1.175980 62 60 58 2 1
-0.119464 -0.147057 -1.173321 61 61 59 2 1
-0.142850 -0.134770 -1.177036 59 62 61 2 1
-0.650875 -0.308861 -1.180682 51 48 38 2 1
-0.649541 -0.330211 -1.168738 51 49 49 2 1
-0.660672 -0.312268 -1.169357 44 46 40 2 1
-0.649259 -0.309529 -1.172596 48 47 44 2 1
-0.658633 -0.294532 -1.172869 49 49 45 2 1
-0.661222 -0.282057 -1.180695 51 47 44 2 1
-0.426440 0.564296 -1.158613 41 40 32 2 1
-0.410883 0.549953 -1.156079 46 40 42 2 1
-0.429048 0.573776 -1.163005 35 34 31 2 1
-0.414402 0.576367 -1.162144 41 42 32 2 1
-0.167979 -0.213181 -1.181903 49 48 51 2 1
-0.106459 0.377308 -1.162637 27 25 20 2 1
-0.108306 0.354996 -1.159663 25 25 24 2 1
-0.555681 0.055128 -1.163392 100 102 94 2 1
-0.565849 0.050771 -1.167121 103 109 101 2 1
-0.547037 0.054282 -1.165670 98 95 90 2 1
-0.689086 0.528358 -1.153447 30 25 26 2 1
-0.700245 0.534992 -1.153538 29 24 22 2 1
-0.532153 0.443830 -0.735936 28 26 22 5 5
-0.330638 -0.169858 -1.186219 47 49 48 2 1
-0.314040 -0.180506 -1.186635 46 52 51 2 1
0.080255 -0.288484 -1.180142 47 41 56 2 1
0.067332 -0.272712 -1.179128 41 47 52 2 1
0.052722 -0.265923 -1.180734 39 50 50 2 1
-0.777460 -0.179981 -0.764369 31 32 35 5 3
-0.791427 -0.156201 -0.761387 27 32 35 5 3
-0.779962 -0.157916 -0.760898 29 32 36 5 3
-0.602381 0.350426 -1.098291 23 23 24 2 1
-0.613699 0.631017 -1.156173 36 32 26 2 1
-0.629380 0.641158 -1.154956 30 27 23 2 1
-0.779397 0.458309 -1.149475 29 26 22 2 1
-0.800648 0.471496 -1.150427 28 25 28 2 1
-0.770362 0.476143 -1.149616 30 24 24 2 1
-0.780082 0.481395 -1.147852 28 25 25 2 1
-0.775916 0.445658 -1.157636 32 26 24 2 1
-0.107617 -0.216254 -1.174789 54 52 51 2 1
-0.116453 -0.203057 -1.175517 52 58 48 2 1
-0.114914 -0.191086 -1.173989 56 55 53 2 1
-0.085989 -0.219256 -1.180940 49 51 53 2 1
-0.062191 -0.207375 -1.180558 41 49 52 2 1
-0.086899 -0.185158 -1.176730 46 49 52 2 1
-0.088166 -0.204386 -1.177914 37 43 43 2 1
-0.688026 0.230760 -1.172411 42 52 50 2 1
-0.677176 0.219724 -1.171216 39 42 44 2 1
-0.673993 0.246156 -1.173920 47 52 52 2 1
-0.690958 0.240268 -1.170291 42 40 42 2 1
-0.681569 0.254201 -1.172540 45 44 47 2 1
-0.691345 0.253486 -1.174102 40 43 45 2 1
-0.696574 0.243904 -1.172091 33 35 30 2 1
-0.785777 0.495092 -1.146490 32 26 26 2 1
-0.780180 0.507573 -1.148926 31 28 22 2 1
-0.104189 -0.314146 -0.811135 43 47 49 5 2
-0.105193 -0.298632 -0.809091 40 39 43 5 2
-0.116780 -0.311722 -0.808469 37 45 37 5 2
-0.127971 -0.307132 -0.799229 36 41 47 5 2
-0.118048 -0.299519 -0.808007 40 46 47 5 2
-0.887213 -0.131484 -1.165464 42 41 32 2 1
-0.433985 -0.269443 -1.185874 49 49 52 2 1
-0.669475 0.498413 -1.154447 28 27 21 2 1
-0.699536 0.499449 -1.150829 28 27 21 2 1
-0.674605 0.514411 -1.154368 26 26 22 2 1
-0.607886 0.123200 -1.167554 47 48 42 2 1
-0.607606 0.101025 -1.171270 39 48 40 2 1
-0.614280 0.116647 -1.174524 43 47 44 2 1
-0.614509 0.132473 -1.174470 44 43 46 2 1
-0.589458 0.619035 -1.155578 33 28 22 2 1
-0.609841 0.587277 -1.157197 32 28 21 2 1
-0.620479 0.609407 -1.158485 30 26 21 2 1
-0.383116 -0.136738 -1.181254 57 60 58 2 1
-0.396440 -0.136718 -1.183041 61 63 65 2 1
-0.402825 -0.155738 -1.185987 51 53 49 2 1
-0.392596 -0.151031 -1.184329 51 53 49 2 1
-0.714172 0.603320 -1.156665 31 29 26 2 1
-0.232007 -0.327109 -1.185138 50 56 55 2 1
-0.213516 -0.307271 -1.186382 47 53 53 2 1
-0.237331 -0.285942 -1.187346 50 49 55 2 1
-0.805225 0.374409 -1.173459 38 37 34 2 1
-0.795480 0.368603 -1.172549 32 35 30 2 1
-0.820022 0.372070 -1.173095 37 36 33 2 1
-0.819811 0.385087 -1.172201 36 36 36 2 1
-0.696983 0.107188 -1.178144 37 31 35 2 1
-0.683417 0.099239 -1.178306 37 35 32 2 1
-0.706295 0.127658 -1.180452 40 38 36 2 1
-0.684694 0.135804 -1.176626 32 31 35 2 1
-0.616475 0.345331 -1.118335 39 39 38 2 1
-0.625143 0.331229 -1.117363 40 38 38 2 1
-0.611391 0.347394 -1.136585 37 35 34 2 1
-0.615083 0.338027 -1.133079 39 35 35 2 1
-0.815715 -0.317322 -0.795886 87 86 83 5 3
-0.088872 0.243572 -1.158047 26 25 23 2 1
-0.079537 0.240008 -1.162768 26 24 24 2 1
-0.061436 0.235652 -1.165874 26 25 26 2 1
-0.083076 0.235840 -1.150079 28 24 25 2 1
-0.070246 0.246296 -1.165518 26 27 19 2 1
-0.089769 0.236398 -1.151800 30 26 26 2 1
-0.723208 0.112705 -1.178691 39 37 32 2 1
-0.096197 -0.122051 -1.176469 46 56 55 2 1
-0.109456 -0.106307 -1.175377 99 115 116 2 1
-0.051431 0.566283 -1.156831 32 28 24 2 1
-0.627388 0.282851 -1.102020 80 70 65 2 1
-0.628727 0.283774 -1.127160 78 69 63 2 1
-0.624422 0.267999 -1.142762 76 64 56 2 1
-0.630129 0.285472 -1.144965 54 53 51 2 1
-0.622232 0.252738 -1.110975 94 80 58 2 1
-0.091666 -0.087662 -1.177850 62 67 71 2 1
-0.108311 -0.062350 -1.180116 70 74 79 2 1
-0.588310 0.045568 -1.079698 79 81 64 2 1
-0.586821 0.051651 -1.112753 98 102 93 2 1
-0.592584 0.056342 -1.112761 88 87 77 2 1
-0.581159 0.055239 -1.097089 90 95 84 2 1
-0.577182 0.055321 -1.090295 39 41 34 2 1
-0.583185 0.049810 -1.085444 79 84 70 2 1
-0.591890 0.059726 -1.100531 87 83 77 2 1
-0.566839 0.061358 -1.107854 90 95 88 2 1
-0.580115 0.054421 -1.103354 101 106 96 2 1
-0.591640 0.054646 -1.087383 83 82 77 2 1
-0.772089 -0.028308 -1.172378 36 38 38 2 1
-0.793049 -0.014639 -1.171776 35 38 36 2 1
-0.665846 -0.103794 -1.177351 47 48 46 2 1
-0.855004 0.135047 -1.190561 37 47 37 2 1
-0.840706 0.118692 -1.189981 44 37 40 2 1
-0.856103 0.108801 -1.192365 46 44 46 2 1
-0.840352 0.098079 -1.191863 42 45 43 2 1
-0.823859 0.118963 -1.192454 42 42 36 2 1
-0.546693 -0.125273 -1.178678 67 83 74 2 1
-0.548957 -0.129944 -1.183194 84 84 88 2 1
-0.540442 -0.147585 -1.186165 48 52 59 2 1
-0.552903 -0.150182 -1.187022 50 59 56 2 1
-0.918730 0.112731 -1.206808 41 37 41 2 1
-0.919014 0.129027 -1.207159 44 38 45 2 1
-0.903588 0.113444 -1.199046 45 38 47 2 1
-0.895284 0.113432 -1.196206 37 40 30 2 1
-0.835133 -0.309105 -1.162625 209 222 222 2 1
-0.324790 0.514530 -1.155238 34 31 27 2 1
-0.324324 0.529312 -1.158060 39 31 28 2 1
-0.349925 0.514849 -1.150643 35 30 25 2 1
-0.338616 0.555049 -1.157881 29 26 27 2 1
-0.329608 0.568581 -1.159124 29 26 18 2 1
-0.346073 0.578650 -1.158223 30 27 19 2 1
-0.684515 -0.262459 -0.761073 35 39 39 5 3
-0.671203 -0.282153 -0.762731 43 47 48 5 3
-0.040073 0.399559 -1.164015 27 24 25 2 1
-0.690866 0.149776 -1.178790 46 35 37 2 1
-0.380209 0.582392 -0.770972 26 26 22 5 5
-0.842552 -0.042806 -0.750721 43 47 41 5 3
-0.834970 -0.044382 -0.742662 43 51 44 5 3
-0.599278 -0.071342 -1.182296 50 52 50 2 1
-0.583660 -0.065984 -1.182747 48 55 51 2 1
-0.593833 -0.082417 -1.183534 45 38 37 2 1
-0.578120 -0.082275 -1.180866 54 59 56 2 1
-0.591682 0.637379 -1.151734 45 38 29 2 1
-0.723454 -0.131313 -1.174094 41 42 43 2 1
-0.517040 0.518004 -1.153707 40 32 33 2 1
0.011930 0.242143 -1.171822 28 28 21 2 1
0.017115 0.255590 -1.173617 28 28 22 2 1
0.020519 0.237747 -1.162216 31 27 25 2 1
0.023916 0.245692 -1.166959 29 30 27 2 1
0.015485 0.238232 -1.164295 27 26 22 2 1
0.026752 0.228130 -1.165817 29 25 27 2 1
0.048621 0.243536 -1.164452 29 29 22 2 1
0.000876 0.225754 -1.171608 29 23 24 2 1
-0.260529 0.588617 -1.159329 31 31 27 2 1
-0.261525 0.605994 -1.159862 34 28 31 2 1
-0.273155 0.592388 -1.149682 34 30 28 2 1
-0.860103 0.348132 -1.179945 37 35 37 2 1
-0.881642 0.352757 -1.192294 38 37 34 2 1
-0.885304 0.370088 -1.191264 36 39 39 2 1
-0.870286 0.362535 -1.186410 33 34 34 2 1
-0.883528 0.383468 -1.183788 38 36 37 2 1
-0.871791 0.392568 -1.188029 33 34 29 2 1
-0.874443 0.370014 -1.190183 35 35 34 2 1
-0.529619 0.072471 -1.170009 87 88 85 2 1
-0.532854 0.041813 -1.172652 55 55 58 2 1
-0.522210 0.056690 -1.174772 41 47 47 2 1
-0.249964 0.625130 -1.162993 36 31 24 2 1
-0.220965 0.628435 -1.162205 39 36 23 2 1
-0.093543 0.338163 -1.159200 25 24 20 2 1
-0.076204 0.335752 -1.159450 23 26 24 2 1
-0.082098 0.352284 -1.161456 27 24 25 2 1
-0.067009 0.327509 -1.162218 29 25 24 2 1
-0.864377 0.640178 -1.138129 51 45 38 2 1
-0.878272 0.646753 -1.139267 48 48 41 2 1
-0.870569 0.663407 -1.134173 55 58 53 2 1
-0.800457 -0.316965 -0.821045 36 35 46 5 3
-0.813638 -0.288488 -0.797337 64 64 64 5 3
-0.813468 -0.302047 -0.799276 83 79 72 5 3
-0.805652 -0.303764 -0.813524 75 78 74 5 3
-0.809425 -0.291615 -0.808881 69 75 74 5 3
-0.798767 -0.275357 -0.830121 54 56 53 5 3
-0.001610 0.213228 -1.169137 25 25 23 2 1
-0.816075 0.609182 -0.740978 40 40 31 5 5
-0.184007 -0.136119 -1.180058 48 48 52 2 1
-0.638418 0.391205 -1.159497 40 39 34 2 1
-0.641614 0.401896 -1.159861 27 27 26 2 1
-0.631352 0.413575 -1.162115 43 41 37 2 1
-0.662130 0.394404 -1.154431 62 61 54 2 1
-0.722523 -0.094710 -1.171716 40 41 39 2 1
-0.720693 -0.072577 -1.170744 46 47 40 2 1
0.008064 0.502064 -1.163125 26 25 21 2 1
-0.029676 0.526328 -1.158805 29 26 20 2 1
-0.009817 0.504953 -1.162704 27 25 21 2 1
-0.722257 0.420630 -1.159311 32 29 25 2 1
-0.705444 0.434806 -1.156095 31 31 28 2 1
-0.712163 0.445568 -1.152852 26 24 24 2 1
-0.700833 0.416788 -1.163190 31 34 36 2 1
-0.691638 -0.322855 -1.170530 52 52 46 2 1
-0.668571 -0.325850 -1.168506 51 50 46 2 1
-0.236439 0.574844 -1.160168 37 37 18 2 1
-0.245623 0.560709 -1.158699 28 27 26 2 1
-0.209908 0.605614 -1.163749 31 33 27 2 1
-0.264024 0.510845 -1.132923 19 16 13 2 1
-0.277318 0.504915 -1.142619 20 18 13 2 1
-0.684372 0.603835 -1.158028 33 24 24 2 1
-0.686090 0.635201 -1.156195 34 27 25 2 1
-0.676207 0.621542 -1.157790 35 27 25 2 1
-0.656476 -0.208138 -1.179281 46 49 48 2 1
-0.667279 -0.221927 -1.191594 41 44 39 2 1
-0.655885 -0.220773 -1.201710 41 43 39 2 1
-0.647977 -0.228816 -1.184604 46 44 44 2 1
-0.639109 -0.220693 -1.182019 52 49 51 2 1
-0.669616 -0.214504 -1.184523 44 41 41 2 1
-0.643003 -0.200052 -1.181975 48 47 44 2 1
-0.386569 0.658854 -1.162257 38 29 33 2 1
-0.400085 0.645612 -1.156940 33 29 23 2 1
-0.412936 0.646627 -1.151049 43 36 37 2 1
-0.698566 0.667441 -1.154088 32 29 23 2 1
-0.833478 -0.169012 -0.776351 98 90 81 5 3
-0.826589 -0.158374 -0.755325 96 94 93 5 3
-0.833077 -0.157755 -0.783052 78 67 46 5 3
-0.664799 -0.032130 -1.175609 47 42 45 2 1
-0.510514 0.482848 -1.135739 38 34 31 2 1
0.068804 0.384692 -1.178995 27 23 22 2 1
0.075691 0.393188 -1.180319 23 23 17 2 1
-0.167983 0.452377 -1.155566 29 25 22 2 1
-0.178705 0.463303 -1.155198 29 25 23 2 1
-0.158987 0.471195 -1.156115 29 23 25 2 1
-0.518919 -0.134135 -1.184240 86 89 84 2 1
-0.537246 -0.120538 -1.184388 70 70 64 2 1
-0.035769 0.543411 -1.159392 28 24 22 2 1
0.090985 0.058632 -1.165285 21 20 20 2 1
0.090133 0.054519 -1.160159 29 34 33 2 1
0.090907 0.038868 -1.146705 35 40 40 2 1
0.092979 0.062570 -1.151684 37 37 42 2 1
0.087552 0.039263 -1.154245 32 37 38 2 1
0.095051 0.049600 -1.159945 27 36 43 2 1
0.074337 0.036896 -1.144108 29 39 37 2 1
-0.427460 0.482841 -0.740194 33 31 29 5 5
-0.415184 0.490708 -0.733661 29 29 24 5 5
-0.820948 0.191450 -1.185542 45 49 42 2 1
-0.818681 0.156972 -1.188425 37 41 36 2 1
-0.817290 0.176472 -1.184973 38 47 41 2 1
-0.793837 0.160880 -1.182183 33 40 40 2 1
-0.803271 0.179018 -1.184289 34 40 39 2 1
-0.181499 0.656929 -1.164463 40 29 30 2 1
-0.168232 0.665902 -1.164755 44 30 30 2 1
-0.653670 0.294601 -1.169743 46 47 52 2 1
-0.648758 0.315217 -1.178289 42 40 43 2 1
-0.649432 0.303923 -1.168704 43 48 47 2 1
-0.641943 0.305733 -1.161770 45 46 43 2 1
-0.849968 0.341473 -1.177901 32 38 39 2 1
-0.843274 0.331600 -1.177850 34 36 38 2 1
-0.861233 0.422925 -1.182536 36 31 26 2 1
-0.862026 0.426857 -1.173913 36 31 26 2 1
-0.872158 0.424740 -1.181059 29 29 26 2 1
-0.246431 -0.178284 -1.181345 44 52 53 2 1
-0.859833 -0.220000 -1.164262 40 40 38 2 1
-0.832587 -0.191859 -1.163533 139 140 141 2 1
-0.826572 0.617926 -0.731234 35 33 24 5 5
-0.827210 0.621311 -0.742280 40 40 33 5 5
-0.334558 0.509013 -1.148256 30 27 24 2 1
-0.322736 0.505579 -1.144630 27 28 24 2 1
-0.118057 0.502448 -1.155754 24 26 22 2 1
-0.103790 0.513135 -1.156617 27 25 25 2 1
-0.560058 -0.153059 -0.744739 31 33 35 5 3
-0.540012 -0.145033 -0.745031 28 30 35 5 3
-0.543634 -0.160747 -0.737967 35 29 36 5 3
-0.861767 0.064577 -1.188216 38 40 34 2 1
-0.874238 0.069865 -1.194005 45 43 42 2 1
-0.888281 0.052923 -1.196128 38 40 33 2 1
-0.869053 0.044647 -1.180885 35 39 40 2 1
-0.878464 0.056142 -1.187960 41 34 38 2 1
-0.882529 0.044017 -1.184406 39 39 34 2 1
-0.885805 0.062395 -1.196984 38 38 40 2 1
-0.804743 0.119180 -1.189590 45 39 38 2 1
-0.803069 0.105371 -1.187110 33 42 38 2 1
-0.814403 0.109922 -1.191370 41 38 40 2 1
-0.796154 0.124449 -1.184546 43 42 41 2 1
-0.853074 0.021988 -1.176371 37 38 34 2 1
-0.642178 -0.257694 -0.747071 31 34 35 5 3
-0.740470 -0.084846 -1.171632 41 37 37 2 1
-0.027077 -0.100182 -1.174510 44 45 53 2 1
-0.822485 -0.251690 -0.778902 146 139 133 5 3
-0.819152 -0.219876 -0.794129 71 60 55 5 3
-0.821599 -0.239824 -0.787791 86 74 63 5 3
-0.736056 0.449524 -1.156302 31 27 23 2 1
-0.754804 0.418388 -1.156224 31 27 25 2 1
-0.744149 0.423446 -1.157929 31 29 26 2 1
-0.728836 0.429366 -1.157487 31 28 24 2 1
-0.764789 0.435616 -1.160946 30 27 22 2 1
-0.739159 0.434731 -1.159643 32 29 24 2 1
-0.609983 0.173913 -1.060475 92 79 60 2 1
0.042022 0.330582 -1.179651 23 24 19 2 1
-0.598864 0.359514 -1.105396 44 48 47 2 1
0.086967 0.618524 -1.160752 32 28 22 2 1
0.087850 0.639763 -1.161789 34 29 30 2 1
-0.837039 0.285511 -1.175396 39 41 44 2 1
-0.678849 0.548664 -1.156704 29 24 19 2 1
-0.610721 0.173813 -1.139762 90 80 56 2 1
-0.613599 0.192410 -1.132817 92 81 65 2 1
-0.826020 0.437912 -1.151548 31 27 20 2 1
-0.843789 0.439781 -1.151341 39 33 34 2 1
