ply
format ascii 1.0
element vertex 1095
property float x
property float y
property float z
property uchar red
property uchar green
property uchar blue
property uchar semantic_label
property uchar instance_label
end_header
1.363491 -1.210485 0.119002 255 0 255 60 13
1.393099 -1.163616 0.108926 255 0 255 60 13
1.385791 -1.139571 0.102925 255 0 255 60 13
1.394035 -1.182218 0.100842 255 0 255 60 13
1.386461 -1.252172 0.104926 255 0 255 60 13
1.365020 -1.198541 0.112926 255 0 255 60 13
1.356809 -1.227467 0.118926 255 0 255 60 13
1.377849 -1.267986 0.108926 255 0 255 60 13
1.392839 -1.204455 0.112926 255 0 255 60 13
1.354881 -1.193273 0.118926 255 0 255 60 13
1.346326 -1.271999 0.114926 255 0 255 60 13
1.392876 -1.245357 0.114926 255 0 255 60 13
1.381664 -1.134605 0.119236 255 0 255 60 13
1.381957 -1.142847 0.118593 255 0 255 60 13
1.334532 -1.269767 0.104926 255 0 255 60 13
1.339231 -1.238043 0.119072 255 0 255 60 13
1.385125 -1.190547 0.106925 255 0 255 60 13
1.388951 -1.148422 0.096014 255 0 255 60 13
1.326661 -1.239460 0.114053 255 0 255 60 13
1.369728 -1.181140 0.111938 255 0 255 60 13
1.385611 -1.217231 0.100926 255 0 255 60 13
1.380464 -1.169109 0.114025 255 0 255 60 13
1.361412 -1.220266 0.111938 255 0 255 60 13
1.362442 -1.167324 0.113991 255 0 255 60 13
1.308534 -1.176312 0.114926 255 0 255 60 13
1.349891 -1.264845 0.119223 255 0 255 60 13
1.383592 -1.202489 0.118798 255 0 255 60 13
1.335025 -1.228971 0.111926 255 0 255 60 13
1.328183 -1.145729 0.119608 255 0 255 60 13
1.365731 -1.228802 0.118926 255 0 255 60 13
1.324731 -1.258162 0.118926 255 0 255 60 13
1.333419 -1.178809 0.118926 255 0 255 60 13
1.325640 -1.128831 0.119429 255 0 255 60 13
1.321657 -1.214910 0.118926 255 0 255 60 13
1.392901 -1.254889 0.102925 255 0 255 60 13
1.386919 -1.186840 0.118661 255 0 255 60 13
1.384757 -1.264344 0.100926 255 0 255 60 13
1.315708 -1.204417 0.114012 255 0 255 60 13
1.308628 -1.256965 0.114926 255 0 255 60 13
1.334685 -1.192094 0.113985 255 0 255 60 13
1.377429 -1.193001 0.114028 255 0 255 60 13
1.375525 -1.149658 0.118926 255 0 255 60 13
1.389754 -1.263095 0.112926 255 0 255 60 13
1.370219 -1.140351 0.114034 255 0 255 60 13
1.333879 -1.269620 0.116925 255 0 255 60 13
1.369576 -1.258806 0.113997 255 0 255 60 13
1.359574 -1.242367 0.118926 255 0 255 60 13
1.393199 -1.184085 0.114926 255 0 255 60 13
1.377770 -1.229877 0.114021 255 0 255 60 13
1.314193 -1.221165 0.118926 255 0 255 60 13
1.348433 -1.248178 0.114926 255 0 255 60 13
1.347160 -1.133405 0.113984 255 0 255 60 13
1.366845 -1.127367 0.119268 255 0 255 60 13
1.373740 -1.248842 0.100926 255 0 255 60 13
1.319403 -1.158175 0.114039 255 0 255 60 13
1.365372 -1.249733 0.114029 255 0 255 60 13
1.385426 -1.213102 0.114046 255 0 255 60 13
1.321086 -1.146266 0.118926 255 0 255 60 13
1.365693 -1.190506 0.114012 255 0 255 60 13
1.345931 -1.235378 0.119114 255 0 255 60 13
1.348133 -1.215399 0.114012 255 0 255 60 13
1.342593 -1.270324 0.098926 255 0 255 60 13
1.322777 -1.171160 0.113999 255 0 255 60 13
1.361146 -1.144557 0.114021 255 0 255 60 13
1.340581 -1.125872 0.114057 255 0 255 60 13
1.378953 -1.156972 0.118926 255 0 255 60 13
1.320575 -1.191139 0.118958 255 0 255 60 13
1.317370 -1.196592 0.113976 255 0 255 60 13
1.358085 -1.235916 0.111938 255 0 255 60 13
1.314120 -1.173410 0.120095 255 0 255 60 13
1.337332 -1.221282 0.118926 255 0 255 60 13
1.335270 -1.208576 0.114062 255 0 255 60 13
1.350042 -1.187180 0.114069 255 0 255 60 13
1.374860 -1.243571 0.114015 255 0 255 60 13
1.385839 -1.235682 0.102925 255 0 255 60 13
1.309546 -1.194929 0.114042 255 0 255 60 13
1.385399 -1.170158 0.102925 255 0 255 60 13
1.330111 -1.213614 0.114008 255 0 255 60 13
1.353276 -1.263520 0.106925 255 0 255 60 13
1.345079 -1.143187 0.114031 255 0 255 60 13
1.321085 -1.246454 0.114037 255 0 255 60 13
1.387016 -1.201172 0.110925 255 0 255 60 13
1.367723 -1.152090 0.119259 255 0 255 60 13
1.341384 -1.189428 0.114007 255 0 255 60 13
1.378793 -1.162621 0.112926 255 0 255 60 13
1.342605 -1.251029 0.119919 255 0 255 60 13
1.355958 -1.217062 0.118855 255 0 255 60 13
1.321901 -1.256851 0.108926 255 0 255 60 13
1.339505 -1.150180 0.114128 255 0 255 60 13
1.382977 -1.253476 0.118903 255 0 255 60 13
1.331801 -1.138319 0.114025 255 0 255 60 13
1.348823 -1.125580 0.113995 255 0 255 60 13
1.387987 -1.223870 0.118926 255 0 255 60 13
1.383517 -1.241323 0.114115 255 0 255 60 13
1.345099 -1.239290 0.114006 255 0 255 60 13
1.341753 -1.158836 0.113998 255 0 255 60 13
1.380095 -1.199701 0.114138 255 0 255 60 13
1.352952 -1.173485 0.114088 255 0 255 60 13
1.391171 -1.224547 0.100483 255 0 255 60 13
1.364610 -1.262934 0.112926 255 0 255 60 13
1.369095 -1.136023 0.118734 255 0 255 60 13
1.393744 -1.157619 0.102925 255 0 255 60 13
1.314219 -1.259514 0.112926 255 0 255 60 13
1.374471 -1.226164 0.118926 255 0 255 60 13
1.358521 -1.272339 0.116925 255 0 255 60 13
1.349340 -1.161622 0.118926 255 0 255 60 13
1.371344 -1.144680 0.119106 255 0 255 60 13
1.387410 -1.146050 0.119357 255 0 255 60 13
1.352074 -1.148762 0.118680 255 0 255 60 13
1.341637 -1.228332 0.118926 255 0 255 60 13
1.346776 -1.183310 0.118926 255 0 255 60 13
1.338720 -1.182728 0.114052 255 0 255 60 13
1.392988 -1.210620 0.106925 255 0 255 60 13
1.315783 -1.165585 0.114033 255 0 255 60 13
1.384017 -1.178043 0.118926 255 0 255 60 13
1.381160 -1.127357 0.114926 255 0 255 60 13
1.367866 -1.237995 0.119223 255 0 255 60 13
1.392664 -1.255535 0.110925 255 0 255 60 13
1.374028 -1.247484 0.119241 255 0 255 60 13
1.392904 -1.216736 0.118926 255 0 255 60 13
1.393095 -1.192241 0.112926 255 0 255 60 13
1.310548 -1.209455 0.114119 255 0 255 60 13
1.374595 -1.167862 0.118784 255 0 255 60 13
1.393071 -1.171789 0.106925 255 0 255 60 13
1.339674 -1.168618 0.119007 255 0 255 60 13
1.314706 -1.189892 0.114052 255 0 255 60 13
1.376306 -1.188673 0.118995 255 0 255 60 13
1.387702 -1.154291 0.118731 255 0 255 60 13
1.392915 -1.220829 0.108926 255 0 255 60 13
1.362319 -1.177520 0.118706 255 0 255 60 13
1.324951 -1.218650 0.114012 255 0 255 60 13
1.364124 -1.255602 0.119482 255 0 255 60 13
1.362810 -1.136731 0.114035 255 0 255 60 13
1.358576 -1.195127 0.114022 255 0 255 60 13
1.380634 -1.187548 0.114067 255 0 255 60 13
1.362516 -1.128490 0.114012 255 0 255 60 13
1.367602 -1.162286 0.114043 255 0 255 60 13
1.373423 -1.134898 0.114075 255 0 255 60 13
1.340308 -1.213737 0.114029 255 0 255 60 13
1.389489 -1.136268 0.096008 255 0 255 60 13
1.335393 -1.198379 0.114000 255 0 255 60 13
1.348842 -1.221684 0.118478 255 0 255 60 13
1.368221 -1.260562 0.100926 255 0 255 60 13
1.341584 -1.140399 0.118868 255 0 255 60 13
1.352243 -1.167201 0.119331 255 0 255 60 13
1.391567 -1.187828 0.098926 255 0 255 60 13
1.368481 -1.187009 0.118832 255 0 255 60 13
1.392197 -1.251347 0.118926 255 0 255 60 13
1.326642 -1.143356 0.114021 255 0 255 60 13
1.389935 -1.205883 0.096925 255 0 255 60 13
1.335422 -1.130910 0.114002 255 0 255 60 13
1.330725 -1.162626 0.119430 255 0 255 60 13
1.317570 -1.147563 0.113967 255 0 255 60 13
1.354562 -1.233250 0.118926 255 0 255 60 13
1.326941 -1.267003 0.116925 255 0 255 60 13
1.319514 -1.263468 0.110925 255 0 255 60 13
1.325381 -1.197386 0.118926 255 0 255 60 13
1.376866 -1.258310 0.104926 255 0 255 60 13
1.338796 -1.143895 0.114038 255 0 255 60 13
1.373130 -1.126657 0.113985 255 0 255 60 13
1.339453 -1.203331 0.112926 255 0 255 60 13
1.358872 -1.121583 0.112926 255 0 255 60 13
1.349060 -1.268758 0.097968 255 0 255 60 13
1.377495 -1.139853 0.112926 255 0 255 60 13
1.362038 -1.271516 0.104926 255 0 255 60 13
1.372356 -1.173521 0.112926 255 0 255 60 13
1.370322 -1.211937 0.112926 255 0 255 60 13
1.330800 -1.123793 0.113989 255 0 255 60 13
1.319715 -1.262520 0.102883 255 0 255 60 13
1.386257 -1.209190 0.118706 255 0 255 60 13
1.322191 -1.154678 0.119081 255 0 255 60 13
1.383276 -1.231047 0.118926 255 0 255 60 13
1.329893 -1.166539 0.113977 255 0 255 60 13
1.380011 -1.224219 0.112926 255 0 255 60 13
1.392589 -1.237116 0.102835 255 0 255 60 13
1.356690 -1.209039 0.118926 255 0 255 60 13
1.373442 -1.269481 0.104926 255 0 255 60 13
1.323130 -1.183503 0.118926 255 0 255 60 13
1.346423 -1.194588 0.114052 255 0 255 60 13
1.387628 -1.193123 0.118617 255 0 255 60 13
1.325565 -1.167665 0.118728 255 0 255 60 13
1.332387 -1.154801 0.113963 255 0 255 60 13
1.373624 -1.239769 0.118926 255 0 255 60 13
1.353526 -1.134758 0.118926 255 0 255 60 13
1.394073 -1.172002 0.118926 255 0 255 60 13
1.351139 -1.258976 0.119771 255 0 255 60 13
1.349333 -1.180894 0.113999 255 0 255 60 13
1.337738 -1.264307 0.118564 255 0 255 60 13
1.346663 -1.272338 0.108926 255 0 255 60 13
1.355987 -1.149594 0.113973 255 0 255 60 13
1.314583 -1.200089 0.118838 255 0 255 60 13
1.353464 -1.228800 0.114115 255 0 255 60 13
1.320528 -1.162503 0.119143 255 0 255 60 13
1.353099 -1.201658 0.118926 255 0 255 60 13
1.373177 -1.155293 0.119006 255 0 255 60 13
1.320377 -1.240170 0.114018 255 0 255 60 13
1.350553 -1.242495 0.114008 255 0 255 60 13
1.344217 -1.262684 0.112926 255 0 255 60 13
1.365617 -1.229339 0.111942 255 0 255 60 13
1.329525 -1.197131 0.114073 255 0 255 60 13
1.327785 -1.243789 0.119263 255 0 255 60 13
1.392835 -1.243303 0.108926 255 0 255 60 13
1.385818 -1.235677 0.108926 255 0 255 60 13
1.385379 -1.170155 0.108926 255 0 255 60 13
1.353151 -1.124455 0.119276 255 0 255 60 13
1.363867 -1.261682 0.104926 255 0 255 60 13
1.387165 -1.166444 0.114043 255 0 255 60 13
1.355344 -1.268049 0.095927 255 0 255 60 13
1.371655 -1.249024 0.114009 255 0 255 60 13
1.354329 -1.176632 0.118926 255 0 255 60 13
1.384178 -1.218971 0.114022 255 0 255 60 13
1.314507 -1.238923 0.119568 255 0 255 60 13
1.322485 -1.249487 0.118926 255 0 255 60 13
1.156039 -1.532344 0.182926 255 255 0 45 14
1.203009 -1.474897 0.098018 255 255 0 45 14
1.193008 -1.464227 0.210926 255 255 0 45 14
1.147430 -1.524745 0.106925 255 255 0 45 14
1.216984 -1.506492 0.158925 255 255 0 45 14
1.204880 -1.522322 0.214926 255 255 0 45 14
1.139534 -1.484942 0.210926 255 255 0 45 14
1.182217 -1.462298 0.150926 255 255 0 45 14
1.203730 -1.530256 0.108926 255 255 0 45 14
1.185260 -1.539164 0.148925 255 255 0 45 14
1.141525 -1.514054 0.146926 255 255 0 45 14
1.175470 -1.498647 0.206926 255 255 0 45 14
1.216082 -1.490354 0.194925 255 255 0 45 14
1.217124 -1.498344 0.122926 255 255 0 45 14
1.191739 -1.537540 0.184925 255 255 0 45 14
1.171680 -1.535712 0.215043 255 255 0 45 14
1.141516 -1.519077 0.210926 255 255 0 45 14
1.198555 -1.466992 0.178926 255 255 0 45 14
1.172939 -1.539412 0.118926 255 255 0 45 14
1.203959 -1.470424 0.128926 255 255 0 45 14
1.138872 -1.507294 0.176925 255 255 0 45 14
1.162121 -1.465254 0.210926 255 255 0 45 14
1.206969 -1.504364 0.095975 255 255 0 45 14
1.208755 -1.525190 0.136926 255 255 0 45 14
1.213084 -1.517932 0.186926 255 255 0 45 14
1.204730 -1.481396 0.154926 255 255 0 45 14
1.157748 -1.533925 0.154926 255 255 0 45 14
1.184164 -1.462712 0.112926 255 255 0 45 14
1.199409 -1.491833 0.214926 255 255 0 45 14
1.181169 -1.529551 0.095959 255 255 0 45 14
1.205472 -1.528583 0.164926 255 255 0 45 14
1.152441 -1.530034 0.130925 255 255 0 45 14
1.176606 -1.531778 0.168926 255 255 0 45 14
1.180238 -1.461878 0.190925 255 255 0 45 14
1.163269 -1.517567 0.205958 255 255 0 45 14
1.208092 -1.494380 0.174926 255 255 0 45 14
1.189604 -1.528346 0.126926 255 255 0 45 14
1.184309 -1.517951 0.208925 255 255 0 45 14
1.177573 -1.479131 0.214926 255 255 0 45 14
1.154858 -1.499422 0.211474 255 255 0 45 14
1.174658 -1.531326 0.194925 255 255 0 45 14
1.216491 -1.508432 0.204925 255 255 0 45 14
1.208414 -1.502626 0.140926 255 255 0 45 14
1.191929 -1.536647 0.206926 255 255 0 45 14
1.205656 -1.472066 0.196926 255 255 0 45 14
1.145676 -1.522007 0.164926 255 255 0 45 14
1.205054 -1.484519 0.114926 255 255 0 45 14
1.214806 -1.514208 0.110925 255 255 0 45 14
1.170556 -1.531384 0.137920 255 255 0 45 14
1.143497 -1.514391 0.122926 255 255 0 45 14
1.144040 -1.519613 0.190925 255 255 0 45 14
1.161899 -1.533633 0.097971 255 255 0 45 14
1.183153 -1.462497 0.131926 255 255 0 45 14
1.181197 -1.462082 0.171929 255 255 0 45 14
1.214452 -1.483463 0.138925 255 255 0 45 14
1.157571 -1.534757 0.201174 255 255 0 45 14
1.197922 -1.522887 0.196926 255 255 0 45 14
1.196641 -1.466375 0.160926 255 255 0 45 14
1.196526 -1.524636 0.149930 255 255 0 45 14
1.162513 -1.482646 0.206021 255 255 0 45 14
1.135837 -1.502337 0.212925 255 255 0 45 14
1.187402 -1.539054 0.108926 255 255 0 45 14
1.206330 -1.512407 0.170925 255 255 0 45 14
1.201893 -1.518629 0.120925 255 255 0 45 14
1.198802 -1.518986 0.096925 255 255 0 45 14
1.210413 -1.478545 0.180925 255 255 0 45 14
1.212252 -1.489130 0.100663 255 255 0 45 14
1.200462 -1.467641 0.112926 255 255 0 45 14
1.200432 -1.467783 0.144925 255 255 0 45 14
1.160979 -1.528340 0.116925 255 255 0 45 14
1.195940 -1.508154 0.215042 255 255 0 45 14
1.204697 -1.476578 0.212925 255 255 0 45 14
1.191840 -1.537063 0.166925 255 255 0 45 14
1.197936 -1.522891 0.180925 255 255 0 45 14
1.154906 -1.528058 0.215322 255 255 0 45 14
1.216389 -1.490009 0.160926 255 255 0 45 14
1.208407 -1.502625 0.188926 255 255 0 45 14
1.211613 -1.520993 0.152925 255 255 0 45 14
1.215199 -1.512248 0.130925 255 255 0 45 14
1.160978 -1.528347 0.168926 255 255 0 45 14
1.214128 -1.493618 0.210926 255 255 0 45 14
1.177212 -1.463279 0.212925 255 255 0 45 14
1.170888 -1.539435 0.180925 255 255 0 45 14
1.196340 -1.535131 0.138925 255 255 0 45 14
1.172704 -1.530900 0.152925 255 255 0 45 14
1.151607 -1.476239 0.214047 255 255 0 45 14
1.208818 -1.500669 0.110925 255 255 0 45 14
1.151591 -1.524410 0.144925 255 255 0 45 14
1.202403 -1.477750 0.168926 255 255 0 45 14
1.185157 -1.491549 0.215079 255 255 0 45 14
1.181095 -1.539517 0.132926 255 255 0 45 14
1.206949 -1.490047 0.128926 255 255 0 45 14
1.192312 -1.467505 0.196926 255 255 0 45 14
1.217047 -1.505051 0.176925 255 255 0 45 14
1.173096 -1.538671 0.104926 255 255 0 45 14
1.138858 -1.507360 0.134925 255 255 0 45 14
1.191000 -1.478478 0.210926 255 255 0 45 14
1.211642 -1.520858 0.200926 255 255 0 45 14
1.191195 -1.468297 0.100926 255 255 0 45 14
1.205894 -1.485734 0.202926 255 255 0 45 14
1.148328 -1.520525 0.177922 255 255 0 45 14
1.216785 -1.494183 0.146926 255 255 0 45 14
1.178881 -1.540315 0.204925 255 255 0 45 14
1.150407 -1.510743 0.205967 255 255 0 45 14
1.192462 -1.464477 0.122926 255 255 0 45 14
1.163165 -1.537299 0.128926 255 255 0 45 14
1.180949 -1.530587 0.182926 255 255 0 45 14
1.216664 -1.490067 0.112926 255 255 0 45 14
1.193515 -1.532175 0.098926 255 255 0 45 14
1.208926 -1.504780 0.214933 255 255 0 45 14
1.191985 -1.526764 0.112926 255 255 0 45 14
1.201341 -1.531794 0.122926 255 255 0 45 14
1.183193 -1.529980 0.214926 255 255 0 45 14
1.185285 -1.529427 0.158925 255 255 0 45 14
1.151824 -1.523314 0.201968 255 255 0 45 14
1.187223 -1.529922 0.196926 255 255 0 45 14
1.188947 -1.502578 0.205948 255 255 0 45 14
1.172878 -1.510839 0.210926 255 255 0 45 14
1.167141 -1.537827 0.162925 255 255 0 45 14
1.144638 -1.518646 0.134925 255 255 0 45 14
1.179002 -1.530127 0.112926 255 255 0 45 14
1.185283 -1.529435 0.140926 255 255 0 45 14
1.216205 -1.510417 0.146926 255 255 0 45 14
1.207540 -1.506530 0.122926 255 255 0 45 14
1.141528 -1.514040 0.104926 255 255 0 45 14
1.172219 -1.523558 0.211981 255 255 0 45 14
1.149036 -1.526809 0.119546 255 255 0 45 14
1.205343 -1.528554 0.188926 255 255 0 45 14
1.194355 -1.525233 0.168926 255 255 0 45 14
1.203510 -1.515897 0.144925 255 255 0 45 14
1.203218 -1.479030 0.140926 255 255 0 45 14
1.209249 -1.498714 0.200926 255 255 0 45 14
1.185103 -1.538565 0.120925 255 255 0 45 14
1.151068 -1.488392 0.215029 255 255 0 45 14
1.159662 -1.534539 0.142926 255 255 0 45 14
1.204346 -1.511985 0.204925 255 255 0 45 14
1.203356 -1.530178 0.204925 255 255 0 45 14
1.203124 -1.517859 0.108926 255 255 0 45 14
1.209801 -1.523368 0.174926 255 255 0 45 14
1.144488 -1.495173 0.206926 255 255 0 45 14
1.216185 -1.489866 0.182926 255 255 0 45 14
1.206354 -1.483787 0.190925 255 255 0 45 14
1.216458 -1.496157 0.134925 255 255 0 45 14
1.178896 -1.540239 0.158925 255 255 0 45 14
1.183311 -1.461753 0.202926 255 255 0 45 14
1.198645 -1.533908 0.156925 255 255 0 45 14
1.214199 -1.483409 0.170925 255 255 0 45 14
1.169507 -1.488222 0.213606 255 255 0 45 14
1.194773 -1.523266 0.208925 255 255 0 45 14
1.206345 -1.512410 0.158925 255 255 0 45 14
1.194344 -1.467567 0.134925 255 255 0 45 14
1.208826 -1.500669 0.164926 255 255 0 45 14
1.163808 -1.505414 0.205963 255 255 0 45 14
1.210517 -1.478048 0.106925 255 255 0 45 14
1.208869 -1.500679 0.152925 255 255 0 45 14
1.196733 -1.523664 0.136926 255 255 0 45 14
1.166132 -1.475237 0.215328 255 255 0 45 14
1.163331 -1.536514 0.190925 255 255 0 45 14
1.183209 -1.539186 0.174926 255 255 0 45 14
1.174664 -1.531294 0.126926 255 255 0 45 14
1.210817 -1.478601 0.122926 255 255 0 45 14
1.181251 -1.539792 0.190925 255 255 0 45 14
1.209498 -1.515125 0.098926 255 255 0 45 14
1.199557 -1.533459 0.176925 255 255 0 45 14
1.197161 -1.534994 0.194925 255 255 0 45 14
1.161295 -1.536472 0.108926 255 255 0 45 14
1.189603 -1.463868 0.184925 255 255 0 45 14
1.215814 -1.504200 0.102925 255 255 0 45 14
1.151731 -1.517159 0.214926 255 255 0 45 14
1.204676 -1.515152 0.132926 255 255 0 45 14
1.174961 -1.539516 0.144925 255 255 0 45 14
1.146132 -1.505745 0.214926 255 255 0 45 14
1.151824 -1.523314 0.155903 255 255 0 45 14
1.155321 -1.526102 0.191922 255 255 0 45 14
1.200182 -1.474297 0.186926 255 255 0 45 14
1.171000 -1.461959 0.204017 255 255 0 45 14
1.211226 -1.521626 0.126926 255 255 0 45 14
1.212121 -1.519773 0.164926 255 255 0 45 14
1.166851 -1.529575 0.178926 255 255 0 45 14
1.206972 -1.490052 0.144925 255 255 0 45 14
1.154432 -1.525911 0.096925 255 255 0 45 14
1.139677 -1.508462 0.204925 255 255 0 45 14
1.169007 -1.538670 0.200926 255 255 0 45 14
1.203915 -1.513938 0.182926 255 255 0 45 14
1.216521 -1.508440 0.192926 255 255 0 45 14
1.191466 -1.466310 0.170925 255 255 0 45 14
1.164875 -1.529252 0.206926 255 255 0 45 14
1.197008 -1.531991 0.214926 255 255 0 45 14
1.214284 -1.483428 0.150926 255 255 0 45 14
1.205734 -1.471699 0.158925 255 255 0 45 14
1.209795 -1.523367 0.114926 255 255 0 45 14
1.206035 -1.528000 0.146926 255 255 0 45 14
1.164347 -1.493259 0.205961 255 255 0 45 14
1.189124 -1.463266 0.142926 255 255 0 45 14
1.197141 -1.473650 0.203960 255 255 0 45 14
1.204677 -1.515150 0.194925 255 255 0 45 14
1.180197 -1.529343 0.204925 255 255 0 45 14
1.184945 -1.463687 0.160926 255 255 0 45 14
1.151451 -1.529367 0.172926 255 255 0 45 14
1.144197 -1.515558 0.156925 255 255 0 45 14
1.211972 -1.515651 0.210926 255 255 0 45 14
1.200323 -1.521353 0.158925 255 255 0 45 14
1.206594 -1.486886 0.164926 255 255 0 45 14
1.217349 -1.496347 0.170925 255 255 0 45 14
1.148403 -1.481692 0.205974 255 255 0 45 14
1.190866 -1.527523 0.186926 255 255 0 45 14
1.216087 -1.487900 0.122926 255 255 0 45 14
1.208125 -1.494386 0.118926 255 255 0 45 14
1.194107 -1.536019 0.116925 255 255 0 45 14
1.185403 -1.471154 0.215227 255 255 0 45 14
1.187235 -1.529873 0.174926 255 255 0 45 14
1.142704 -1.518123 0.200926 255 255 0 45 14
1.206110 -1.524628 0.100926 255 255 0 45 14
1.190788 -1.537729 0.130925 255 255 0 45 14
1.157046 -1.527606 0.106925 255 255 0 45 14
1.165153 -1.537564 0.172926 255 255 0 45 14
1.216671 -1.508471 0.118926 255 255 0 45 14
1.183078 -1.501330 0.214522 255 255 0 45 14
1.168804 -1.530008 0.110925 255 255 0 45 14
1.158308 -1.473574 0.205931 255 255 0 45 14
1.207545 -1.486084 0.214926 255 255 0 45 14
1.200849 -1.475443 0.120925 255 255 0 45 14
1.203936 -1.480159 0.130925 255 255 0 45 14
1.154565 -1.491180 0.205967 255 255 0 45 14
1.141935 -1.512122 0.184925 255 255 0 45 14
1.203998 -1.485331 0.096925 255 255 0 45 14
1.207725 -1.491189 0.154926 255 255 0 45 14
1.171384 -1.531560 0.096925 255 255 0 45 14
1.208817 -1.500668 0.130925 255 255 0 45 14
1.215751 -1.511147 0.168926 255 255 0 45 14
1.181415 -1.509155 0.206038 255 255 0 45 14
1.217044 -1.498327 0.188926 255 255 0 45 14
1.190372 -1.467011 0.152925 255 255 0 45 14
1.201516 -1.501160 0.209962 255 255 0 45 14
1.212427 -1.478686 0.202926 255 255 0 45 14
1.207217 -1.474342 0.148925 255 255 0 45 14
1.164885 -1.529205 0.196926 255 255 0 45 14
1.160958 -1.528440 0.134925 255 255 0 45 14
1.152503 -1.529739 0.162925 255 255 0 45 14
1.143867 -1.519578 0.114926 255 255 0 45 14
1.134776 -1.493108 0.210926 255 255 0 45 14
1.186160 -1.530612 0.104926 255 255 0 45 14
1.167076 -1.538135 0.150926 255 255 0 45 14
1.181513 -1.537802 0.100926 255 255 0 45 14
1.194095 -1.536077 0.148925 255 255 0 45 14
1.172699 -1.540536 0.128926 255 255 0 45 14
1.213064 -1.517927 0.140926 255 255 0 45 14
1.155793 -1.533504 0.122926 255 255 0 45 14
1.201632 -1.476648 0.110925 255 255 0 45 14
1.207979 -1.504579 0.178926 255 255 0 45 14
1.205771 -1.471521 0.174926 255 255 0 45 14
1.217274 -1.504509 0.138925 255 255 0 45 14
1.187454 -1.528841 0.149942 255 255 0 45 14
1.213304 -1.497531 0.096925 255 255 0 45 14
1.193765 -1.499150 0.214926 255 255 0 45 14
1.207169 -1.508496 0.104926 255 255 0 45 14
1.175375 -1.489470 0.205950 255 255 0 45 14
1.212023 -1.480587 0.160926 255 255 0 45 14
1.163806 -1.538128 0.118926 255 255 0 45 14
1.184146 -1.462708 0.102925 255 255 0 45 14
1.158422 -1.511512 0.210926 255 255 0 45 14
1.198606 -1.471916 0.152925 255 255 0 45 14
1.186440 -1.538849 0.198925 255 255 0 45 14
1.206594 -1.486887 0.180925 255 255 0 45 14
1.196307 -1.525667 0.104926 255 255 0 45 14
1.189578 -1.538085 0.156925 255 255 0 45 14
1.208565 -1.492435 0.188926 255 255 0 45 14
1.147464 -1.520341 0.098926 255 255 0 45 14
1.173625 -1.540215 0.170925 255 255 0 45 14
1.142391 -1.476326 0.210926 255 255 0 45 14
1.147121 -1.526197 0.210926 255 255 0 45 14
1.161854 -1.533844 0.214926 255 255 0 45 14
1.180244 -1.461879 0.180925 255 255 0 45 14
1.149168 -1.526192 0.184925 255 255 0 45 14
1.198974 -1.484262 0.210002 255 255 0 45 14
1.148077 -1.521700 0.126926 255 255 0 45 14
1.171293 -1.470201 0.209930 255 255 0 45 14
1.201471 -1.520612 0.172926 255 255 0 45 14
1.196532 -1.471475 0.214926 255 255 0 45 14
1.196330 -1.535178 0.106925 255 255 0 45 14
1.192868 -1.464562 0.108926 255 255 0 45 14
1.214552 -1.514155 0.178926 255 255 0 45 14
1.176495 -1.493824 0.214926 255 255 0 45 14
1.207145 -1.508492 0.148925 255 255 0 45 14
1.170754 -1.530449 0.186926 255 255 0 45 14
1.164884 -1.529212 0.148925 255 255 0 45 14
1.164894 -1.529163 0.124925 255 255 0 45 14
1.207548 -1.506532 0.196926 255 255 0 45 14
1.206721 -1.510446 0.114926 255 255 0 45 14
1.164892 -1.529171 0.160926 255 255 0 45 14
1.200472 -1.467594 0.168926 255 255 0 45 14
1.189747 -1.510926 0.208925 255 255 0 45 14
1.217444 -1.500457 0.112926 255 255 0 45 14
1.182492 -1.484848 0.209982 255 255 0 45 14
1.202801 -1.513701 0.214926 255 255 0 45 14
1.217113 -1.498342 0.154926 255 255 0 45 14
1.201463 -1.520650 0.188926 255 255 0 45 14
1.199569 -1.470254 0.104626 255 255 0 45 14
1.187406 -1.538683 0.138925 255 255 0 45 14
1.217422 -1.496362 0.202926 255 255 0 45 14
1.175423 -1.518106 0.205972 255 255 0 45 14
1.180952 -1.530574 0.132926 255 255 0 45 14
1.178998 -1.530140 0.146926 255 255 0 45 14
1.185284 -1.529431 0.118926 255 255 0 45 14
1.197568 -1.524858 0.126926 255 255 0 45 14
1.208981 -1.490479 0.108926 255 255 0 45 14
1.152340 -1.468216 0.210926 255 255 0 45 14
1.158601 -1.481815 0.213666 255 255 0 45 14
1.162022 -1.523436 0.213929 255 255 0 45 14
1.206991 -1.496191 0.214926 255 255 0 45 14
1.183327 -1.495249 0.206926 255 255 0 45 14
1.201447 -1.531816 0.132926 255 255 0 45 14
1.172931 -1.539449 0.192926 255 255 0 45 14
1.178913 -1.540163 0.112926 255 255 0 45 14
1.196607 -1.466541 0.188926 255 255 0 45 14
1.193192 -1.525972 0.158925 255 255 0 45 14
1.208528 -1.492427 0.136926 255 255 0 45 14
1.215236 -1.487720 0.204925 255 255 0 45 14
1.192273 -1.486928 0.215182 255 255 0 45 14
1.184182 -1.462717 0.122926 255 255 0 45 14
1.213500 -1.483260 0.130575 255 255 0 45 14
1.141995 -1.492599 0.215192 255 255 0 45 14
1.217232 -1.504179 0.128926 255 255 0 45 14
1.216093 -1.496080 0.104926 255 255 0 45 14
1.207303 -1.526927 0.156925 255 255 0 45 14
1.207058 -1.526875 0.196926 255 255 0 45 14
1.208888 -1.476099 0.188926 255 255 0 45 14
1.207660 -1.496332 0.102925 255 255 0 45 14
1.155519 -1.525167 0.124925 255 255 0 45 14
1.178988 -1.539808 0.182926 255 255 0 45 14
1.205720 -1.471757 0.136926 255 255 0 45 14
1.179388 -1.537930 0.212925 255 255 0 45 14
1.181067 -1.539645 0.166925 255 255 0 45 14
1.214601 -1.514165 0.156925 255 255 0 45 14
1.214307 -1.516147 0.120925 255 255 0 45 14
1.138606 -1.510280 0.212925 255 255 0 45 14
1.159472 -1.535429 0.164926 255 255 0 45 14
1.170756 -1.530444 0.118926 255 255 0 45 14
1.174662 -1.531307 0.176925 255 255 0 45 14
1.165132 -1.537662 0.136926 255 255 0 45 14
1.174654 -1.531338 0.160926 255 255 0 45 14
1.206192 -1.493975 0.206926 255 255 0 45 14
1.213664 -1.482486 0.194925 255 255 0 45 14
1.154177 -1.529947 0.206926 255 255 0 45 14
1.167558 -1.500076 0.210926 255 255 0 45 14
1.171170 -1.480397 0.209988 255 255 0 45 14
1.208766 -1.476668 0.114926 255 255 0 45 14
1.200742 -1.519398 0.204925 255 255 0 45 14
1.206229 -1.473536 0.204925 255 255 0 45 14
1.206306 -1.483777 0.172926 255 255 0 45 14
1.210635 -1.521501 0.106925 255 255 0 45 14
1.207717 -1.491225 0.196926 255 255 0 45 14
1.217050 -1.506506 0.184925 255 255 0 45 14
1.187870 -1.526886 0.205929 255 255 0 45 14
1.202406 -1.477730 0.178926 255 255 0 45 14
1.199263 -1.533396 0.166925 255 255 0 45 14
1.196983 -1.464772 0.202926 255 255 0 45 14
1.216977 -1.502402 0.146926 255 255 0 45 14
1.214134 -1.516110 0.194925 255 255 0 45 14
1.206025 -1.528044 0.180925 255 255 0 45 14
1.153554 -1.524793 0.136926 255 255 0 45 14
1.193852 -1.469875 0.116925 255 255 0 45 14
1.168600 -1.530968 0.169896 255 255 0 45 14
1.185059 -1.463154 0.210926 255 255 0 45 14
1.191833 -1.537090 0.176925 255 255 0 45 14
1.173032 -1.538975 0.136926 255 255 0 45 14
1.163371 -1.536329 0.182926 255 255 0 45 14
1.162914 -1.528857 0.186926 255 255 0 45 14
1.185280 -1.529451 0.166925 255 255 0 45 14
1.199579 -1.533463 0.184925 255 255 0 45 14
1.217100 -1.498338 0.162925 255 255 0 45 14
1.159009 -1.527986 0.176925 255 255 0 45 14
1.176615 -1.531736 0.102925 255 255 0 45 14
1.172685 -1.530989 0.206926 255 255 0 45 14
1.206731 -1.510448 0.138925 255 255 0 45 14
1.198899 -1.523095 0.113944 255 255 0 45 14
1.145103 -1.519839 0.142926 255 255 0 45 14
1.145003 -1.516927 0.170925 255 255 0 45 14
1.148158 -1.502086 0.205944 255 255 0 45 14
1.191026 -1.492796 0.209966 255 255 0 45 14
1.188075 -1.525918 0.096925 255 255 0 45 14
1.213676 -1.482424 0.186926 255 255 0 45 14
1.203141 -1.512755 0.094926 255 255 0 45 14
1.154765 -1.532116 0.112926 255 255 0 45 14
1.158723 -1.471617 0.214010 255 255 0 45 14
1.154027 -1.517647 0.206926 255 255 0 45 14
1.186952 -1.463867 0.176925 255 255 0 45 14
1.196649 -1.514438 0.209988 255 255 0 45 14
1.152593 -1.529318 0.150926 255 255 0 45 14
1.217102 -1.498339 0.180925 255 255 0 45 14
1.215700 -1.501767 0.208925 255 255 0 45 14
1.212928 -1.483140 0.116925 255 255 0 45 14
1.209095 -1.523218 0.207915 255 255 0 45 14
1.145989 -1.521905 0.150926 255 255 0 45 14
1.166846 -1.529597 0.102925 255 255 0 45 14
1.200453 -1.467686 0.120925 255 255 0 45 14
1.200429 -1.477414 0.194925 255 255 0 45 14
1.216184 -1.489872 0.174926 255 255 0 45 14
1.177162 -1.471447 0.215123 255 255 0 45 14
1.195848 -1.470106 0.126926 255 255 0 45 14
1.207020 -1.484886 0.136926 255 255 0 45 14
1.207268 -1.526919 0.122926 255 255 0 45 14
1.167292 -1.537121 0.208925 255 255 0 45 14
1.152118 -1.531554 0.196162 255 255 0 45 14
1.187256 -1.536978 0.212925 255 255 0 45 14
1.214694 -1.485559 0.106925 255 255 0 45 14
1.189528 -1.470984 0.208925 255 255 0 45 14
1.146317 -1.524188 0.196926 255 255 0 45 14
1.210437 -1.478431 0.142926 255 255 0 45 14
1.161266 -1.488515 0.211556 255 255 0 45 14
1.203509 -1.515896 0.152925 255 255 0 45 14
1.153571 -1.524718 0.112926 255 255 0 45 14
1.182888 -1.531085 0.190925 255 255 0 45 14
1.206731 -1.510448 0.188926 255 255 0 45 14
1.191984 -1.526767 0.142926 255 255 0 45 14
1.209695 -1.496764 0.182926 255 255 0 45 14
1.203545 -1.515904 0.164926 255 255 0 45 14
1.189604 -1.528344 0.134925 255 255 0 45 14
1.189932 -1.526802 0.214926 255 255 0 45 14
1.146953 -1.498136 0.214926 255 255 0 45 14
1.180459 -1.523265 0.212408 255 255 0 45 14
1.145152 -1.513716 0.214926 255 255 0 45 14
1.208046 -1.480057 0.100223 255 255 0 45 14
1.199324 -1.472996 0.162925 255 255 0 45 14
1.210606 -1.482646 0.208925 255 255 0 45 14
1.201972 -1.479777 0.204925 255 255 0 45 14
1.193217 -1.525977 0.120925 255 255 0 45 14
1.206015 -1.504161 0.204925 255 255 0 45 14
1.172049 -1.505120 0.205949 255 255 0 45 14
1.179008 -1.539712 0.124925 255 255 0 45 14
1.207128 -1.508487 0.130925 255 255 0 45 14
1.207014 -1.484917 0.122926 255 255 0 45 14
1.205750 -1.471617 0.182926 255 255 0 45 14
1.205347 -1.492758 0.096925 255 255 0 45 14
1.167058 -1.528596 0.215195 255 255 0 45 14
1.216484 -1.490029 0.130925 255 255 0 45 14
1.200920 -1.532822 0.148925 255 255 0 45 14
1.199913 -1.527945 0.098926 255 255 0 45 14
1.198060 -1.478944 0.214926 255 255 0 45 14
1.198628 -1.471921 0.138925 255 255 0 45 14
1.205480 -1.482514 0.146926 255 255 0 45 14
1.216843 -1.502373 0.196926 255 255 0 45 14
1.182199 -1.462295 0.140926 255 255 0 45 14
1.187146 -1.462955 0.192926 255 255 0 45 14
1.165671 -1.511943 0.210926 255 255 0 45 14
1.184825 -1.479210 0.214926 255 255 0 45 14
1.210058 -1.523422 0.190925 255 255 0 45 14
1.169862 -1.463762 0.212925 255 255 0 45 14
1.146030 -1.483232 0.213619 255 255 0 45 14
1.213547 -1.511896 0.103966 255 255 0 45 14
1.169099 -1.538236 0.110925 255 255 0 45 14
1.174922 -1.539697 0.152925 255 255 0 45 14
1.200562 -1.467175 0.194925 255 255 0 45 14
1.159420 -1.535672 0.176925 255 255 0 45 14
1.209686 -1.496762 0.146926 255 255 0 45 14
1.202722 -1.519819 0.138925 255 255 0 45 14
1.207957 -1.504574 0.158925 255 255 0 45 14
1.207967 -1.504576 0.170925 255 255 0 45 14
1.207148 -1.508492 0.164926 255 255 0 45 14
1.168807 -1.529994 0.130925 255 255 0 45 14
1.155567 -1.505706 0.205952 255 255 0 45 14
1.196348 -1.535094 0.126926 255 255 0 45 14
1.209105 -1.476193 0.166925 255 255 0 45 14
1.142411 -1.513134 0.138925 255 255 0 45 14
1.210393 -1.478511 0.134925 255 255 0 45 14
1.150065 -1.521969 0.170925 255 255 0 45 14
1.155584 -1.481174 0.206926 255 255 0 45 14
1.209698 -1.496765 0.158925 255 255 0 45 14
1.216273 -1.489985 0.152925 255 255 0 45 14
1.206088 -1.471462 0.108926 255 255 0 45 14
1.159187 -1.498297 0.205932 255 255 0 45 14
1.205934 -1.514368 0.124925 255 255 0 45 14
1.217097 -1.504472 0.166925 255 255 0 45 14
1.216345 -1.489999 0.140926 255 255 0 45 14
1.176377 -1.503995 0.211484 255 255 0 45 14
1.206383 -1.483792 0.106925 255 255 0 45 14
1.170752 -1.530461 0.144925 255 255 0 45 14
1.205489 -1.528585 0.172926 255 255 0 45 14
1.215637 -1.511685 0.138925 255 255 0 45 14
1.209085 -1.475174 0.128926 255 255 0 45 14
1.146958 -1.517348 0.206926 255 255 0 45 14
1.198483 -1.525052 0.214981 255 255 0 45 14
1.198280 -1.468289 0.208925 255 255 0 45 14
1.191129 -1.537801 0.192926 255 255 0 45 14
1.191982 -1.526775 0.178926 255 255 0 45 14
1.158790 -1.535017 0.134925 255 255 0 45 14
1.193182 -1.525970 0.200926 255 255 0 45 14
1.203349 -1.530175 0.140926 255 255 0 45 14
1.201016 -1.532369 0.114926 255 255 0 45 14
1.189776 -1.504799 0.214926 255 255 0 45 14
1.154200 -1.531379 0.138925 255 255 0 45 14
1.159005 -1.528010 0.200926 255 255 0 45 14
1.180881 -1.539712 0.140926 255 255 0 45 14
1.189919 -1.536484 0.102925 255 255 0 45 14
1.159009 -1.527990 0.144925 255 255 0 45 14
1.165280 -1.536966 0.102925 255 255 0 45 14
1.145289 -1.519275 0.184205 255 255 0 45 14
1.180659 -1.474236 0.209957 255 255 0 45 14
1.216558 -1.507349 0.108926 255 255 0 45 14
1.199327 -1.472975 0.172926 255 255 0 45 14
1.186395 -1.538840 0.180925 255 255 0 45 14
1.151808 -1.475296 0.206926 255 255 0 45 14
1.177831 -1.530885 0.120925 255 255 0 45 14
1.189618 -1.465916 0.128926 255 255 0 45 14
1.194570 -1.524220 0.095966 255 255 0 45 14
1.164889 -1.529186 0.140926 255 255 0 45 14
1.177845 -1.485905 0.214926 255 255 0 45 14
1.167755 -1.486842 0.206926 255 255 0 45 14
1.189603 -1.465913 0.202926 255 255 0 45 14
1.140333 -1.500423 0.207928 255 255 0 45 14
1.194816 -1.503825 0.209965 255 255 0 45 14
1.177848 -1.530890 0.138925 255 255 0 45 14
1.183125 -1.529966 0.125914 255 255 0 45 14
1.155528 -1.525128 0.182926 255 255 0 45 14
1.200857 -1.475401 0.146926 255 255 0 45 14
1.205848 -1.471411 0.118926 255 255 0 45 14
1.186622 -1.532754 0.098243 255 255 0 45 14
1.160923 -1.535470 0.206926 255 255 0 45 14
1.157049 -1.527590 0.156925 255 255 0 45 14
1.170432 -1.517045 0.210926 255 255 0 45 14
1.157902 -1.533197 0.192926 255 255 0 45 14
1.152786 -1.523517 0.102925 255 255 0 45 14
1.213102 -1.517935 0.172926 255 255 0 45 14
1.203929 -1.480186 0.184925 255 255 0 45 14
1.179004 -1.530115 0.154926 255 255 0 45 14
1.211586 -1.521118 0.180925 255 255 0 45 14
1.189227 -1.520501 0.212925 255 255 0 45 14
1.209668 -1.496759 0.124925 255 255 0 45 14
1.208117 -1.494385 0.166925 255 255 0 45 14
1.203946 -1.480109 0.162925 255 255 0 45 14
1.195578 -1.524435 0.190925 255 255 0 45 14
1.147692 -1.524479 0.132926 255 255 0 45 14
1.155517 -1.525180 0.166925 255 255 0 45 14
1.200128 -1.474284 0.132926 255 255 0 45 14
1.200715 -1.519392 0.128926 255 255 0 45 14
1.190377 -1.466991 0.162925 255 255 0 45 14
1.209235 -1.476220 0.154926 255 255 0 45 14
1.189135 -1.463215 0.134925 255 255 0 45 14
1.163229 -1.536993 0.156925 255 255 0 45 14
1.169847 -1.525099 0.205988 255 255 0 45 14
1.196605 -1.471491 0.098926 255 255 0 45 14
1.178211 -1.514609 0.211214 255 255 0 45 14
1.204181 -1.507861 0.209991 255 255 0 45 14
1.157694 -1.524560 0.208031 255 255 0 45 14
1.143476 -1.514487 0.194925 255 255 0 45 14
1.151411 -1.510957 0.212925 255 255 0 45 14
1.212668 -1.499441 0.214926 255 255 0 45 14
1.160467 -1.502658 0.210926 255 255 0 45 14
1.214119 -1.509201 0.210926 255 255 0 45 14
1.212421 -1.507568 0.098536 255 255 0 45 14
1.201559 -1.531839 0.198925 255 255 0 45 14
1.144223 -1.486938 0.206926 255 255 0 45 14
1.214193 -1.483408 0.178926 255 255 0 45 14
1.150057 -1.522007 0.190925 255 255 0 45 14
1.157812 -1.533624 0.170925 255 255 0 45 14
1.176792 -1.530902 0.214926 255 255 0 45 14
1.178890 -1.540274 0.196926 255 255 0 45 14
1.209995 -1.478426 0.172926 255 255 0 45 14
1.187177 -1.462806 0.166925 255 255 0 45 14
1.201473 -1.520602 0.148925 255 255 0 45 14
1.201473 -1.520602 0.102925 255 255 0 45 14
1.208427 -1.497504 0.192926 255 255 0 45 14
1.194116 -1.535976 0.200926 255 255 0 45 14
1.185431 -1.538355 0.206926 255 255 0 45 14
1.217067 -1.498332 0.140926 255 255 0 45 14
1.194348 -1.467547 0.146926 255 255 0 45 14
1.188893 -1.464355 0.116925 255 255 0 45 14
1.206064 -1.527863 0.130925 255 255 0 45 14
1.194112 -1.535995 0.160926 255 255 0 45 14
1.202224 -1.468970 0.202926 255 255 0 45 14
1.169122 -1.538130 0.186926 255 255 0 45 14
1.157987 -1.532801 0.103332 255 255 0 45 14
1.214121 -1.516108 0.148925 255 255 0 45 14
1.214478 -1.514139 0.202926 255 255 0 45 14
1.213207 -1.517958 0.132926 255 255 0 45 14
1.163289 -1.536715 0.198925 255 255 0 45 14
1.181001 -1.539961 0.106925 255 255 0 45 14
1.161321 -1.536351 0.148925 255 255 0 45 14
1.209702 -1.523347 0.142926 255 255 0 45 14
1.203945 -1.528213 0.210926 255 255 0 45 14
1.151654 -1.504874 0.211031 255 255 0 45 14
1.166842 -1.481523 0.214974 255 255 0 45 14
1.217051 -1.504462 0.152925 255 255 0 45 14
1.172941 -1.539403 0.160926 255 255 0 45 14
1.176966 -1.539705 0.176925 255 255 0 45 14
1.169153 -1.537984 0.142926 255 255 0 45 14
1.157900 -1.533206 0.128926 255 255 0 45 14
1.172964 -1.539295 0.206926 255 255 0 45 14
1.158062 -1.493968 0.211260 255 255 0 45 14
1.209634 -1.511065 0.215159 255 255 0 45 14
1.198923 -1.532600 0.208925 255 255 0 45 14
1.216133 -1.510401 0.124925 255 255 0 45 14
1.208386 -1.502620 0.102925 255 255 0 45 14
1.170748 -1.530480 0.200926 255 255 0 45 14
1.162930 -1.528779 0.108926 255 255 0 45 14
1.207951 -1.504572 0.116925 255 255 0 45 14
1.196479 -1.496000 0.209979 255 255 0 45 14
1.203506 -1.515896 0.176925 255 255 0 45 14
1.166845 -1.529603 0.154926 255 255 0 45 14
1.203506 -1.515896 0.114926 255 255 0 45 14
1.143484 -1.514457 0.110925 255 255 0 45 14
1.206732 -1.510448 0.176925 255 255 0 45 14
1.176616 -1.531731 0.188926 255 255 0 45 14
1.180942 -1.530619 0.196926 255 255 0 45 14
1.180954 -1.530562 0.174926 255 255 0 45 14
1.153550 -1.524817 0.176925 255 255 0 45 14
1.180933 -1.501802 0.206926 255 255 0 45 14
1.215109 -1.485307 0.164926 255 255 0 45 14
1.191858 -1.536978 0.122926 255 255 0 45 14
1.215117 -1.485265 0.156925 255 255 0 45 14
1.208731 -1.524934 0.168926 255 255 0 45 14
1.215141 -1.485159 0.144925 255 255 0 45 14
1.192314 -1.467497 0.178926 255 255 0 45 14
1.204682 -1.515124 0.102925 255 255 0 45 14
1.199966 -1.523323 0.166925 255 255 0 45 14
1.194715 -1.465817 0.140926 255 255 0 45 14
1.206024 -1.528050 0.116925 255 255 0 45 14
1.204771 -1.481405 0.196926 255 255 0 45 14
1.144509 -1.519253 0.106925 255 255 0 45 14
1.215824 -1.491933 0.188926 255 255 0 45 14
1.147336 -1.520314 0.120925 255 255 0 45 14
1.144954 -1.507540 0.208031 255 255 0 45 14
1.196599 -1.471489 0.192926 255 255 0 45 14
1.168392 -1.506387 0.210926 255 255 0 45 14
1.185283 -1.529432 0.110925 255 255 0 45 14
1.170216 -1.494507 0.211197 255 255 0 45 14
1.179950 -1.467950 0.209962 255 255 0 45 14
1.197922 -1.522888 0.142926 255 255 0 45 14
1.205024 -1.471236 0.166925 255 255 0 45 14
1.197299 -1.477772 0.208925 255 255 0 45 14
1.202388 -1.477820 0.104926 255 255 0 45 14
1.181000 -1.463010 0.196926 255 255 0 45 14
1.203970 -1.470375 0.190925 255 255 0 45 14
1.141666 -1.513382 0.178926 255 255 0 45 14
1.143973 -1.517554 0.128926 255 255 0 45 14
1.206274 -1.473547 0.142926 255 255 0 45 14
1.215523 -1.512316 0.186926 255 255 0 45 14
1.202641 -1.505488 0.215420 255 255 0 45 14
1.215281 -1.512265 0.162925 255 255 0 45 14
1.198122 -1.473858 0.180925 255 255 0 45 14
1.215920 -1.491954 0.166925 255 255 0 45 14
1.151484 -1.486436 0.208278 255 255 0 45 14
1.186305 -1.538820 0.114926 255 255 0 45 14
1.140748 -1.498467 0.214099 255 255 0 45 14
1.217281 -1.496332 0.194925 255 255 0 45 14
1.164592 -1.472866 0.209939 255 255 0 45 14
1.156169 -1.522109 0.214926 255 255 0 45 14
1.184899 -1.507851 0.210926 255 255 0 45 14
1.201024 -1.532336 0.190925 255 255 0 45 14
1.208146 -1.489207 0.170925 255 255 0 45 14
1.200440 -1.467742 0.134925 255 255 0 45 14
1.172158 -1.475749 0.214926 255 255 0 45 14
1.203041 -1.489216 0.208925 255 255 0 45 14
1.216743 -1.496856 0.128926 255 255 0 45 14
1.209637 -1.506976 0.110925 255 255 0 45 14
1.211263 -1.521635 0.158925 255 255 0 45 14
1.199729 -1.519183 0.214275 255 255 0 45 14
1.149868 -1.522897 0.215209 255 255 0 45 14
1.174655 -1.531332 0.108926 255 255 0 45 14
1.186863 -1.498046 0.210926 255 255 0 45 14
1.185651 -1.538682 0.126926 255 255 0 45 14
1.501328 -1.440161 0.128926 0 255 0 74 15
1.329622 -1.302488 0.098926 0 255 0 74 15
1.336424 -1.462877 0.144925 0 255 0 74 15
1.495979 -1.299016 0.096925 0 255 0 74 15
1.418443 -1.457304 0.124925 0 255 0 74 15
1.333599 -1.379973 0.131316 0 255 0 74 15
1.502454 -1.364748 0.131775 0 255 0 74 15
1.367450 -1.456688 0.094926 0 255 0 74 15
1.461268 -1.462317 0.161277 0 255 0 74 15
1.463641 -1.460776 0.094003 0 255 0 74 15
1.384017 -1.460210 0.161197 0 255 0 74 15
1.336870 -1.333642 0.132926 0 255 0 74 15
1.330319 -1.424259 0.126033 0 255 0 74 15
1.501991 -1.323755 0.128926 0 255 0 74 15
1.495585 -1.402137 0.124925 0 255 0 74 15
1.367448 -1.451593 0.130925 0 255 0 74 15
1.333447 -1.457639 0.109998 0 255 0 74 15
1.453346 -1.451490 0.126926 0 255 0 74 15
1.492606 -1.460799 0.152925 0 255 0 74 15
1.492016 -1.461951 0.108926 0 255 0 74 15
1.397419 -1.454879 0.102027 0 255 0 74 15
1.433880 -1.456495 0.150433 0 255 0 74 15
1.435837 -1.456912 0.101965 0 255 0 74 15
1.394129 -1.451123 0.136926 0 255 0 74 15
1.358988 -1.452918 0.156925 0 255 0 74 15
1.477788 -1.461549 0.130925 0 255 0 74 15
1.329396 -1.356589 0.126926 0 255 0 74 15
1.333961 -1.316665 0.116925 0 255 0 74 15
1.334894 -1.402740 0.131400 0 255 0 74 15
1.379623 -1.461648 0.114926 0 255 0 74 15
1.355150 -1.461354 0.114926 0 255 0 74 15
1.500125 -1.462279 0.130925 0 255 0 74 15
1.495485 -1.344864 0.124925 0 255 0 74 15
1.335943 -1.445901 0.130708 0 255 0 74 15
1.470617 -1.452036 0.112926 0 255 0 74 15
1.498740 -1.314887 0.110219 0 255 0 74 15
1.473740 -1.451742 0.148925 0 255 0 74 15
1.502964 -1.420063 0.131280 0 255 0 74 15
1.453344 -1.451500 0.146926 0 255 0 74 15
1.502209 -1.385142 0.132182 0 255 0 74 15
1.436925 -1.461405 0.130925 0 255 0 74 15
1.398128 -1.461164 0.120347 0 255 0 74 15
1.401523 -1.461886 0.150926 0 255 0 74 15
1.379674 -1.461403 0.142926 0 255 0 74 15
1.453340 -1.461138 0.110925 0 255 0 74 15
1.347142 -1.460550 0.097952 0 255 0 74 15
1.351140 -1.460980 0.132926 0 255 0 74 15
1.479414 -1.453907 0.098019 0 255 0 74 15
1.488276 -1.450686 0.138925 0 255 0 74 15
1.488070 -1.451656 0.121935 0 255 0 74 15
1.332537 -1.461926 0.126926 0 255 0 74 15
1.440058 -1.451674 0.116925 0 255 0 74 15
1.463505 -1.461415 0.138925 0 255 0 74 15
1.382383 -1.461907 0.098926 0 255 0 74 15
1.427083 -1.449997 0.136926 0 255 0 74 15
1.367445 -1.451609 0.110925 0 255 0 74 15
1.406203 -1.461657 0.134925 0 255 0 74 15
1.363345 -1.461277 0.142926 0 255 0 74 15
1.347053 -1.451349 0.144925 0 255 0 74 15
1.373734 -1.450872 0.152925 0 255 0 74 15
1.423891 -1.460506 0.110925 0 255 0 74 15
1.477750 -1.461731 0.159800 0 255 0 74 15
1.383929 -1.451012 0.124925 0 255 0 74 15
1.449786 -1.453743 0.096925 0 255 0 74 15
1.446464 -1.461215 0.158925 0 255 0 74 15
1.390628 -1.448353 0.154926 0 255 0 74 15
1.467881 -1.450444 0.128926 0 255 0 74 15
1.344654 -1.453015 0.120925 0 255 0 74 15
1.501765 -1.454567 0.118002 0 255 0 74 15
1.369493 -1.461211 0.162171 0 255 0 74 15
1.406492 -1.450675 0.143893 0 255 0 74 15
1.408474 -1.455184 0.112926 0 255 0 74 15
1.495094 -1.375452 0.124925 0 255 0 74 15
1.463567 -1.461122 0.120925 0 255 0 74 15
1.441201 -1.450913 0.138925 0 255 0 74 15
1.348897 -1.461914 0.154926 0 255 0 74 15
1.367428 -1.461305 0.120925 0 255 0 74 15
1.355296 -1.451048 0.102925 0 255 0 74 15
1.479928 -1.461104 0.116925 0 255 0 74 15
1.389786 -1.452316 0.112926 0 255 0 74 15
1.500473 -1.454293 0.142926 0 255 0 74 15
1.461596 -1.451154 0.102925 0 255 0 74 15
1.449214 -1.461310 0.136926 0 255 0 74 15
1.404324 -1.451254 0.126926 0 255 0 74 15
1.481916 -1.461366 0.144925 0 255 0 74 15
1.389827 -1.461740 0.130925 0 255 0 74 15
1.336510 -1.366279 0.131550 0 255 0 74 15
1.335486 -1.345615 0.128926 0 255 0 74 15
1.375605 -1.461312 0.130925 0 255 0 74 15
1.500451 -1.335696 0.132568 0 255 0 74 15
1.357046 -1.452432 0.123936 0 255 0 74 15
1.330990 -1.391687 0.126926 0 255 0 74 15
1.471635 -1.461647 0.104926 0 255 0 74 15
1.495228 -1.427605 0.124925 0 255 0 74 15
1.336543 -1.309035 0.106925 0 255 0 74 15
1.495877 -1.357215 0.123941 0 255 0 74 15
1.447146 -1.461418 0.122926 0 255 0 74 15
1.430564 -1.452857 0.124925 0 255 0 74 15
1.335666 -1.322152 0.128926 0 255 0 74 15
1.362693 -1.461812 0.104926 0 255 0 74 15
1.428624 -1.461987 0.140926 0 255 0 74 15
1.336481 -1.433748 0.131038 0 255 0 74 15
1.488276 -1.450689 0.106925 0 255 0 74 15
1.344675 -1.452916 0.108926 0 255 0 74 15
1.336311 -1.415309 0.131312 0 255 0 74 15
1.461596 -1.451158 0.156925 0 255 0 74 15
1.391973 -1.461262 0.142926 0 255 0 74 15
1.377635 -1.451760 0.102925 0 255 0 74 15
1.443368 -1.450334 0.153912 0 255 0 74 15
1.357251 -1.451468 0.138925 0 255 0 74 15
1.495014 -1.414283 0.124925 0 255 0 74 15
1.434628 -1.462597 0.114926 0 255 0 74 15
1.496212 -1.322527 0.118926 0 255 0 74 15
1.503213 -1.351552 0.130925 0 255 0 74 15
1.375688 -1.451305 0.138925 0 255 0 74 15
1.459641 -1.450731 0.136926 0 255 0 74 15
1.385889 -1.451410 0.144925 0 255 0 74 15
1.466090 -1.461298 0.150926 0 255 0 74 15
1.486077 -1.451415 0.152925 0 255 0 74 15
1.331694 -1.456268 0.136926 0 255 0 74 15
1.492073 -1.461686 0.138925 0 255 0 74 15
1.492491 -1.329916 0.126926 0 255 0 74 15
1.475687 -1.452199 0.136926 0 255 0 74 15
1.371423 -1.461751 0.150926 0 255 0 74 15
1.502913 -1.305551 0.102925 0 255 0 74 15
1.498467 -1.450836 0.130925 0 255 0 74 15
1.342683 -1.462290 0.114926 0 255 0 74 15
1.503163 -1.407836 0.130925 0 255 0 74 15
1.445108 -1.451767 0.106925 0 255 0 74 15
1.344893 -1.451893 0.133932 0 255 0 74 15
1.459208 -1.452768 0.114926 0 255 0 74 15
1.488045 -1.461396 0.126926 0 255 0 74 15
1.443108 -1.461181 0.146926 0 255 0 74 15
1.390284 -1.461541 0.106925 0 255 0 74 15
1.476902 -1.451327 0.122926 0 255 0 74 15
1.373528 -1.451846 0.121929 0 255 0 74 15
1.455348 -1.461309 0.150926 0 255 0 74 15
1.373515 -1.461526 0.104926 0 255 0 74 15
1.363320 -1.461393 0.130925 0 255 0 74 15
1.502306 -1.394301 0.126926 0 255 0 74 15
1.356215 -1.456344 0.093939 0 255 0 74 15
1.408201 -1.461873 0.122926 0 255 0 74 15
1.353132 -1.461228 0.144925 0 255 0 74 15
1.394130 -1.451118 0.122926 0 255 0 74 15
1.495924 -1.385851 0.123944 0 255 0 74 15
1.340832 -1.461380 0.134925 0 255 0 74 15
1.333355 -1.453530 0.120925 0 255 0 74 15
1.430579 -1.452786 0.112926 0 255 0 74 15
1.445104 -1.461407 0.102925 0 255 0 74 15
1.457355 -1.461485 0.129157 0 255 0 74 15
1.396898 -1.452724 0.146926 0 255 0 74 15
1.389786 -1.461936 0.152925 0 255 0 74 15
1.426541 -1.462167 0.130925 0 255 0 74 15
1.367441 -1.451624 0.144925 0 255 0 74 15
1.481817 -1.461840 0.106925 0 255 0 74 15
1.387925 -1.461072 0.120925 0 255 0 74 15
1.455317 -1.461459 0.100926 0 255 0 74 15
1.463547 -1.451598 0.146926 0 255 0 74 15
1.357249 -1.451478 0.112926 0 255 0 74 15
1.443156 -1.451334 0.128926 0 255 0 74 15
1.502841 -1.430260 0.131243 0 255 0 74 15
1.400571 -1.461683 0.108926 0 255 0 74 15
1.471173 -1.454199 0.158450 0 255 0 74 15
1.387837 -1.451859 0.102925 0 255 0 74 15
1.426664 -1.461586 0.120925 0 255 0 74 15
1.469409 -1.452874 0.096925 0 255 0 74 15
1.463562 -1.461146 0.110925 0 255 0 74 15
1.377636 -1.451752 0.112926 0 255 0 74 15
1.410185 -1.452541 0.134925 0 255 0 74 15
1.329365 -1.438369 0.125996 0 255 0 74 15
1.330593 -1.336396 0.125932 0 255 0 74 15
1.358956 -1.462687 0.156925 0 255 0 74 15
1.494306 -1.460798 0.118926 0 255 0 74 15
1.342318 -1.461569 0.124925 0 255 0 74 15
1.384738 -1.452184 0.134925 0 255 0 74 15
1.340661 -1.462183 0.104926 0 255 0 74 15
1.502519 -1.374985 0.130925 0 255 0 74 15
1.480035 -1.450984 0.112926 0 255 0 74 15
1.351800 -1.448250 0.152925 0 255 0 74 15
1.381769 -1.451553 0.157851 0 255 0 74 15
1.408326 -1.461287 0.144121 0 255 0 74 15
1.341689 -1.457346 0.150383 0 255 0 74 15
1.450241 -1.451794 0.136926 0 255 0 74 15
1.452734 -1.454370 0.158520 0 255 0 74 15
1.450231 -1.451792 0.116925 0 255 0 74 15
1.496834 -1.453519 0.108926 0 255 0 74 15
1.352961 -1.462033 0.104926 0 255 0 74 15
1.483934 -1.451876 0.130925 0 255 0 74 15
1.473838 -1.460899 0.096042 0 255 0 74 15
1.399983 -1.452434 0.114926 0 255 0 74 15
1.329809 -1.368944 0.125938 0 255 0 74 15
1.473730 -1.461410 0.140926 0 255 0 74 15
1.433366 -1.449297 0.144925 0 255 0 74 15
1.336632 -1.356082 0.132293 0 255 0 74 15
1.329734 -1.407777 0.126020 0 255 0 74 15
1.494100 -1.452147 0.148925 0 255 0 74 15
1.467593 -1.461421 0.130925 0 255 0 74 15
1.371548 -1.461163 0.138925 0 255 0 74 15
1.351134 -1.461008 0.122926 0 255 0 74 15
1.498126 -1.365872 0.123949 0 255 0 74 15
1.338377 -1.453687 0.142926 0 255 0 74 15
1.444638 -1.460826 0.112926 0 255 0 74 15
1.416626 -1.460711 0.132926 0 255 0 74 15
1.475437 -1.461239 0.150926 0 255 0 74 15
1.494338 -1.436631 0.124925 0 255 0 74 15
1.434903 -1.451686 0.132926 0 255 0 74 15
1.481982 -1.451442 0.144925 0 255 0 74 15
1.398750 -1.461297 0.128926 0 255 0 74 15
1.473747 -1.451709 0.104926 0 255 0 74 15
1.364321 -1.451933 0.102925 0 255 0 74 15
1.376002 -1.454416 0.094926 0 255 0 74 15
1.473823 -1.460971 0.122926 0 255 0 74 15
1.379722 -1.461186 0.152925 0 255 0 74 15
1.438898 -1.461747 0.154926 0 255 0 74 15
1.365046 -1.453272 0.118926 0 255 0 74 15
1.410940 -1.453664 0.120925 0 255 0 74 15
1.465496 -1.452047 0.120925 0 255 0 74 15
1.498097 -1.462199 0.144925 0 255 0 74 15
1.453352 -1.451460 0.104926 0 255 0 74 15
1.459222 -1.452704 0.094926 0 255 0 74 15
1.502970 -1.317831 0.116925 0 255 0 74 15
