ply
format ascii 1.0
element vertex 1111
property float x
property float y
property float z
property uchar red
property uchar green
property uchar blue
property uchar semantic_label
property uchar instance_label
end_header
-0.264202 -0.248956 0.010111 0 255 0 54 15
-0.368945 -0.321490 0.017046 0 255 0 54 15
-0.208257 -0.267277 0.050110 0 255 0 54 15
-0.216954 -0.325835 0.016651 0 255 0 54 15
-0.218271 -0.098277 0.196111 0 255 0 54 15
-0.311564 -0.242020 0.009173 0 255 0 54 15
-0.341284 -0.294753 0.009131 0 255 0 54 15
-0.240830 -0.094980 0.016241 0 255 0 54 15
-0.206491 -0.313685 0.068110 0 255 0 54 15
-0.215493 -0.149133 0.118111 0 255 0 54 15
-0.200608 -0.227964 0.108111 0 255 0 54 15
-0.386916 -0.132648 0.005339 0 255 0 54 15
-0.214706 -0.164750 0.134110 0 255 0 54 15
-0.219338 -0.319030 0.001228 0 255 0 54 15
-0.201658 -0.239071 0.028110 0 255 0 54 15
-0.358808 -0.261512 0.016422 0 255 0 54 15
-0.304410 -0.262436 0.009162 0 255 0 54 15
-0.341685 -0.119151 0.009154 0 255 0 54 15
-0.197071 -0.283219 0.158111 0 255 0 54 15
-0.199989 -0.253474 0.183648 0 255 0 54 15
-0.195596 -0.314107 0.040110 0 255 0 54 15
-0.209935 -0.253491 0.028110 0 255 0 54 15
-0.261130 -0.229938 0.010111 0 255 0 54 15
-0.202585 -0.203744 0.038111 0 255 0 54 15
-0.208607 -0.109244 0.082110 0 255 0 54 15
-0.383221 -0.174271 0.004110 0 255 0 54 15
-0.215758 -0.151436 0.001223 0 255 0 54 15
-0.199170 -0.269000 0.194111 0 255 0 54 15
-0.197480 -0.280053 0.174110 0 255 0 54 15
-0.215846 -0.148866 0.180110 0 255 0 54 15
-0.237582 -0.250187 0.016930 0 255 0 54 15
-0.259755 -0.326138 0.003423 0 255 0 54 15
-0.206548 -0.306129 0.162110 0 255 0 54 15
-0.341617 -0.089150 0.014877 0 255 0 54 15
-0.212007 -0.211861 0.144111 0 255 0 54 15
-0.377749 -0.147069 0.017186 0 255 0 54 15
-0.204444 -0.169656 0.058111 0 255 0 54 15
-0.211636 -0.287269 0.002111 0 255 0 54 15
-0.370867 -0.287485 0.016450 0 255 0 54 15
-0.202022 -0.196352 0.164111 0 255 0 54 15
-0.197498 -0.290046 0.080111 0 255 0 54 15
-0.213258 -0.184676 0.106110 0 255 0 54 15
-0.341980 -0.249151 0.016413 0 255 0 54 15
-0.208068 -0.320690 0.192110 0 255 0 54 15
-0.216817 -0.120587 0.058111 0 255 0 54 15
-0.209710 -0.306250 0.016335 0 255 0 54 15
-0.295712 -0.131255 0.017046 0 255 0 54 15
-0.241865 -0.275810 0.016111 0 255 0 54 15
-0.200165 -0.250836 0.098111 0 255 0 54 15
-0.196750 -0.295700 0.040110 0 255 0 54 15
-0.325939 -0.231187 0.009142 0 255 0 54 15
-0.316704 -0.215608 0.009155 0 255 0 54 15
-0.202119 -0.196479 0.082110 0 255 0 54 15
-0.206529 -0.313657 0.140111 0 255 0 54 15
-0.389436 -0.185842 0.016723 0 255 0 54 15
-0.208194 -0.271007 0.140111 0 255 0 54 15
-0.202502 -0.203634 0.058111 0 255 0 54 15
-0.197876 -0.277255 0.038111 0 255 0 54 15
-0.207549 -0.107538 0.108111 0 255 0 54 15
-0.209477 -0.246324 0.054110 0 255 0 54 15
-0.203317 -0.178130 0.160111 0 255 0 54 15
-0.205145 -0.144409 0.130110 0 255 0 54 15
-0.197069 -0.313272 0.056110 0 255 0 54 15
-0.215993 -0.078637 0.013099 0 255 0 54 15
-0.340618 -0.177553 0.009222 0 255 0 54 15
-0.209072 -0.278820 0.022110 0 255 0 54 15
-0.214005 -0.165279 0.112111 0 255 0 54 15
-0.213704 -0.183036 0.052111 0 255 0 54 15
-0.323464 -0.197993 0.009135 0 255 0 54 15
-0.378349 -0.279342 0.004110 0 255 0 54 15
-0.394153 -0.105696 0.016111 0 255 0 54 15
-0.204791 -0.147179 0.066111 0 255 0 54 15
-0.311685 -0.119219 0.015865 0 255 0 54 15
-0.331609 -0.261974 0.016640 0 255 0 54 15
-0.198941 -0.259272 0.116110 0 255 0 54 15
-0.376166 -0.331074 0.003132 0 255 0 54 15
-0.306431 -0.095631 0.016896 0 255 0 54 15
-0.380428 -0.270263 0.016669 0 255 0 54 15
-0.306143 -0.321233 0.001142 0 255 0 54 15
-0.374962 -0.193222 0.016111 0 255 0 54 15
-0.214365 -0.180033 0.182110 0 255 0 54 15
-0.209002 -0.082652 0.038111 0 255 0 54 15
-0.343509 -0.217947 0.015798 0 255 0 54 15
-0.196416 -0.298580 0.130110 0 255 0 54 15
-0.283578 -0.248083 0.016409 0 255 0 54 15
-0.207460 -0.293295 0.056110 0 255 0 54 15
-0.205187 -0.154026 0.092110 0 255 0 54 15
-0.300148 -0.323246 0.016512 0 255 0 54 15
-0.206356 -0.238659 0.010648 0 255 0 54 15
-0.198647 -0.261661 0.074110 0 255 0 54 15
-0.201496 -0.212269 0.160821 0 255 0 54 15
-0.369839 -0.096694 0.010111 0 255 0 54 15
-0.208726 -0.285006 0.112111 0 255 0 54 15
-0.212961 -0.191108 0.024111 0 255 0 54 15
-0.247160 -0.146583 0.010111 0 255 0 54 15
-0.349641 -0.275934 0.009146 0 255 0 54 15
-0.212877 -0.196180 0.144111 0 255 0 54 15
-0.257007 -0.172943 0.016971 0 255 0 54 15
-0.326848 -0.102784 0.016512 0 255 0 54 15
-0.325682 -0.293988 0.009191 0 255 0 54 15
-0.302654 -0.193640 0.009132 0 255 0 54 15
-0.316242 -0.188409 0.016869 0 255 0 54 15
-0.216536 -0.180901 0.004110 0 255 0 54 15
-0.205534 -0.161646 0.038111 0 255 0 54 15
-0.241451 -0.192178 0.016642 0 255 0 54 15
-0.205593 -0.141566 0.100111 0 255 0 54 15
-0.201005 -0.215143 0.084111 0 255 0 54 15
-0.351147 -0.234729 0.009158 0 255 0 54 15
-0.211605 -0.229694 0.032110 0 255 0 54 15
-0.208111 -0.289926 0.152110 0 255 0 54 15
-0.201991 -0.206888 0.114110 0 255 0 54 15
-0.304062 -0.285237 0.009164 0 255 0 54 15
-0.387907 -0.217046 0.016820 0 255 0 54 15
-0.216421 -0.138416 0.044111 0 255 0 54 15
-0.204077 -0.172760 0.082110 0 255 0 54 15
-0.206016 -0.128727 0.074110 0 255 0 54 15
-0.197493 -0.290040 0.096110 0 255 0 54 15
-0.195334 -0.317084 0.158353 0 255 0 54 15
-0.216325 -0.135984 0.196111 0 255 0 54 15
-0.207794 -0.167454 0.011874 0 255 0 54 15
-0.274487 -0.119703 0.015821 0 255 0 54 15
-0.207313 -0.320578 0.090111 0 255 0 54 15
-0.220550 -0.147826 0.016458 0 255 0 54 15
-0.284501 -0.302481 0.007118 0 255 0 54 15
-0.208907 -0.129052 0.011671 0 255 0 54 15
-0.262139 -0.319332 0.016329 0 255 0 54 15
-0.196417 -0.308755 0.194111 0 255 0 54 15
-0.208959 -0.269252 0.122111 0 255 0 54 15
-0.200212 -0.230767 0.074110 0 255 0 54 15
-0.209259 -0.266523 0.084111 0 255 0 54 15
-0.304403 -0.217365 0.016111 0 255 0 54 15
-0.217658 -0.107433 0.092684 0 255 0 54 15
-0.316569 -0.253274 0.016111 0 255 0 54 15
-0.204511 -0.159913 0.166110 0 255 0 54 15
-0.203985 -0.172830 0.130110 0 255 0 54 15
-0.348505 -0.304335 0.016845 0 255 0 54 15
-0.196561 -0.326176 0.048111 0 255 0 54 15
-0.229293 -0.299006 0.009191 0 255 0 54 15
-0.355084 -0.206720 0.009228 0 255 0 54 15
-0.215387 -0.164237 0.189564 0 255 0 54 15
-0.209210 -0.086251 0.105105 0 255 0 54 15
-0.213071 -0.201043 0.183378 0 255 0 54 15
-0.205962 -0.128767 0.140111 0 255 0 54 15
-0.203619 -0.241673 0.194111 0 255 0 54 15
-0.327741 -0.319983 0.016450 0 255 0 54 15
-0.217124 -0.117851 0.142110 0 255 0 54 15
-0.214011 -0.188998 0.194111 0 255 0 54 15
-0.311799 -0.169219 0.016871 0 255 0 54 15
-0.208609 -0.108716 0.024111 0 255 0 54 15
-0.297312 -0.173257 0.016111 0 255 0 54 15
-0.205950 -0.128776 0.160111 0 255 0 54 15
-0.194735 -0.316288 0.010111 0 255 0 54 15
-0.266398 -0.281063 0.016111 0 255 0 54 15
-0.301341 -0.308212 0.016111 0 255 0 54 15
-0.212431 -0.203519 0.158111 0 255 0 54 15
-0.209875 -0.253536 0.174110 0 255 0 54 15
-0.217148 -0.106755 0.126111 0 255 0 54 15
-0.209295 -0.286529 0.184111 0 255 0 54 15
-0.217143 -0.233034 0.016978 0 255 0 54 15
-0.210100 -0.236981 0.088110 0 255 0 54 15
-0.353245 -0.102927 0.010111 0 255 0 54 15
-0.203712 -0.185300 0.096110 0 255 0 54 15
-0.286939 -0.142875 0.011210 0 255 0 54 15
-0.210570 -0.242996 0.146111 0 255 0 54 15
-0.355387 -0.163919 0.009119 0 255 0 54 15
-0.196771 -0.305983 0.082110 0 255 0 54 15
-0.213471 -0.185715 0.072111 0 255 0 54 15
-0.248468 -0.111763 0.011278 0 255 0 54 15
-0.195607 -0.314373 0.132111 0 255 0 54 15
-0.211623 -0.215739 0.196111 0 255 0 54 15
-0.208227 -0.088271 0.182110 0 255 0 54 15
-0.210036 -0.085629 0.024111 0 255 0 54 15
-0.367975 -0.247092 0.009158 0 255 0 54 15
-0.200613 -0.217943 0.148110 0 255 0 54 15
-0.379784 -0.163064 0.017059 0 255 0 54 15
-0.381935 -0.229060 0.003221 0 255 0 54 15
-0.212736 -0.198791 0.112111 0 255 0 54 15
-0.207143 -0.100331 0.158111 0 255 0 54 15
-0.225500 -0.214215 0.009146 0 255 0 54 15
-0.325243 -0.276789 0.009186 0 255 0 54 15
-0.209785 -0.253179 0.068110 0 255 0 54 15
-0.237007 -0.172988 0.011228 0 255 0 54 15
-0.215771 -0.138162 0.160111 0 255 0 54 15
-0.311341 -0.147025 0.010111 0 255 0 54 15
-0.196663 -0.296048 0.162110 0 255 0 54 15
-0.268513 -0.131718 0.015918 0 255 0 54 15
-0.213874 -0.180403 0.138110 0 255 0 54 15
-0.211448 -0.218829 0.092110 0 255 0 54 15
-0.204854 -0.157150 0.146111 0 255 0 54 15
-0.206337 -0.125642 0.108111 0 255 0 54 15
-0.219010 -0.122519 0.004110 0 255 0 54 15
-0.214107 -0.172715 0.154111 0 255 0 54 15
-0.218880 -0.091486 0.092110 0 255 0 54 15
-0.216984 -0.107940 0.066111 0 255 0 54 15
-0.370315 -0.220286 0.009132 0 255 0 54 15
-0.196649 -0.326110 0.168111 0 255 0 54 15
-0.208678 -0.099174 0.046110 0 255 0 54 15
-0.209605 -0.201151 0.010111 0 255 0 54 15
-0.205124 -0.153941 0.110110 0 255 0 54 15
-0.290807 -0.084866 0.014856 0 255 0 54 15
-0.211861 -0.196115 0.094111 0 255 0 54 15
-0.248695 -0.211763 0.016079 0 255 0 54 15
-0.217220 -0.090233 0.003410 0 255 0 54 15
-0.199518 -0.246315 0.170110 0 255 0 54 15
-0.384583 -0.315657 0.012111 0 255 0 54 15
-0.207812 -0.124275 0.180110 0 255 0 54 15
-0.249687 -0.296160 0.009174 0 255 0 54 15
-0.200549 -0.217660 0.174110 0 255 0 54 15
-0.280640 -0.187690 0.009136 0 255 0 54 15
-0.197492 -0.280069 0.068110 0 255 0 54 15
-0.206953 -0.325857 0.112362 0 255 0 54 15
-0.298279 -0.204449 0.016646 0 255 0 54 15
-0.218164 -0.091488 0.156110 0 255 0 54 15
-0.207473 -0.300423 0.074110 0 255 0 54 15
-0.329785 -0.163178 0.016611 0 255 0 54 15
-0.219137 -0.089455 0.124110 0 255 0 54 15
-0.202861 -0.190817 0.050110 0 255 0 54 15
-0.347446 -0.189938 0.009183 0 255 0 54 15
-0.206756 -0.123161 0.122111 0 255 0 54 15
-0.211045 -0.225107 0.062111 0 255 0 54 15
-0.210911 -0.235226 0.158111 0 255 0 54 15
-0.207565 -0.117302 0.040110 0 255 0 54 15
-0.197860 -0.277616 0.128110 0 255 0 54 15
-0.196649 -0.325476 0.148110 0 255 0 54 15
-0.204297 -0.212663 0.014481 0 255 0 54 15
-0.265062 -0.196925 0.009119 0 255 0 54 15
-0.207995 -0.104580 0.140111 0 255 0 54 15
-0.215884 -0.156351 0.044111 0 255 0 54 15
-0.212328 -0.226645 0.044657 0 255 0 54 15
-0.261216 -0.264934 0.009187 0 255 0 54 15
-0.217221 -0.120283 0.160111 0 255 0 54 15
-0.207828 -0.315181 0.030111 0 255 0 54 15
-0.383186 -0.253984 0.006111 0 255 0 54 15
-0.197468 -0.270399 0.148110 0 255 0 54 15
-0.274561 -0.172975 0.016111 0 255 0 54 15
-0.207404 -0.297971 0.118111 0 255 0 54 15
-0.202488 -0.296668 0.196250 0 255 0 54 15
-0.203620 -0.175609 0.174110 0 255 0 54 15
-0.377657 -0.107069 0.017029 0 255 0 54 15
-0.382103 -0.202697 0.004110 0 255 0 54 15
-0.359732 -0.315910 0.009165 0 255 0 54 15
-0.279626 -0.093292 0.016251 0 255 0 54 15
-0.196294 -0.308387 0.118111 0 255 0 54 15
-0.228256 -0.194608 0.009123 0 255 0 54 15
-0.218593 -0.091703 0.058111 0 255 0 54 15
-0.392357 -0.156487 0.014110 0 255 0 54 15
-0.328718 -0.221580 0.017107 0 255 0 54 15
-0.317301 -0.302806 0.016694 0 255 0 54 15
-0.211258 -0.108910 0.196111 0 255 0 54 15
-0.263653 -0.105328 0.015958 0 255 0 54 15
-0.290057 -0.283269 0.009156 0 255 0 54 15
-0.206339 -0.303783 0.100111 0 255 0 54 15
-0.209026 -0.272111 0.108111 0 255 0 54 15
-0.205847 -0.321066 0.126111 0 255 0 54 15
-0.394639 -0.275828 0.012111 0 255 0 54 15
-0.202154 -0.206496 0.138110 0 255 0 54 15
-0.207530 -0.300381 0.176111 0 255 0 54 15
-0.274940 -0.319703 0.016769 0 255 0 54 15
-0.208900 -0.089164 0.072111 0 255 0 54 15
-0.340126 -0.313155 0.009114 0 255 0 54 15
-0.285273 -0.114079 0.011274 0 255 0 54 15
-0.245318 -0.134170 0.016988 0 255 0 54 15
-0.222472 -0.113822 0.016794 0 255 0 54 15
-0.207211 -0.282996 0.084111 0 255 0 54 15
-0.382487 -0.296258 0.016632 0 255 0 54 15
-0.197486 -0.290030 0.118111 0 255 0 54 15
-0.363002 -0.170703 0.016534 0 255 0 54 15
-0.216070 -0.135234 0.078110 0 255 0 54 15
-0.219126 -0.096086 0.182110 0 255 0 54 15
-0.215883 -0.136317 0.020111 0 255 0 54 15
-0.377424 -0.242476 0.016111 0 255 0 54 15
-0.366636 -0.185495 0.009137 0 255 0 54 15
-0.366544 -0.145495 0.009159 0 255 0 54 15
-0.206024 -0.138520 0.054110 0 255 0 54 15
-0.199800 -0.243600 0.044111 0 255 0 54 15
-0.210155 -0.260838 0.186111 0 255 0 54 15
-0.200895 -0.234736 0.182110 0 255 0 54 15
-0.217310 -0.130233 0.034674 0 255 0 54 15
-0.196492 -0.298681 0.052269 0 255 0 54 15
-0.209449 -0.261371 0.162110 0 255 0 54 15
-0.208305 -0.111637 0.056110 0 255 0 54 15
-0.354925 -0.136721 0.009153 0 255 0 54 15
-0.212708 -0.207209 0.100111 0 255 0 54 15
-0.222396 -0.256622 0.009165 0 255 0 54 15
-0.393641 -0.292862 0.012111 0 255 0 54 15
-0.342147 -0.146349 0.016566 0 255 0 54 15
-0.203556 -0.175658 0.046110 0 255 0 54 15
-0.206187 -0.313914 0.180110 0 255 0 54 15
-0.212895 -0.213696 0.040110 0 255 0 54 15
-0.213503 -0.194971 0.036110 0 255 0 54 15
-0.352473 -0.113526 0.016570 0 255 0 54 15
-0.374735 -0.335820 0.016111 0 255 0 54 15
-0.212863 -0.194121 0.170110 0 255 0 54 15
-0.235501 -0.214192 0.016465 0 255 0 54 15
-0.203666 -0.175574 0.116110 0 255 0 54 15
-0.208125 -0.122129 0.022110 0 255 0 54 15
-0.215124 -0.143949 0.092110 0 255 0 54 15
-0.208810 -0.275149 0.168111 0 255 0 54 15
-0.270966 -0.154911 0.016354 0 255 0 54 15
-0.206258 -0.146074 0.024111 0 255 0 54 15
-0.199845 -0.243310 0.062111 0 255 0 54 15
-0.247582 -0.250165 0.009141 0 255 0 54 15
-0.207024 -0.110437 0.120110 0 255 0 54 15
-0.211164 -0.228423 0.100111 0 255 0 54 15
-0.206688 -0.313535 0.004110 0 255 0 54 15
-0.390110 -0.130241 0.016989 0 255 0 54 15
-0.203601 -0.185641 0.148110 0 255 0 54 15
-0.199404 -0.265989 0.182110 0 255 0 54 15
-0.199782 -0.253197 0.134110 0 255 0 54 15
-0.216841 -0.275835 0.011303 0 255 0 54 15
-0.218175 -0.094521 0.138110 0 255 0 54 15
-0.199109 -0.269161 0.058111 0 255 0 54 15
-0.360337 -0.230309 0.016619 0 255 0 54 15
-0.211875 -0.214464 0.124110 0 255 0 54 15
-0.205810 -0.317693 0.168111 0 255 0 54 15
-0.302055 -0.106441 0.009150 0 255 0 54 15
-0.199724 -0.243656 0.086111 0 255 0 54 15
-0.207903 -0.094487 0.118111 0 255 0 54 15
-0.205426 -0.327009 0.072111 0 255 0 54 15
-0.224206 -0.172618 0.011234 0 255 0 54 15
-0.203858 -0.195464 0.189088 0 255 0 54 15
-0.216175 -0.158636 0.011232 0 255 0 54 15
-0.198943 -0.278671 0.186111 0 255 0 54 15
-0.204403 -0.159993 0.050110 0 255 0 54 15
-0.206144 -0.318954 0.050110 0 255 0 54 15
-0.312442 -0.276418 0.009178 0 255 0 54 15
-0.336030 -0.271164 0.009158 0 255 0 54 15
-0.249664 -0.286161 0.016727 0 255 0 54 15
-0.346568 -0.155540 0.009137 0 255 0 54 15
-0.216647 -0.079504 0.164111 0 255 0 54 15
-0.197108 -0.293208 0.148110 0 255 0 54 15
-0.199064 -0.285477 0.010111 0 255 0 54 15
-0.204235 -0.260291 0.010111 0 255 0 54 15
-0.208924 -0.096484 0.084111 0 255 0 54 15
-0.236962 -0.152989 0.011306 0 255 0 54 15
-0.207501 -0.127187 0.062111 0 255 0 54 15
-0.201368 -0.232039 0.038111 0 255 0 54 15
-0.211496 -0.212247 0.074352 0 255 0 54 15
-0.210415 -0.240608 0.170110 0 255 0 54 15
-0.293444 -0.183050 0.010111 0 255 0 54 15
-0.318907 -0.128802 0.017269 0 255 0 54 15
-0.205598 -0.314358 0.152110 0 255 0 54 15
-0.216455 -0.122451 0.070111 0 255 0 54 15
-0.323320 -0.310793 0.009182 0 255 0 54 15
-0.218754 -0.098917 0.102110 0 255 0 54 15
-0.204808 -0.156846 0.134110 0 255 0 54 15
-0.232139 -0.319400 0.016888 0 255 0 54 15
-0.303949 -0.235237 0.016969 0 255 0 54 15
-0.198181 -0.274871 0.102110 0 255 0 54 15
-0.211207 -0.255037 0.040110 0 255 0 54 15
-0.214874 -0.160234 0.172110 0 255 0 54 15
-0.318157 -0.327205 0.016633 0 255 0 54 15
-0.214075 -0.177748 0.096110 0 255 0 54 15
-0.254964 -0.161961 0.010111 0 255 0 54 15
-0.366893 -0.122694 0.011296 0 255 0 54 15
-0.218252 -0.106984 0.034111 0 255 0 54 15
-0.214486 -0.179943 0.040110 0 255 0 54 15
-0.219593 -0.083413 0.110110 0 255 0 54 15
-0.210862 -0.240272 0.114110 0 255 0 54 15
-0.196909 -0.305880 0.182614 0 255 0 54 15
-0.216387 -0.132332 0.090111 0 255 0 54 15
-0.207167 -0.147893 0.188111 0 255 0 54 15
-0.196355 -0.318439 0.106110 0 255 0 54 15
-0.212772 -0.248849 0.010111 0 255 0 54 15
-0.214644 -0.146636 0.056110 0 255 0 54 15
-0.217405 -0.127657 0.186111 0 255 0 54 15
-0.220274 -0.092940 0.028110 0 255 0 54 15
-0.339754 -0.325955 0.016775 0 255 0 54 15
-0.195224 -0.317167 0.068110 0 255 0 54 15
-0.201473 -0.202269 0.174287 0 255 0 54 15
-0.279004 -0.163880 0.010111 0 255 0 54 15
-0.280688 -0.330655 0.006111 0 255 0 54 15
-0.217446 -0.190233 0.011197 0 255 0 54 15
-0.275591 -0.254102 0.009177 0 255 0 54 15
-0.207511 -0.097290 0.172110 0 255 0 54 15
-0.285546 -0.234079 0.016700 0 255 0 54 15
-0.233971 -0.077610 0.012111 0 255 0 54 15
-0.245220 -0.266970 0.009186 0 255 0 54 15
-0.203593 -0.165613 0.154111 0 255 0 54 15
-0.331473 -0.201974 0.016699 0 255 0 54 15
-0.197628 -0.270278 0.161872 0 255 0 54 15
-0.206303 -0.126006 0.086111 0 255 0 54 15
-0.206523 -0.303644 0.062111 0 255 0 54 15
-0.283975 -0.210221 0.016111 0 255 0 54 15
-0.213072 -0.191024 0.130110 0 255 0 54 15
-0.210757 -0.270402 0.194111 0 255 0 54 15
-0.253214 -0.088152 0.011183 0 255 0 54 15
-0.207653 -0.102450 0.012111 0 255 0 54 15
-0.228839 -0.099007 0.011215 0 255 0 54 15
-0.288831 -0.271672 0.009163 0 255 0 54 15
-0.210629 -0.242951 0.078110 0 255 0 54 15
-0.239134 -0.228984 0.016597 0 255 0 54 15
-0.215150 -0.140661 0.110110 0 255 0 54 15
-0.337559 -0.239961 0.009146 0 255 0 54 15
-0.269232 -0.096115 0.011215 0 255 0 54 15
-0.211256 -0.241838 0.022110 0 255 0 54 15
-0.384735 -0.229453 0.016912 0 255 0 54 15
-0.207930 -0.227455 0.007893 0 255 0 54 15
-0.329507 -0.129576 0.010111 0 255 0 54 15
-0.215917 -0.221436 0.016144 0 255 0 54 15
-0.365356 -0.326698 0.007094 0 255 0 54 15
-0.197481 -0.290422 0.062111 0 255 0 54 15
-0.204419 -0.156330 0.012111 0 255 0 54 15
-0.394315 -0.094517 0.012111 0 255 0 54 15
-0.195928 -0.321195 0.180110 0 255 0 54 15
-0.215360 -0.157557 0.032110 0 255 0 54 15
-0.201611 -0.219695 0.052111 0 255 0 54 15
-0.352790 -0.253526 0.009164 0 255 0 54 15
-0.240103 -0.303382 0.009154 0 255 0 54 15
-0.320779 -0.240956 0.016111 0 255 0 54 15
-0.212653 -0.191341 0.060110 0 255 0 54 15
-0.208556 -0.318014 0.018110 0 255 0 54 15
-0.215402 -0.147641 0.152110 0 255 0 54 15
-0.200502 -0.228044 0.134110 0 255 0 54 15
-0.201410 -0.202185 0.092110 0 255 0 54 15
-0.261958 -0.239332 0.016726 0 255 0 54 15
-0.200242 -0.250485 0.146111 0 255 0 54 15
-0.205533 -0.151628 0.158111 0 255 0 54 15
-0.234359 -0.319023 0.002111 0 255 0 54 15
-0.208707 -0.291981 0.024111 0 255 0 54 15
-0.208154 -0.279876 0.060110 0 255 0 54 15
-0.218179 -0.078214 0.046110 0 255 0 54 15
-0.234115 -0.132595 0.011287 0 255 0 54 15
-0.385689 -0.121052 0.005188 0 255 0 54 15
-0.209804 -0.241068 0.128110 0 255 0 54 15
-0.203730 -0.185324 0.078110 0 255 0 54 15
-0.208822 -0.084039 0.130110 0 255 0 54 15
-0.214541 -0.157362 0.082110 0 255 0 54 15
-0.200638 -0.227747 0.158111 0 255 0 54 15
-0.197335 -0.320584 0.030111 0 255 0 54 15
-0.196684 -0.326084 0.090111 0 255 0 54 15
-0.216587 -0.113248 0.104111 0 255 0 54 15
-0.288672 -0.201671 0.009133 0 255 0 54 15
-0.257840 -0.187341 0.016269 0 255 0 54 15
-0.292722 -0.223662 0.016181 0 255 0 54 15
-0.263418 -0.178129 0.009113 0 255 0 54 15
-0.206404 -0.313750 0.080111 0 255 0 54 15
-0.270719 -0.222713 0.010111 0 255 0 54 15
-0.214134 -0.170190 0.124110 0 255 0 54 15
-0.218673 -0.091642 0.168111 0 255 0 54 15
-0.271025 -0.271305 0.010111 0 255 0 54 15
-0.208175 -0.102057 0.072111 0 255 0 54 15
-0.231685 -0.119401 0.011175 0 255 0 54 15
-0.216381 -0.129001 0.120110 0 255 0 54 15
-0.254093 -0.122550 0.009113 0 255 0 54 15
-0.248605 -0.171762 0.009137 0 255 0 54 15
-0.205432 -0.171740 0.032110 0 255 0 54 15
-0.199319 -0.246465 0.158111 0 255 0 54 15
-0.215069 -0.154460 0.128110 0 255 0 54 15
-0.299695 -0.123246 0.009183 0 255 0 54 15
-0.395894 -0.211028 0.011139 0 255 0 54 15
-0.332866 -0.110770 0.011207 0 255 0 54 15
-0.378916 -0.304813 0.006111 0 255 0 54 15
-0.216619 -0.119347 0.126111 0 255 0 54 15
-0.217044 -0.122921 0.044111 0 255 0 54 15
-0.198979 -0.299311 0.024111 0 255 0 54 15
-0.206659 -0.142686 0.036110 0 255 0 54 15
-0.292768 -0.243662 0.009191 0 255 0 54 15
-0.290315 -0.163972 0.010111 0 255 0 54 15
-0.367605 -0.259893 0.009138 0 255 0 54 15
-0.266492 -0.298522 0.009160 0 255 0 54 15
-0.208055 -0.282455 0.136111 0 255 0 54 15
-0.216744 -0.108122 0.158111 0 255 0 54 15
-0.295614 -0.264055 0.015996 0 255 0 54 15
-0.196374 -0.298523 0.174110 0 255 0 54 15
-0.207636 -0.292787 0.102110 0 255 0 54 15
-0.217423 -0.180234 0.016342 0 255 0 54 15
-0.199449 -0.256385 0.084111 0 255 0 54 15
-0.280125 -0.313291 0.009132 0 255 0 54 15
-0.209402 -0.259318 0.094111 0 255 0 54 15
-0.208684 -0.265012 0.174110 0 255 0 54 15
-0.251935 -0.229354 0.017029 0 255 0 54 15
-0.208690 -0.278312 0.048111 0 255 0 54 15
-0.201518 -0.222270 0.184611 0 255 0 54 15
-0.252139 -0.319355 0.009115 0 255 0 54 15
-0.363327 -0.137902 0.016763 0 255 0 54 15
-0.217695 -0.300233 0.011254 0 255 0 54 15
-0.205947 -0.148813 0.082110 0 255 0 54 15
-0.361678 -0.291906 0.009164 0 255 0 54 15
-0.202098 -0.206421 0.076111 0 255 0 54 15
-0.202164 -0.206758 0.126111 0 255 0 54 15
-0.208778 -0.275106 0.076111 0 255 0 54 15
-0.207265 -0.110255 0.176479 0 255 0 54 15
-0.200126 -0.260883 0.032110 0 255 0 54 15
-0.366749 -0.235494 0.009137 0 255 0 54 15
-0.198343 -0.284766 0.108111 0 255 0 54 15
-0.357234 -0.272716 0.016619 0 255 0 54 15
-0.306287 -0.208432 0.009150 0 255 0 54 15
-0.322631 -0.183595 0.009155 0 255 0 54 15
-0.217839 -0.101027 0.052111 0 255 0 54 15
-0.202839 -0.221275 0.028110 0 255 0 54 15
-0.213493 -0.165048 0.146111 0 255 0 54 15
-0.201240 -0.222479 0.118111 0 255 0 54 15
-0.374599 -0.169476 0.009165 0 255 0 54 15
-0.215166 -0.151884 0.164111 0 255 0 54 15
-0.198327 -0.264559 0.106110 0 255 0 54 15
-0.203295 -0.208409 0.048111 0 255 0 54 15
-0.214787 -0.139647 0.144111 0 255 0 54 15
-0.306568 -0.155631 0.016462 0 255 0 54 15
-0.200609 -0.237679 0.098111 0 255 0 54 15
-0.223328 -0.138220 0.011256 0 255 0 54 15
-0.212926 -0.204175 0.028110 0 255 0 54 15
-0.332215 -0.176373 0.016246 0 255 0 54 15
-0.204121 -0.192491 0.014110 0 255 0 54 15
-0.211553 -0.267298 0.004110 0 255 0 54 15
-0.226424 -0.268613 0.016667 0 255 0 54 15
-0.212151 -0.216762 0.184111 0 255 0 54 15
-0.198912 -0.279328 0.092110 0 255 0 54 15
-0.208798 -0.261861 0.132111 0 255 0 54 15
-0.203635 -0.185615 0.168111 0 255 0 54 15
-0.207096 -0.130418 0.096110 0 255 0 54 15
-0.206508 -0.316177 0.100111 0 255 0 54 15
-0.207370 -0.303005 0.150111 0 255 0 54 15
-0.216992 -0.112942 0.076111 0 255 0 54 15
-0.323093 -0.210793 0.016633 0 255 0 54 15
-0.307279 -0.292829 0.016758 0 255 0 54 15
-0.267324 -0.312920 0.009137 0 255 0 54 15
-0.257886 -0.207341 0.009149 0 255 0 54 15
-0.199861 -0.233362 0.120110 0 255 0 54 15
-0.212441 -0.193561 0.080111 0 255 0 54 15
-0.296098 -0.301255 0.009186 0 255 0 54 15
-0.201601 -0.248964 0.034111 0 255 0 54 15
-0.202461 -0.194012 0.068110 0 255 0 54 15
-0.208002 -0.282495 0.160111 0 255 0 54 15
-0.209779 -0.251104 0.114110 0 255 0 54 15
-0.216121 -0.311437 0.009119 0 255 0 54 15
-0.296220 -0.331325 0.010111 0 255 0 54 15
-0.388600 -0.143900 0.006111 0 255 0 54 15
-0.302238 -0.186440 0.017234 0 255 0 54 15
-0.205684 -0.161332 0.100111 0 255 0 54 15
-0.366492 -0.298295 0.016485 0 255 0 54 15
-0.224379 -0.237599 0.010111 0 255 0 54 15
-0.205337 -0.171810 0.184111 0 255 0 54 15
-0.199262 -0.276559 0.026111 0 255 0 54 15
-0.307628 -0.270029 0.016764 0 255 0 54 15
-0.291961 -0.152863 0.010111 0 255 0 54 15
-0.203617 -0.185628 0.112111 0 255 0 54 15
-0.335455 -0.193965 0.009200 0 255 0 54 15
-0.282465 -0.286486 0.016649 0 255 0 54 15
-0.241192 -0.328091 0.008110 0 255 0 54 15
-0.358550 -0.324313 0.016713 0 255 0 54 15
-0.240406 -0.260581 0.016638 0 255 0 54 15
-0.317635 -0.097205 0.016641 0 255 0 54 15
-0.210732 -0.227849 0.167560 0 255 0 54 15
-0.195944 -0.301278 0.092110 0 255 0 54 15
-0.367469 -0.199893 0.009156 0 255 0 54 15
-0.218681 -0.105467 0.188111 0 255 0 54 15
-0.239057 -0.183965 0.010111 0 255 0 54 15
-0.216553 -0.138316 0.182110 0 255 0 54 15
-0.200732 -0.227871 0.063764 0 255 0 54 15
-0.322326 -0.332737 0.008110 0 255 0 54 15
-0.245546 -0.234170 0.009180 0 255 0 54 15
-0.335523 -0.223965 0.009142 0 255 0 54 15
-0.323974 -0.148820 0.010111 0 255 0 54 15
-0.344690 -0.209544 0.009217 0 255 0 54 15
-0.219518 -0.088501 0.018110 0 255 0 54 15
-0.207110 -0.140423 0.074110 0 255 0 54 15
-0.197948 -0.287567 0.132111 0 255 0 54 15
-0.306727 -0.225631 0.009133 0 255 0 54 15
-0.203966 -0.182861 0.186111 0 255 0 54 15
-0.214951 -0.142028 0.126111 0 255 0 54 15
-0.364917 -0.309498 0.016256 0 255 0 54 15
-0.296931 -0.315653 0.009146 0 255 0 54 15
-0.267464 -0.113708 0.010111 0 255 0 54 15
-0.210952 -0.218171 0.134110 0 255 0 54 15
-0.324422 -0.257372 0.010111 0 255 0 54 15
-0.207965 -0.280018 0.148110 0 255 0 54 15
-0.281027 -0.297871 0.016111 0 255 0 54 15
-0.211540 -0.234752 0.190110 0 255 0 54 15
-0.282843 -0.100884 0.009115 0 255 0 54 15
-0.379716 -0.133064 0.017112 0 255 0 54 15
-0.215329 -0.131726 0.054110 0 255 0 54 15
-0.195727 -0.314283 0.143923 0 255 0 54 15
-0.197941 -0.267372 0.042110 0 255 0 54 15
-0.209285 -0.262485 0.074110 0 255 0 54 15
-0.206719 -0.323530 0.144111 0 255 0 54 15
-0.202902 -0.210812 0.030111 0 255 0 54 15
-0.277726 -0.137296 0.016471 0 255 0 54 15
-0.208790 -0.116619 0.188111 0 255 0 54 15
-0.210533 -0.091331 0.192110 0 255 0 54 15
-0.198682 -0.261708 0.142110 0 255 0 54 15
-0.230776 -0.247803 0.009132 0 255 0 54 15
-0.214034 -0.175736 0.060110 0 255 0 54 15
-0.215524 -0.164420 0.020111 0 255 0 54 15
-0.319278 -0.116002 0.009180 0 255 0 54 15
-0.272374 -0.246509 0.016418 0 255 0 54 15
-0.212716 -0.208824 0.064110 0 255 0 54 15
-0.305985 -0.251232 0.009128 0 255 0 54 15
-0.204457 -0.159952 0.064110 0 255 0 54 15
-0.265478 -0.204124 0.016871 0 255 0 54 15
-0.203615 -0.175203 0.070111 0 255 0 54 15
-0.208789 -0.258504 0.056110 0 255 0 54 15
-0.198207 -0.304281 0.034111 0 255 0 54 15
-0.213390 -0.183273 0.172110 0 255 0 54 15
-0.204948 -0.147061 0.119897 0 255 0 54 15
-0.202454 -0.194017 0.030111 0 255 0 54 15
-0.228067 -0.287409 0.017125 0 255 0 54 15
-0.336500 -0.125562 0.016872 0 255 0 54 15
-0.214045 -0.169103 0.102110 0 255 0 54 15
-0.213917 -0.168934 0.080111 0 255 0 54 15
-0.348626 -0.181536 0.015384 0 255 0 54 15
-0.361639 -0.099105 0.016220 0 255 0 54 15
-0.332881 -0.293571 0.016829 0 255 0 54 15
-0.216095 -0.123636 0.096110 0 255 0 54 15
-0.217826 -0.107655 0.138110 0 255 0 54 15
-0.257514 -0.220143 0.009114 0 255 0 54 15
-0.196707 -0.305613 0.138110 0 255 0 54 15
-0.214024 -0.170273 0.178111 0 255 0 54 15
-0.208417 -0.086850 0.094111 0 255 0 54 15
-0.207568 -0.107336 0.166110 0 255 0 54 15
-0.203597 -0.185149 0.126111 0 255 0 54 15
-0.238461 -0.284586 0.009120 0 255 0 54 15
-0.211097 -0.227574 0.112111 0 255 0 54 15
-0.198799 -0.258540 0.194111 0 255 0 54 15
-0.357771 -0.157114 0.016701 0 255 0 54 15
-0.202014 -0.216887 0.108111 0 255 0 54 15
-0.204600 -0.169862 0.021858 0 255 0 54 15
-0.204117 -0.162714 0.086111 0 255 0 54 15
-0.386355 -0.238249 0.009424 0 255 0 54 15
-0.206878 -0.158128 0.190110 0 255 0 54 15
-0.244047 -0.102573 0.009115 0 255 0 54 15
-0.332426 -0.093572 0.017010 0 255 0 54 15
-0.206886 -0.295857 0.005595 0 255 0 54 15
-0.203625 -0.175606 0.092110 0 255 0 54 15
-0.205863 -0.138858 0.176111 0 255 0 54 15
-0.306121 -0.311232 0.007117 0 255 0 54 15
-0.206764 -0.132855 0.128110 0 255 0 54 15
-0.216760 -0.113118 0.170110 0 255 0 54 15
-0.214799 -0.160135 0.072111 0 255 0 54 15
-0.205206 -0.144363 0.142110 0 255 0 54 15
-0.313214 -0.088015 0.014715 0 255 0 54 15
-0.248256 -0.194563 0.009186 0 255 0 54 15
-0.349232 -0.095934 0.016754 0 255 0 54 15
-0.343229 -0.270747 0.016609 0 255 0 54 15
-0.208907 -0.129052 0.193326 0 255 0 54 15
-0.318012 -0.177464 0.016111 0 255 0 54 15
-0.217284 -0.126876 0.024111 0 255 0 54 15
-0.346086 -0.326193 0.006111 0 255 0 54 15
-0.363903 -0.215100 0.015510 0 255 0 54 15
-0.329187 -0.325226 0.006111 0 255 0 54 15
-0.278673 -0.195048 0.016111 0 255 0 54 15
-0.384789 -0.164302 0.008110 0 255 0 54 15
-0.283025 -0.180884 0.016507 0 255 0 54 15
-0.205605 -0.151575 0.056110 0 255 0 54 15
-0.289255 -0.106069 0.016372 0 255 0 54 15
-0.235917 -0.221391 0.009119 0 255 0 54 15
-0.215252 -0.167382 0.036110 0 255 0 54 15
-0.336914 -0.333105 0.008110 0 255 0 54 15
-0.218163 -0.087018 0.078110 0 255 0 54 15
-0.210607 -0.234331 0.056110 0 255 0 54 15
-0.208103 -0.269897 0.098111 0 255 0 54 15
-0.207041 -0.129899 0.038111 0 255 0 54 15
-0.391166 -0.178169 0.010111 0 255 0 54 15
-0.343668 -0.287947 0.016638 0 255 0 54 15
-0.215279 -0.327097 0.006111 0 255 0 54 15
-0.287347 -0.322875 0.009209 0 255 0 54 15
-0.207521 -0.312908 0.040110 0 255 0 54 15
-0.207321 -0.289788 0.092110 0 255 0 54 15
-0.336590 -0.165563 0.009111 0 255 0 54 15
-0.234183 -0.162595 0.009113 0 255 0 54 15
-0.281372 -0.265096 0.016111 0 255 0 54 15
-0.208847 -0.106560 0.038111 0 255 0 54 15
-0.200913 -0.307871 0.011377 0 255 0 54 15
-0.213733 -0.175501 0.112111 0 255 0 54 15
-0.205520 -0.151143 0.178111 0 255 0 54 15
-0.250103 -0.303359 0.016414 0 255 0 54 15
-0.347930 -0.227137 0.016660 0 255 0 54 15
-0.264138 -0.142527 0.016673 0 255 0 54 15
-0.206951 -0.309237 0.090111 0 255 0 54 15
-0.214424 -0.277656 0.000110 0 255 0 54 15
-0.194764 -0.326296 0.012111 0 255 0 54 15
-0.382608 -0.173458 0.016812 0 255 0 54 15
-0.219979 -0.080641 0.058111 0 255 0 54 15
-0.214124 -0.190232 0.182110 0 255 0 54 15
-0.207476 -0.107214 0.092110 0 255 0 54 15
-0.204063 -0.192806 0.040110 0 255 0 54 15
-0.233320 -0.310998 0.009185 0 255 0 54 15
-0.214690 -0.209840 0.016777 0 255 0 54 15
-0.214438 -0.182918 0.030111 0 255 0 54 15
-0.335591 -0.253965 0.009168 0 255 0 54 15
-0.349300 -0.125934 0.009147 0 255 0 54 15
-0.259664 -0.286137 0.009115 0 255 0 54 15
-0.352487 -0.296327 0.009126 0 255 0 54 15
-0.296794 -0.255653 0.009155 0 255 0 54 15
-0.273288 -0.211166 0.016111 0 255 0 54 15
-0.208415 -0.264654 0.149362 0 255 0 54 15
-0.207905 -0.297210 0.042110 0 255 0 54 15
-0.298930 -0.138848 0.009132 0 255 0 54 15
-0.207636 -0.097456 0.106710 0 255 0 54 15
-0.385548 -0.086097 0.012111 0 255 0 54 15
-0.377334 -0.154895 0.010111 0 255 0 54 15
-0.255119 -0.269528 0.016111 0 255 0 54 15
-0.369618 -0.265888 0.017109 0 255 0 54 15
-0.215192 -0.154367 0.022110 0 255 0 54 15
-0.219006 -0.086382 0.146111 0 255 0 54 15
-0.206121 -0.311459 0.195897 0 255 0 54 15
-0.204276 -0.180124 0.024111 0 255 0 54 15
-0.386321 -0.115241 0.016111 0 255 0 54 15
-0.206401 -0.115916 0.142110 0 255 0 54 15
-0.270338 -0.230513 0.016593 0 255 0 54 15
-0.216958 -0.105456 0.178111 0 255 0 54 15
-0.262008 -0.256824 0.016111 0 255 0 54 15
-0.333542 -0.141578 0.010111 0 255 0 54 15
-0.390820 -0.194817 0.010111 0 255 0 54 15
-0.289694 -0.123269 0.011234 0 255 0 54 15
-0.215487 -0.149136 0.066111 0 255 0 54 15
-0.377514 -0.219870 0.016214 0 255 0 54 15
-0.212759 -0.181243 0.148110 0 255 0 54 15
-0.239210 -0.086183 0.011189 0 255 0 54 15
-0.203254 -0.188017 0.158111 0 255 0 54 15
-0.220731 -0.227825 0.009120 0 255 0 54 15
-0.199775 -0.253188 0.108111 0 255 0 54 15
-0.208681 -0.098844 0.022110 0 255 0 54 15
-0.208227 -0.088270 0.062111 0 255 0 54 15
-0.204583 -0.327643 0.082110 0 255 0 54 15
-0.314531 -0.139612 0.016555 0 255 0 54 15
-0.351404 -0.171929 0.016305 0 255 0 54 15
-0.212768 -0.243844 0.001406 0 255 0 54 15
-0.211430 -0.249860 0.188111 0 255 0 54 15
-0.212825 -0.190747 0.118111 0 255 0 54 15
-0.330753 -0.237576 0.016335 0 255 0 54 15
-0.339368 -0.155956 0.017311 0 255 0 54 15
-0.231079 -0.205002 0.016255 0 255 0 54 15
-0.209380 -0.279228 0.032110 0 255 0 54 15
-0.373646 -0.277879 0.016938 0 255 0 54 15
-0.196632 -0.306088 0.160111 0 255 0 54 15
-0.248165 -0.154564 0.016529 0 255 0 54 15
-0.260136 -0.329967 0.016111 0 255 0 54 15
-0.381889 -0.209060 0.016381 0 255 0 54 15
-0.385197 -0.256652 0.016515 0 255 0 54 15
-0.200664 -0.227783 0.144111 0 255 0 54 15
-0.254782 -0.249748 0.016633 0 255 0 54 15
-0.207192 -0.298131 0.128110 0 255 0 54 15
-0.211292 -0.218623 0.102110 0 255 0 54 15
-0.196331 -0.308436 0.106110 0 255 0 54 15
-0.229596 -0.256205 0.016715 0 255 0 54 15
-0.313857 -0.195214 0.009262 0 255 0 54 15
-0.348369 -0.244337 0.009168 0 255 0 54 15
-0.241746 -0.322179 0.016768 0 255 0 54 15
-0.358233 -0.184313 0.015346 0 255 0 54 15
-0.363252 -0.280702 0.016530 0 255 0 54 15
-0.273025 -0.180906 0.009131 0 255 0 54 15
-0.318188 -0.164405 0.009118 0 255 0 54 15
-0.248278 -0.204563 0.009135 0 255 0 54 15
-0.225334 -0.317016 0.009159 0 255 0 54 15
-0.217780 -0.097624 0.066111 0 255 0 54 15
-0.211798 -0.212647 0.154111 0 255 0 54 15
-0.262510 -0.306531 0.016907 0 255 0 54 15
-0.210343 -0.268210 0.024111 0 255 0 54 15
-0.344758 -0.239544 0.017139 0 255 0 54 15
-0.365591 -0.253897 0.016853 0 255 0 54 15
-0.243283 -0.118174 0.017321 0 255 0 54 15
-0.283509 -0.218084 0.009114 0 255 0 54 15
-0.270080 -0.293314 0.016843 0 255 0 54 15
-0.205142 -0.143996 0.110110 0 255 0 54 15
-0.326863 -0.285585 0.016624 0 255 0 54 15
-0.209823 -0.233290 0.148110 0 255 0 54 15
-0.350519 -0.310331 0.009186 0 255 0 54 15
-0.267852 -0.080990 0.012111 0 255 0 54 15
-0.201977 -0.216916 0.138110 0 255 0 54 15
-0.214007 -0.188992 0.044111 0 255 0 54 15
-0.376749 -0.235472 0.009147 0 255 0 54 15
-0.268097 -0.124518 0.009146 0 255 0 54 15
-0.203269 -0.198006 0.132111 0 255 0 54 15
-0.269555 -0.322526 0.008110 0 255 0 54 15
-0.304902 -0.126835 0.017042 0 255 0 54 15
-0.211040 -0.221612 0.148110 0 255 0 54 15
-0.313275 -0.290816 0.009187 0 255 0 54 15
-0.209438 -0.253866 0.152110 0 255 0 54 15
-0.206742 -0.152764 0.032110 0 255 0 54 15
-0.210002 -0.250143 0.098111 0 255 0 54 15
-0.210276 -0.084343 0.154111 0 255 0 54 15
-0.378536 -0.141468 0.009110 0 255 0 54 15
-0.200917 -0.224795 0.082110 0 255 0 54 15
-0.198809 -0.261876 0.050244 0 255 0 54 15
-0.257960 -0.079568 0.012111 0 255 0 54 15
-0.199808 -0.253231 0.124110 0 255 0 54 15
-0.210658 -0.081527 0.172110 0 255 0 54 15
-0.211907 -0.254508 0.018110 0 255 0 54 15
-0.200527 -0.238042 0.108111 0 255 0 54 15
-0.198625 -0.272031 0.138110 0 255 0 54 15
-0.206040 -0.128570 0.170110 0 255 0 54 15
-0.206349 -0.125658 0.150111 0 255 0 54 15
-0.214552 -0.142329 0.172110 0 255 0 54 15
-0.385819 -0.267447 0.008110 0 255 0 54 15
-0.208232 -0.088278 0.046110 0 255 0 54 15
-0.387410 -0.222430 0.008110 0 255 0 54 15
-0.223275 -0.291020 0.009156 0 255 0 54 15
-0.320542 -0.320399 0.009164 0 255 0 54 15
-0.217778 -0.109846 0.116110 0 255 0 54 15
-0.273252 -0.280906 0.009120 0 255 0 54 15
-0.200144 -0.250356 0.052111 0 255 0 54 15
-0.197851 -0.287641 0.046110 0 255 0 54 15
-0.216710 -0.123172 0.176111 0 255 0 54 15
-0.207449 -0.296604 0.160111 0 255 0 54 15
-0.204355 -0.170046 0.166110 0 255 0 54 15
-0.316682 -0.205608 0.009159 0 255 0 54 15
-0.196601 -0.326147 0.038111 0 255 0 54 15
-0.245017 -0.176971 0.016580 0 255 0 54 15
-0.348929 -0.138735 0.016588 0 255 0 54 15
-0.216871 -0.113034 0.003320 0 255 0 54 15
-0.201066 -0.327789 0.188111 0 255 0 54 15
-0.201299 -0.222435 0.100111 0 255 0 54 15
-0.375273 -0.113874 0.009119 0 255 0 54 15
-0.207692 -0.292746 0.080111 0 255 0 54 15
-0.358293 -0.117927 0.010111 0 255 0 54 15
-0.283532 -0.228083 0.009123 0 255 0 54 15
-0.257703 -0.127342 0.016782 0 255 0 54 15
-0.264161 -0.152526 0.009225 0 255 0 54 15
-0.207038 -0.119926 0.078110 0 255 0 54 15
-0.207906 -0.280594 0.176111 0 255 0 54 15
-0.392523 -0.321252 0.012111 0 255 0 54 15
-0.288506 -0.304472 0.016421 0 255 0 54 15
-0.240360 -0.240581 0.016490 0 255 0 54 15
-0.280156 -0.150491 0.009128 0 255 0 54 15
-0.347998 -0.257137 0.016796 0 255 0 54 15
-0.382336 -0.288860 0.008110 0 255 0 54 15
-0.208615 -0.277025 0.128110 0 255 0 54 15
-0.330035 -0.273178 0.016785 0 255 0 54 15
-0.301632 -0.272042 0.009186 0 255 0 54 15
-0.197865 -0.287629 0.168111 0 255 0 54 15
-0.378626 -0.181467 0.009195 0 255 0 54 15
-0.199022 -0.269227 0.068110 0 255 0 54 15
-0.215011 -0.157008 0.094111 0 255 0 54 15
-0.380148 -0.323064 0.007776 0 255 0 54 15
-0.199514 -0.276369 0.016111 0 255 0 54 15
-0.210596 -0.167849 0.197127 0 255 0 54 15
-0.213025 -0.181043 0.162424 0 255 0 54 15
-0.209327 -0.246437 0.136111 0 255 0 54 15
-0.218274 -0.101603 0.042110 0 255 0 54 15
-0.199431 -0.266024 0.084111 0 255 0 54 15
-0.208592 -0.099238 0.148110 0 255 0 54 15
-0.355220 -0.266721 0.009153 0 255 0 54 15
-0.366961 -0.152694 0.017019 0 255 0 54 15
-0.209788 -0.233568 0.076111 0 255 0 54 15
-0.214667 -0.159959 0.120110 0 255 0 54 15
-0.218535 -0.088656 0.102110 0 255 0 54 15
-0.290080 -0.293268 0.007129 0 255 0 54 15
-0.205996 -0.138483 0.162110 0 255 0 54 15
-0.215497 -0.174172 0.190110 0 255 0 54 15
-0.322419 -0.266395 0.007111 0 255 0 54 15
-0.215648 -0.128028 0.140111 0 255 0 54 15
-0.199310 -0.286541 0.036110 0 255 0 54 15
-0.208740 -0.261762 0.116110 0 255 0 54 15
-0.326174 -0.158385 0.009146 0 255 0 54 15
-0.296175 -0.158455 0.016619 0 255 0 54 15
-0.197526 -0.326640 0.126111 0 255 0 54 15
-0.313966 -0.260243 0.010111 0 255 0 54 15
-0.218249 -0.106987 0.024111 0 255 0 54 15
-0.212254 -0.224196 0.190110 0 255 0 54 15
-0.212903 -0.204144 0.040110 0 255 0 54 15
-0.213570 -0.208352 0.190110 0 255 0 54 15
-0.207874 -0.275079 0.090111 0 255 0 54 15
-0.232903 -0.303798 0.016596 0 255 0 54 15
-0.366613 -0.175494 0.009142 0 255 0 54 15
-0.257332 -0.145152 0.010111 0 255 0 54 15
-0.196847 -0.305927 0.046110 0 255 0 54 15
-0.333669 -0.287969 0.009177 0 255 0 54 15
-0.211880 -0.206110 0.118111 0 255 0 54 15
-0.211135 -0.232553 0.132111 0 255 0 54 15
-0.226560 -0.328613 0.016785 0 255 0 54 15
-0.336278 -0.203362 0.008110 0 255 0 54 15
-0.212847 -0.203716 0.056110 0 255 0 54 15
-0.396704 -0.220435 0.012111 0 255 0 54 15
-0.301359 -0.152042 0.009128 0 255 0 54 15
-0.352699 -0.213526 0.015385 0 255 0 54 15
-0.330549 -0.147576 0.016826 0 255 0 54 15
-0.211912 -0.216942 0.166110 0 255 0 54 15
-0.370102 -0.303087 0.009168 0 255 0 54 15
-0.349664 -0.285933 0.009172 0 255 0 54 15
-0.291193 -0.254866 0.016727 0 255 0 54 15
-0.300020 -0.090445 0.011205 0 255 0 54 15
-0.213180 -0.178422 0.078110 0 255 0 54 15
-0.379887 -0.126645 0.010111 0 255 0 54 15
-0.201027 -0.222640 0.166110 0 255 0 54 15
-0.196188 -0.318944 0.020111 0 255 0 54 15
-0.349345 -0.145933 0.009132 0 255 0 54 15
-0.198273 -0.274800 0.048111 0 255 0 54 15
-0.307999 -0.257228 0.016745 0 255 0 54 15
-0.203662 -0.195611 0.142110 0 255 0 54 15
-0.199695 -0.253694 0.164111 0 255 0 54 15
-0.333297 -0.300771 0.009131 0 255 0 54 15
-0.208537 -0.141853 0.195177 0 255 0 54 15
-0.216674 -0.143233 0.190110 0 255 0 54 15
-0.355773 -0.333920 0.007934 0 255 0 54 15
-0.207517 -0.117238 0.112111 0 255 0 54 15
-0.208867 -0.279339 0.190110 0 255 0 54 15
-0.264827 -0.269726 0.016955 0 255 0 54 15
-0.250530 -0.328080 0.006111 0 255 0 54 15
-0.208105 -0.122145 0.032110 0 255 0 54 15
-0.208214 -0.277680 0.118111 0 255 0 54 15
-0.204064 -0.182445 0.054110 0 255 0 54 15
-0.214364 -0.166203 0.056110 0 255 0 54 15
-0.216893 -0.116388 0.090111 0 255 0 54 15
-0.204777 -0.166774 0.112111 0 255 0 54 15
-0.206604 -0.308776 0.172110 0 255 0 54 15
-0.255568 -0.244147 0.009196 0 255 0 54 15
-0.365962 -0.241096 0.016561 0 255 0 54 15
-0.217087 -0.105358 0.082110 0 255 0 54 15
-0.250435 -0.097758 0.017347 0 255 0 54 15
-0.200934 -0.255265 0.024111 0 255 0 54 15
-0.217272 -0.145287 0.008110 0 255 0 54 15
-0.346446 -0.110555 0.010111 0 255 0 54 15
-0.206146 -0.313944 0.058111 0 255 0 54 15
-0.254391 -0.106330 0.016111 0 255 0 54 15
-0.217478 -0.110072 0.056110 0 255 0 54 15
-0.207938 -0.327620 0.014110 0 255 0 54 15
-0.214750 -0.173363 0.010111 0 255 0 54 15
-0.240134 -0.140582 0.009114 0 255 0 54 15
-0.205191 -0.164408 0.140111 0 255 0 54 15
-0.210632 -0.227924 0.090111 0 255 0 54 15
-0.320816 -0.109834 0.016111 0 255 0 54 15
-0.307658 -0.107228 0.016512 0 255 0 54 15
-0.212838 -0.193706 0.104111 0 255 0 54 15
-0.230360 -0.240605 0.016504 0 255 0 54 15
-0.380042 -0.100263 0.009129 0 255 0 54 15
-0.214241 -0.156071 0.110110 0 255 0 54 15
-0.209029 -0.082688 0.140111 0 255 0 54 15
-0.318120 -0.134405 0.009240 0 255 0 54 15
-0.316362 -0.233395 0.010111 0 255 0 54 15
-0.262980 -0.160930 0.016144 0 255 0 54 15
-0.252926 -0.313753 0.016410 0 255 0 54 15
-0.206339 -0.135614 0.066111 0 255 0 54 15
-0.214546 -0.096656 0.010111 0 255 0 54 15
-0.207658 -0.107455 0.064323 0 255 0 54 15
-0.199726 -0.243655 0.180110 0 255 0 54 15
-0.196653 -0.316090 0.088110 0 255 0 54 15
-0.220822 -0.267826 0.009113 0 255 0 54 15
-0.207674 -0.295263 0.066111 0 255 0 54 15
-0.310148 -0.323223 0.009189 0 255 0 54 15
-0.362912 -0.130703 0.009119 0 255 0 54 15
-0.218203 -0.081979 0.088110 0 255 0 54 15
-0.196485 -0.326234 0.070111 0 255 0 54 15
-0.195940 -0.321635 0.060110 0 255 0 54 15
-0.198992 -0.269250 0.122111 0 255 0 54 15
-0.353463 -0.197924 0.007127 0 255 0 54 15
-0.215856 -0.123816 0.106110 0 255 0 54 15
-0.196518 -0.316192 0.188111 0 255 0 54 15
-0.377218 -0.089870 0.011269 0 255 0 54 15
-0.200958 -0.235213 0.082110 0 255 0 54 15
-0.312169 -0.156418 0.009137 0 255 0 54 15
-0.212328 -0.226645 0.022790 0 255 0 54 15
-0.384383 -0.305421 0.016111 0 255 0 54 15
-0.217766 -0.130838 0.010111 0 255 0 54 15
-0.215239 -0.147425 0.046110 0 255 0 54 15
-0.287402 -0.135014 0.016111 0 255 0 54 15
-0.209830 -0.321186 0.000110 0 255 0 54 15
-0.196246 -0.298867 0.120110 0 255 0 54 15
-0.385243 -0.276653 0.009478 0 255 0 54 15
-0.333721 -0.135169 0.016917 0 255 0 54 15
-0.199370 -0.232712 0.012111 0 255 0 54 15
-0.213881 -0.205442 0.003293 0 255 0 54 15
-0.302772 -0.333374 0.016111 0 255 0 54 15
-0.208483 -0.294654 0.188159 0 255 0 54 15
-0.207047 -0.120437 0.054110 0 255 0 54 15
-0.196672 -0.326093 0.158111 0 255 0 54 15
-0.222056 -0.106623 0.011229 0 255 0 54 15
-0.242677 -0.203776 0.017069 0 255 0 54 15
-0.206946 -0.302585 0.110110 0 255 0 54 15
-0.340641 -0.187554 0.014725 0 255 0 54 15
-0.215644 -0.159035 0.182110 0 255 0 54 15
-0.212615 -0.187146 0.096110 0 255 0 54 15
-0.286197 -0.168477 0.016847 0 255 0 54 15
-0.201298 -0.212419 0.060110 0 255 0 54 15
-0.205961 -0.138436 0.044111 0 255 0 54 15
-0.383858 -0.195055 0.016300 0 255 0 54 15
-0.209618 -0.286190 0.016111 0 255 0 54 15
-0.200638 -0.237717 0.160111 0 255 0 54 15
-0.214070 -0.165230 0.164111 0 255 0 54 15
-0.205767 -0.326751 0.168111 0 255 0 54 15
-0.289913 -0.309662 0.008110 0 255 0 54 15
-0.220186 -0.084201 0.038111 0 255 0 54 15
-0.337491 -0.209961 0.015639 0 255 0 54 15
-0.226961 -0.153011 0.011246 0 255 0 54 15
-0.245634 -0.279180 0.008110 0 255 0 54 15
-0.346106 -0.128341 0.017237 0 255 0 54 15
-0.216422 -0.112438 0.150111 0 255 0 54 15
-0.215152 -0.237038 0.009162 0 255 0 54 15
-0.270853 -0.104911 0.009180 0 255 0 54 15
-0.235637 -0.274193 0.009118 0 255 0 54 15
-0.217723 -0.097549 0.128110 0 255 0 54 15
-0.204496 -0.179694 0.138110 0 255 0 54 15
-0.319641 -0.276001 0.016573 0 255 0 54 15
-0.197366 -0.326427 0.110110 0 255 0 54 15
-0.201867 -0.199468 0.047904 0 255 0 54 15
-0.378944 -0.321466 0.016530 0 255 0 54 15
-0.215713 -0.131437 0.111492 0 255 0 54 15
-0.201134 -0.250106 0.192110 0 255 0 54 15
-0.361080 -0.204707 0.015593 0 255 0 54 15
-0.340496 -0.300354 0.016215 0 255 0 54 15
-0.205342 -0.317054 0.118111 0 255 0 54 15
-0.238393 -0.254586 0.009164 0 255 0 54 15
-0.369648 -0.103087 0.016624 0 255 0 54 15
-0.243115 -0.220975 0.016926 0 255 0 54 15
-0.293555 -0.238060 0.016363 0 255 0 54 15
-0.356121 -0.311119 0.016562 0 255 0 54 15
-0.309573 -0.246024 0.016925 0 255 0 54 15
-0.259232 -0.096138 0.016978 0 255 0 54 15
-0.298460 -0.284449 0.017005 0 255 0 54 15
-0.383767 -0.155055 0.016862 0 255 0 54 15
-0.236424 -0.268590 0.016516 0 255 0 54 15
-0.354569 -0.332322 0.016903 0 255 0 54 15
-0.298717 -0.221648 0.009177 0 255 0 54 15
-0.359358 -0.150910 0.010111 0 255 0 54 15
-0.329989 -0.253177 0.016730 0 255 0 54 15
-0.284758 -0.239680 0.009128 0 255 0 54 15
-0.313093 -0.210817 0.016669 0 255 0 54 15
-0.374433 -0.272277 0.009136 0 255 0 54 15
-0.247718 -0.310165 0.009120 0 255 0 54 15
-0.301564 -0.242042 0.009133 0 255 0 54 15
-0.331427 -0.181975 0.009227 0 255 0 54 15
-0.368528 -0.314290 0.009204 0 255 0 54 15
-0.316499 -0.125608 0.009190 0 255 0 54 15
-0.341655 -0.281951 0.009154 0 255 0 54 15
-0.257053 -0.192943 0.009180 0 255 0 54 15
-0.305803 -0.171232 0.009120 0 255 0 54 15
-0.343138 -0.230748 0.009169 0 255 0 54 15
-0.303676 -0.115237 0.009119 0 255 0 54 15
-0.331329 -0.314775 0.009191 0 255 0 54 15
-0.324713 -0.219589 0.009126 0 255 0 54 15
-0.357649 -0.279915 0.009172 0 255 0 54 15
-0.300080 -0.293245 0.009160 0 255 0 54 15
-0.374296 -0.212277 0.009191 0 255 0 54 15
-0.277748 -0.147296 0.017118 0 255 0 54 15
-0.197311 -0.300568 0.190110 0 255 0 54 15
-0.265804 -0.171323 0.016601 0 255 0 54 15
-0.209774 -0.263630 0.042110 0 255 0 54 15
-0.229745 -0.229818 0.010111 0 255 0 54 15
-0.246409 -0.085767 0.016423 0 255 0 54 15
-0.218002 -0.114535 0.192110 0 255 0 54 15
-0.356491 -0.298318 0.016804 0 255 0 54 15
-0.298052 -0.104450 0.016824 0 255 0 54 15
-0.376976 -0.249067 0.010111 0 255 0 54 15
-0.319512 -0.302418 0.008110 0 255 0 54 15
-0.303328 -0.138039 0.016794 0 255 0 54 15
-0.211950 -0.202878 0.078110 0 255 0 54 15
-0.272585 -0.163708 0.016223 0 255 0 54 15
-0.204010 -0.217888 0.192110 0 255 0 54 15
-0.311519 -0.328365 0.002111 0 255 0 54 15
-0.201707 -0.239657 0.018110 0 255 0 54 15
-0.220935 -0.317826 0.016793 0 255 0 54 15
-0.214915 -0.223430 0.004110 0 255 0 54 15
-0.340875 -0.114752 0.016777 0 255 0 54 15
-0.308854 -0.281626 0.015651 0 255 0 54 15
-0.236499 -0.125789 0.016383 0 255 0 54 15
-0.208215 -0.092011 0.054110 0 255 0 54 15
-0.210754 -0.237848 0.048016 0 255 0 54 15
-0.248513 -0.131762 0.009122 0 255 0 54 15
-0.274501 -0.302504 0.009181 0 255 0 54 15
-0.282495 -0.123685 0.016315 0 255 0 54 15
-0.237378 -0.160187 0.016960 0 255 0 54 15
-0.212140 -0.319446 0.009141 0 255 0 54 15
-0.321261 -0.284798 0.009189 0 255 0 54 15
-0.210902 -0.215199 0.084111 0 255 0 54 15
-0.369277 -0.115889 0.016337 0 255 0 54 15
-0.209917 -0.186888 0.008110 0 255 0 54 15
-0.266356 -0.238522 0.009150 0 255 0 54 15
-0.213934 -0.197888 0.018110 0 255 0 54 15
-0.212008 -0.221878 0.036110 0 255 0 54 15
-0.231799 -0.169400 0.017330 0 255 0 54 15
-0.211127 -0.218404 0.068110 0 255 0 54 15
-0.215980 -0.128731 0.162110 0 255 0 54 15
-0.256795 -0.255744 0.009144 0 255 0 54 15
-0.200822 -0.267872 0.012893 0 255 0 54 15
-0.198632 -0.281581 0.120110 0 255 0 54 15
-0.299283 -0.323898 0.006111 0 255 0 54 15
-0.202564 -0.193746 0.094111 0 255 0 54 15
-0.206296 -0.135557 0.108111 0 255 0 54 15
-0.207298 -0.289759 0.048111 0 255 0 54 15
-0.207814 -0.104833 0.128110 0 255 0 54 15
-0.347120 -0.222739 0.009149 0 255 0 54 15
-0.371655 -0.281884 0.009126 0 255 0 54 15
-0.200122 -0.270265 0.032110 0 255 0 54 15
-0.218081 -0.099601 0.160111 0 255 0 54 15
-0.204403 -0.205070 0.192110 0 255 0 54 15
-0.224895 -0.299816 0.016696 0 255 0 54 15
-0.213990 -0.155273 0.148110 0 255 0 54 15
-0.293664 -0.110260 0.010111 0 255 0 54 15
-0.271811 -0.089164 0.016111 0 255 0 54 15
-0.370989 -0.164684 0.016369 0 255 0 54 15
-0.205616 -0.186627 0.194111 0 255 0 54 15
-0.211412 -0.238720 0.032110 0 255 0 54 15
-0.242980 -0.160975 0.009187 0 255 0 54 15
-0.264207 -0.187551 0.010111 0 255 0 54 15
-0.204418 -0.149965 0.102110 0 255 0 54 15
-0.207503 -0.107572 0.048111 0 255 0 54 15
-0.198668 -0.271658 0.172110 0 255 0 54 15
-0.208119 -0.307449 0.026111 0 255 0 54 15
-0.207363 -0.136974 0.018110 0 255 0 54 15
-0.391268 -0.111839 0.009814 0 255 0 54 15
-0.376265 -0.198272 0.009154 0 255 0 54 15
-0.215659 -0.284238 0.009191 0 255 0 54 15
-0.200360 -0.320429 0.196111 0 255 0 54 15
-0.338134 -0.317160 0.016562 0 255 0 54 15
-0.205357 -0.327061 0.047092 0 255 0 54 15
-0.358763 -0.241512 0.009137 0 255 0 54 15
-0.367310 -0.129893 0.016548 0 255 0 54 15
-0.206511 -0.325269 0.028110 0 255 0 54 15
-0.212784 -0.258858 0.010111 0 255 0 54 15
-0.319179 -0.248802 0.009163 0 255 0 54 15
-0.347650 -0.279938 0.016566 0 255 0 54 15
-0.270037 -0.195679 0.016111 0 255 0 54 15
-0.198877 -0.291876 0.018597 0 255 0 54 15
-0.197450 -0.319893 0.096110 0 255 0 54 15
-0.394758 -0.239431 0.011117 0 255 0 54 15
-0.218947 -0.091435 0.190110 0 255 0 54 15
-0.213171 -0.174591 0.088110 0 255 0 54 15
-0.377605 -0.259870 0.009147 0 255 0 54 15
-0.232654 -0.193799 0.016510 0 255 0 54 15
-0.201755 -0.229604 0.026111 0 255 0 54 15
-0.196726 -0.305636 0.060110 0 255 0 54 15
