ply
format ascii 1.0
element vertex 1164
property float x
property float y
property float z
property uchar red
property uchar green
property uchar blue
property uchar semantic_label
property uchar instance_label
end_header
0.768097 1.250518 -0.800066 97 73 52 0 0
1.093393 1.807754 -0.693375 83 66 43 2 1
1.080029 1.814473 -0.693411 85 67 41 2 1
0.751491 1.425013 -0.790686 92 70 44 2 1
0.742485 1.396814 -0.790125 90 69 42 0 0
0.750571 1.419084 -0.785806 93 71 40 0 0
0.734169 1.424812 -0.787921 93 70 43 0 0
0.834989 1.966076 -0.656631 40 20 8 7 2
0.736993 1.356789 -0.771069 92 72 49 2 1
0.912825 1.755440 -0.589988 53 32 17 7 2
0.913860 1.756285 -0.566180 56 32 17 7 2
0.899061 1.773769 -0.576069 54 32 16 7 2
0.913459 1.783407 -0.563938 49 29 17 7 2
0.899144 1.779942 -0.574879 49 28 11 7 2
0.912254 1.781763 -0.590595 52 28 17 7 2
0.779530 1.220843 -0.776664 101 79 47 2 1
0.717832 1.248198 -0.778639 95 72 47 2 1
0.729398 1.277806 -0.775059 94 72 43 2 1
0.795531 1.523551 -0.716146 94 65 42 7 2
0.815953 1.525127 -0.715670 91 63 39 7 2
1.166265 1.870433 -0.677397 97 74 49 2 1
0.706598 1.318250 -0.805658 99 78 47 2 1
0.707400 1.320166 -0.797794 90 70 47 0 0
0.722789 1.349787 -0.802374 93 70 54 2 1
0.721961 1.320122 -0.794680 88 69 43 0 0
0.712657 1.305739 -0.798001 88 68 40 0 0
0.724812 1.302817 -0.774410 87 69 36 2 1
0.689127 1.275487 -0.777781 92 71 48 2 1
0.711928 1.369584 -0.770641 89 68 50 2 1
0.904305 1.529558 -0.735544 68 53 32 7 2
0.702115 1.224854 -0.781266 93 74 44 2 1
0.726916 1.225039 -0.780468 97 77 47 2 1
0.916071 1.898369 -0.630062 42 22 10 7 2
0.915976 1.900331 -0.657964 41 22 10 7 2
0.917141 1.885059 -0.642403 41 21 9 7 2
0.924872 1.888589 -0.627067 43 24 11 7 2
0.913358 1.831132 -0.676520 41 22 11 7 2
0.713940 1.481123 -0.761145 87 68 43 2 1
0.722727 1.439974 -0.785790 93 70 44 0 0
0.696207 1.431106 -0.768317 84 66 39 2 1
0.669332 1.417186 -0.771017 89 71 43 2 1
0.714860 1.430337 -0.766335 92 71 41 2 1
0.713818 1.399351 -0.768320 93 69 46 2 1
0.762442 1.513067 -0.739162 143 109 77 7 2
0.772995 1.519451 -0.730351 138 100 68 7 2
1.095789 2.053724 -0.672783 77 57 40 2 1
0.884190 1.928130 -0.582566 41 21 9 7 2
0.868709 1.619274 -0.722843 80 49 24 7 2
1.152440 1.986596 -0.676485 82 65 37 2 1
1.145140 2.003434 -0.674449 84 65 46 2 1
0.736869 1.680655 -0.684027 82 53 23 7 2
0.698803 1.692355 -0.684925 85 54 27 7 2
0.699342 1.659632 -0.686200 92 60 34 7 2
0.920624 1.546341 -0.730428 76 58 41 7 2
0.824357 1.486125 -0.752615 74 53 31 2 1
1.023518 1.532776 -0.731128 92 68 48 7 2
1.026397 1.607663 -0.716025 90 70 47 2 1
1.050306 1.616818 -0.714983 92 69 47 2 1
0.851302 1.545076 -0.609265 43 24 10 7 2
0.820356 1.602332 -0.686570 94 59 26 7 2
0.817080 1.600642 -0.676305 94 58 36 7 2
0.813326 1.618666 -0.680219 96 59 33 7 2
0.796095 1.616395 -0.683808 95 63 31 7 2
0.807051 1.628348 -0.679038 96 59 32 7 2
0.699102 1.539691 -0.707111 88 62 36 7 2
0.717779 1.548463 -0.703190 93 65 39 7 2
0.814786 1.607618 -0.616185 91 66 44 7 2
0.812904 1.603859 -0.607428 84 52 19 7 2
0.818749 1.608469 -0.604319 84 49 23 7 2
0.818257 1.590435 -0.599780 87 52 20 7 2
0.815506 1.593348 -0.608256 90 54 17 7 2
0.950956 1.642852 -0.714563 83 64 40 7 2
0.963716 1.645498 -0.717104 84 67 43 7 2
0.851183 1.703649 -0.700066 65 39 20 7 2
0.853152 1.698867 -0.705176 59 33 18 7 2
0.858702 1.696955 -0.711227 57 35 18 7 2
0.855383 1.695351 -0.691566 67 42 19 7 2
0.858225 1.719113 -0.711679 58 36 19 7 2
0.870702 1.704092 -0.688672 73 40 18 7 2
0.860643 1.712821 -0.691593 68 37 17 7 2
0.758770 1.232778 -0.810136 91 70 37 2 1
0.717465 1.252183 -0.804410 101 78 55 0 0
0.735657 1.256095 -0.800067 98 80 44 0 0
0.737506 1.259673 -0.809613 101 76 49 2 1
0.761337 1.262880 -0.801103 94 74 47 0 0
0.735244 1.497096 -0.755635 72 53 35 2 1
0.737494 1.482251 -0.785993 83 65 41 0 0
0.737686 1.466443 -0.782347 88 67 41 0 0
0.727395 1.473254 -0.783324 85 66 43 0 0
0.771498 1.286994 -0.802313 103 79 55 2 1
0.769919 1.280303 -0.797681 94 74 43 0 0
0.774403 1.292821 -0.798183 93 74 44 0 0
0.755748 1.275293 -0.798252 92 69 50 0 0
0.764232 1.308044 -0.796735 91 70 45 0 0
0.715567 1.693725 -0.684330 83 51 23 7 2
0.704055 1.721086 -0.681947 79 46 25 7 2
0.801814 1.486107 -0.754681 70 56 33 2 1
0.797214 1.751788 -0.677881 56 31 12 7 2
0.796725 1.764179 -0.677179 53 29 13 7 2
0.798110 1.788324 -0.672385 49 29 13 7 2
0.961605 1.981985 -0.682921 82 60 38 2 1
0.882270 1.980642 -0.587927 42 23 9 7 2
0.823371 1.976434 -0.654554 38 22 13 7 2
0.927597 1.830836 -0.698888 60 41 27 2 1
0.931180 1.845140 -0.700336 60 42 32 2 1
0.909322 1.819144 -0.697278 51 34 19 2 1
1.169957 1.952680 -0.678796 83 65 45 2 1
0.893659 1.801166 -0.649862 42 22 10 7 2
0.893921 1.828137 -0.647309 43 22 12 7 2
0.894190 1.815754 -0.630543 47 23 13 7 2
0.895255 1.793273 -0.638557 46 25 9 7 2
0.886992 1.788127 -0.623598 48 24 8 7 2
0.850446 1.565391 -0.689235 90 61 33 7 2
0.915919 1.827572 -0.658270 41 22 9 7 2
0.915014 1.842429 -0.641253 46 22 10 7 2
0.878661 1.967515 -0.686638 62 35 17 2 1
0.866953 1.951155 -0.681944 42 23 8 7 2
0.852361 1.960322 -0.659293 40 20 9 7 2
0.846851 1.861056 -0.666874 40 20 8 7 2
0.834162 1.846152 -0.664594 41 19 10 7 2
0.818172 1.883495 -0.662303 40 20 10 7 2
0.833573 1.881508 -0.662090 40 21 11 7 2
0.913937 1.345254 -0.757846 94 72 46 2 1
0.929102 1.334314 -0.757013 92 74 43 2 1
0.929823 1.366189 -0.755911 101 78 50 2 1
0.745056 1.286769 -0.805865 90 65 46 2 1
0.738235 1.270623 -0.798098 96 75 48 0 0
0.729732 1.297357 -0.797254 88 68 40 0 0
0.748719 1.305471 -0.796641 89 68 45 0 0
0.738802 1.285955 -0.796932 93 71 46 0 0
0.883654 1.972567 -0.569191 41 21 10 7 2
0.873044 1.562865 -0.729797 25 17 7 7 2
0.873188 1.593690 -0.728018 41 30 13 7 2
0.867204 1.590504 -0.724890 61 37 25 7 2
0.709162 1.993457 -0.661376 48 25 13 7 2
0.687607 1.966054 -0.663087 49 26 10 7 2
0.746062 1.981256 -0.659138 48 25 12 7 2
0.781111 1.538482 -0.703184 90 64 40 7 2
0.761245 1.537767 -0.704469 90 62 32 7 2
0.693717 1.425647 -0.790021 88 69 43 0 0
0.741383 2.025515 -0.655290 68 36 12 7 2
0.733755 2.053971 -0.652332 66 37 17 7 2
0.742782 2.064010 -0.653505 66 36 13 7 2
0.679292 2.045295 -0.659199 67 38 11 7 2
0.866460 1.850202 -0.705673 43 28 15 2 1
0.860099 1.839797 -0.703118 40 22 13 2 1
0.877019 1.833511 -0.697107 40 20 9 7 2
0.854065 1.859106 -0.699206 39 21 11 7 2
0.860006 1.835982 -0.693799 40 20 9 7 2
0.867626 1.831807 -0.701666 42 20 14 7 2
0.942957 1.865615 -0.698286 81 62 40 2 1
0.976023 1.866415 -0.693937 81 61 44 2 1
0.843586 2.051609 -0.655404 67 35 9 7 2
0.838797 2.071490 -0.652528 69 35 17 7 2
0.852540 2.080021 -0.653175 70 36 20 7 2
1.060563 1.584541 -0.716835 92 74 48 2 1
0.851788 2.043724 -0.677299 67 37 12 7 2
0.881556 2.052773 -0.671963 71 37 18 7 2
0.850195 2.061018 -0.671749 67 36 12 7 2
0.865136 2.054718 -0.670321 69 36 19 7 2
0.858307 2.032483 -0.677211 69 37 15 7 2
0.858217 2.054136 -0.682526 61 46 29 2 1
0.871288 2.066458 -0.680264 59 46 27 2 1
0.887247 2.064964 -0.667405 68 37 15 7 2
0.880021 2.078702 -0.675418 71 47 25 2 1
1.052601 1.863270 -0.691270 84 63 38 2 1
0.844813 1.552161 -0.600955 54 33 11 7 2
0.841757 1.549237 -0.613604 57 34 12 7 2
0.842021 1.532878 -0.590490 83 50 23 7 2
0.847031 1.535133 -0.603422 74 45 21 7 2
0.896771 1.781286 -0.629574 49 27 9 7 2
0.897191 1.765507 -0.615717 53 31 10 7 2
0.909345 1.781049 -0.593539 51 27 14 7 2
0.897103 1.780471 -0.590812 51 29 10 7 2
0.899489 1.769495 -0.596529 52 25 12 7 2
0.903114 1.766960 -0.594833 54 31 17 7 2
0.911788 1.759999 -0.613820 55 31 16 7 2
0.896556 1.780558 -0.616481 51 27 13 7 2
0.911187 1.780527 -0.607279 51 27 11 7 2
0.906555 1.766343 -0.601290 53 31 15 7 2
0.790475 1.634493 -0.684398 94 61 36 7 2
0.959141 1.571584 -0.720594 88 67 41 7 2
0.686300 1.228836 -0.818220 98 76 45 2 1
0.688536 1.216061 -0.806304 98 78 46 0 0
0.726418 1.225590 -0.805296 98 79 48 0 0
0.700364 1.231168 -0.806260 97 74 46 0 0
0.715357 1.214111 -0.805532 96 78 46 0 0
0.884056 1.946400 -0.654068 41 21 11 7 2
0.892378 1.939337 -0.630363 42 22 10 7 2
0.888855 1.943128 -0.648732 42 22 14 7 2
0.996517 1.719456 -0.707098 86 66 45 2 1
1.013190 1.723025 -0.707182 90 69 48 2 1
0.776140 1.434794 -0.760996 88 66 39 2 1
0.754321 1.446824 -0.761801 88 66 41 2 1
0.745209 1.585350 -0.689631 98 64 35 7 2
0.726062 1.612567 -0.689299 99 64 34 7 2
0.756856 1.411245 -0.789876 91 69 44 0 0
0.973804 1.998255 -0.679730 81 62 42 2 1
0.923171 1.770843 -0.704386 59 41 27 7 2
0.940245 1.770578 -0.704814 76 58 34 7 2
1.038840 1.819688 -0.696223 83 64 44 2 1
1.016587 1.817908 -0.696571 82 63 43 2 1
0.946377 1.438400 -0.748363 93 72 45 2 1
0.932337 1.405985 -0.752579 95 73 51 2 1
0.911213 1.408569 -0.752844 93 71 42 2 1
0.854197 1.540135 -0.704368 94 65 30 7 2
0.857532 1.553651 -0.709911 96 62 30 7 2
0.916133 1.992965 -0.642331 52 28 14 7 2
0.915841 1.976779 -0.629845 50 23 14 7 2
0.926453 1.985951 -0.626575 54 29 14 7 2
0.761320 1.958926 -0.659951 40 19 13 7 2
1.025272 2.061419 -0.669981 81 62 44 2 1
0.917932 1.783345 -0.598225 54 30 19 7 2
0.927057 1.784141 -0.598210 51 31 12 7 2
0.920047 1.780088 -0.595470 53 28 16 7 2
0.915655 1.756181 -0.594662 54 31 16 7 2
0.923155 1.756609 -0.594669 56 31 16 7 2
0.918557 1.744310 -0.617265 51 29 13 7 2
0.919387 1.783093 -0.623874 51 28 13 7 2
0.928057 1.784267 -0.619983 49 29 15 7 2
1.114518 1.604500 -0.712523 90 70 39 2 1
0.840225 1.907169 -0.662135 40 21 9 7 2
0.716890 1.454655 -0.785053 93 68 43 0 0
0.743445 1.454071 -0.785673 91 69 43 0 0
0.745143 1.481332 -0.759560 82 66 46 2 1
0.743359 1.433549 -0.787077 94 72 51 0 0
0.954684 1.407818 -0.749893 93 74 49 2 1
0.967937 1.411943 -0.747299 92 76 48 2 1
0.701116 1.576383 -0.693916 105 66 38 7 2
0.724530 1.575284 -0.692861 99 65 32 7 2
0.873897 2.039797 -0.678559 66 43 25 2 1
0.884821 2.030003 -0.678113 66 45 32 2 1
0.884545 2.015005 -0.678457 70 36 20 2 1
0.875098 2.037366 -0.674875 69 37 16 7 2
0.875635 2.019859 -0.683759 70 43 18 2 1
0.852454 2.019246 -0.677768 67 38 17 7 2
0.856311 2.014209 -0.684842 71 41 20 2 1
0.861723 2.035324 -0.681208 64 44 27 2 1
0.876018 2.033373 -0.682303 68 44 29 2 1
0.867407 1.861421 -0.688112 41 21 11 7 2
0.887593 1.874165 -0.684883 40 21 9 7 2
0.880523 1.866815 -0.663039 41 20 9 7 2
0.874348 1.856952 -0.665870 40 20 11 7 2
0.827420 1.344720 -0.764676 89 69 42 2 1
0.724434 1.214678 -0.813319 99 77 49 2 1
0.689200 1.194744 -0.807916 94 74 47 0 0
0.711062 1.203976 -0.808280 100 77 55 0 0
0.884732 1.831068 -0.590878 46 23 12 7 2
0.885807 1.847239 -0.623374 51 25 12 7 2
0.886488 1.816167 -0.622777 47 23 13 7 2
1.022836 1.567532 -0.721424 91 70 49 2 1
0.881448 1.343451 -0.760427 89 70 47 2 1
0.966074 1.817723 -0.699271 82 63 43 2 1
0.990826 1.796962 -0.700298 84 66 38 2 1
0.960624 1.805003 -0.703107 81 64 38 2 1
0.885054 1.877315 -0.635072 41 21 11 7 2
0.885101 1.851238 -0.645549 42 20 10 7 2
0.807415 1.259898 -0.770846 92 69 44 2 1
0.818629 1.249374 -0.772088 92 76 48 2 1
0.793115 1.245958 -0.774719 95 74 49 2 1
1.100793 1.684732 -0.704664 88 66 46 2 1
1.135863 1.703868 -0.698169 88 70 47 2 1
0.897114 1.920793 -0.681296 41 22 13 7 2
0.914551 1.937450 -0.674351 43 22 9 7 2
0.883992 1.941579 -0.687521 51 30 11 2 1
0.919651 1.936963 -0.691543 54 31 13 2 1
0.909008 1.912069 -0.675666 42 22 12 7 2
0.884856 1.923463 -0.682365 39 21 9 7 2
0.881762 1.938752 -0.680925 41 22 8 7 2
0.906948 1.928873 -0.679940 47 26 12 7 2
0.781062 1.415567 -0.761445 87 69 42 2 1
0.759596 1.430411 -0.763317 90 71 45 2 1
0.789062 1.382067 -0.763469 93 69 41 2 1
0.982937 1.634513 -0.716985 89 68 45 2 1
0.996920 1.662907 -0.713167 85 66 41 2 1
0.759838 1.349638 -0.770290 88 68 44 2 1
0.922579 1.876218 -0.697973 78 58 34 2 1
0.896192 1.886449 -0.697966 53 33 21 2 1
0.948105 1.482603 -0.744970 90 72 45 2 1
0.924854 1.480785 -0.747931 88 68 50 2 1
0.911753 1.475911 -0.748348 88 68 50 2 1
0.914339 2.047549 -0.630098 64 35 13 7 2
0.891913 2.056763 -0.630304 67 36 13 7 2
0.913382 2.044713 -0.643488 63 34 14 7 2
0.890147 2.055078 -0.642525 75 40 19 7 2
0.910492 2.050667 -0.654784 64 34 13 7 2
0.908918 2.065306 -0.645731 66 36 11 7 2
0.687522 1.526838 -0.724542 162 121 83 7 2
0.720129 1.523735 -0.724675 129 93 62 7 2
0.705957 1.519295 -0.735168 172 131 86 7 2
0.876074 1.948599 -0.658190 42 21 13 7 2
0.876696 1.369541 -0.759504 89 68 42 2 1
0.852408 1.393365 -0.758585 87 67 39 2 1
1.146635 1.973672 -0.677747 80 63 38 2 1
1.002176 1.811522 -0.697186 84 65 38 2 1
0.903400 1.692671 -0.675599 84 52 24 7 2
0.895191 1.704173 -0.683078 84 50 23 7 2
0.912986 1.720364 -0.676250 74 43 22 7 2
0.897663 1.698791 -0.674876 84 50 25 7 2
0.908969 1.696069 -0.667002 69 39 19 7 2
0.899618 1.693401 -0.665142 71 40 19 7 2
0.906552 1.701205 -0.679265 85 51 25 7 2
0.879995 1.710346 -0.691188 75 44 23 7 2
0.904424 1.714921 -0.683830 79 45 23 7 2
0.891969 1.717663 -0.671188 82 49 25 7 2
0.883660 1.403665 -0.755098 87 68 43 2 1
0.910072 1.369905 -0.755759 93 71 43 2 1
0.850653 1.657501 -0.697051 82 47 22 7 2
0.850077 1.674408 -0.693561 81 47 22 7 2
0.838914 1.675233 -0.707281 75 45 21 7 2
0.839232 1.690570 -0.701715 69 41 22 7 2
0.826688 1.674347 -0.700352 69 41 23 7 2
0.819804 1.664190 -0.705652 84 50 22 7 2
0.843069 1.661999 -0.704713 84 49 22 7 2
0.826892 1.663132 -0.706573 84 50 20 7 2
0.833790 1.680920 -0.694631 79 45 19 7 2
0.838653 1.685788 -0.694306 77 45 19 7 2
0.846983 1.669769 -0.700854 76 44 19 7 2
0.926987 1.917091 -0.692901 57 35 21 2 1
0.785027 1.739657 -0.674770 63 34 21 7 2
0.801958 1.726975 -0.682553 67 38 14 7 2
0.881871 1.982666 -0.655088 50 25 11 7 2
1.147062 1.819567 -0.687003 94 73 43 2 1
1.137062 1.777567 -0.691417 89 69 45 2 1
0.900178 2.036415 -0.677778 67 44 26 2 1
0.889761 2.002642 -0.678111 74 40 22 7 2
0.902501 2.019889 -0.677108 74 45 22 7 2
0.908595 2.035573 -0.664209 75 42 17 7 2
0.896294 2.034805 -0.673182 72 41 16 7 2
0.836300 1.806399 -0.667354 41 22 10 7 2
0.852680 1.812815 -0.671332 43 22 11 7 2
0.848136 1.801113 -0.670792 43 23 10 7 2
0.692701 1.889992 -0.669657 43 23 13 7 2
0.807928 1.518818 -0.729967 151 115 79 7 2
0.811737 1.505607 -0.744726 91 68 41 7 2
0.799962 1.498367 -0.750234 77 60 40 2 1
0.788338 1.513482 -0.736802 109 82 59 7 2
0.891553 1.942376 -0.640222 41 22 13 7 2
0.932161 1.870996 -0.626159 33 20 9 7 2
0.682077 2.067456 -0.654445 70 39 13 7 2
1.137064 2.061315 -0.668711 84 62 43 2 1
0.892812 1.726818 -0.712155 59 35 22 7 2
0.896657 1.746418 -0.710395 55 36 20 7 2
0.891371 1.731420 -0.690477 60 35 17 7 2
0.892922 1.745491 -0.690570 57 32 16 7 2
0.744063 1.534557 -0.706380 90 64 42 7 2
0.735320 1.550258 -0.699762 88 56 28 7 2
0.720341 1.534390 -0.712812 93 63 33 7 2
0.915511 1.998336 -0.630034 53 27 13 7 2
0.891219 1.980085 -0.640767 44 24 7 7 2
0.891804 2.002694 -0.630317 46 23 8 7 2
0.887285 1.980513 -0.626112 46 23 10 7 2
0.888140 1.983907 -0.649861 52 27 10 7 2
0.916573 1.999707 -0.654240 56 31 8 7 2
0.885446 2.005942 -0.623941 51 26 12 7 2
0.889424 2.010984 -0.642795 48 26 15 7 2
0.747717 1.964999 -0.659143 47 25 11 7 2
1.072811 1.558121 -0.726079 94 72 47 2 1
0.853198 1.550759 -0.694525 85 62 29 7 2
0.818186 1.554019 -0.691868 87 61 36 7 2
0.837611 1.538255 -0.693115 88 69 47 7 2
0.901731 1.863502 -0.701204 44 27 16 2 1
0.889808 1.848644 -0.704039 42 28 16 2 1
0.755967 1.767738 -0.674827 57 33 16 7 2
0.784431 1.786992 -0.671691 56 30 15 7 2
0.778544 1.767572 -0.672849 59 30 17 7 2
0.914743 2.025037 -0.630754 57 31 10 7 2
0.927075 2.028429 -0.626756 61 36 14 7 2
0.863765 1.925887 -0.689147 42 23 10 7 2
0.862943 1.945583 -0.682315 40 21 7 7 2
0.854185 1.928421 -0.662458 39 21 9 7 2
0.878566 1.922797 -0.659140 40 22 9 7 2
1.086474 1.684843 -0.705240 91 67 48 2 1
0.751328 2.024724 -0.655682 63 33 18 7 2
0.722823 2.036118 -0.655545 68 35 10 7 2
0.828283 1.557465 -0.685908 81 58 31 7 2
0.846060 1.541858 -0.695130 80 56 30 7 2
0.841528 1.560896 -0.687239 89 62 31 7 2
0.783108 1.647354 -0.684007 83 51 20 7 2
0.803755 1.651513 -0.679796 85 52 24 7 2
0.824174 2.029193 -0.652781 64 33 14 7 2
0.801914 2.020960 -0.654679 59 32 11 7 2
0.916735 1.731150 -0.660118 58 33 13 7 2
0.735062 1.909817 -0.665175 41 22 10 7 2
1.143193 1.651477 -0.704323 92 73 45 2 1
1.118211 1.711817 -0.698995 90 70 44 2 1
0.857518 1.918280 -0.692864 44 23 14 7 2
0.868843 1.933428 -0.692673 48 28 14 2 1
0.867371 1.951573 -0.686916 50 28 17 2 1
0.865518 1.921001 -0.698347 47 25 14 2 1
0.950710 1.499396 -0.742653 94 72 47 2 1
0.966401 1.507843 -0.740433 90 69 49 2 1
0.978003 1.520713 -0.735338 91 75 46 7 2
0.913439 1.787624 -0.685730 43 24 8 7 2
0.889606 1.811297 -0.659908 42 24 12 7 2
0.888822 1.785044 -0.657762 53 28 11 7 2
0.998812 1.859843 -0.693758 82 62 48 2 1
0.959467 1.880879 -0.693677 82 63 43 2 1
0.768155 2.055161 -0.652257 64 35 12 7 2
0.688944 1.457629 -0.796011 94 73 53 2 1
0.687241 1.445719 -0.798209 91 70 48 2 1
0.692557 1.453851 -0.791843 88 69 38 0 0
0.919080 1.751378 -0.664688 51 28 10 7 2
0.920745 1.755501 -0.630232 50 28 9 7 2
0.999163 1.945021 -0.683836 84 64 40 2 1
0.978967 1.914513 -0.688293 78 66 26 2 1
0.957158 1.933467 -0.688350 83 64 41 2 1
0.893016 1.910247 -0.647637 42 22 9 7 2
0.886146 1.903037 -0.658203 41 21 12 7 2
0.889512 1.884456 -0.651837 40 22 11 7 2
0.892661 1.884617 -0.630696 43 19 9 7 2
0.893046 1.905247 -0.630226 41 20 10 7 2
0.881551 1.880217 -0.658000 41 22 11 7 2
1.075700 1.877620 -0.688715 83 62 34 2 1
1.078431 1.907922 -0.684655 84 66 41 2 1
1.042770 1.880555 -0.689722 88 65 43 2 1
0.896176 1.766919 -0.706865 48 28 16 7 2
0.893614 1.780451 -0.696737 45 24 15 7 2
1.059281 1.506694 -0.734511 92 73 53 2 1
0.880032 2.019331 -0.651521 60 33 11 7 2
0.869148 1.988447 -0.657784 61 33 17 7 2
0.872517 2.016914 -0.654245 59 33 14 7 2
0.851431 1.698842 -0.683747 79 44 20 7 2
0.839085 1.703825 -0.684042 77 41 21 7 2
0.828246 1.692206 -0.690745 74 44 16 7 2
0.871770 1.527879 -0.735263 45 34 18 7 2
0.867233 1.509059 -0.741857 48 37 21 7 2
0.846977 1.518078 -0.728979 80 51 24 7 2
0.914871 2.049677 -0.675526 58 48 42 2 1
0.775879 1.676262 -0.682921 82 51 22 7 2
0.916527 1.950775 -0.630157 42 22 11 7 2
0.915983 1.978598 -0.647165 46 24 8 7 2
0.923986 1.968566 -0.627060 48 25 11 7 2
1.081938 1.842477 -0.690944 87 67 46 2 1
1.131093 1.992441 -0.676368 81 64 40 2 1
0.883063 2.038818 -0.593583 61 31 13 7 2
0.880784 2.043068 -0.555691 56 28 15 7 2
1.018098 1.790143 -0.700411 86 66 40 2 1
0.750540 1.351858 -0.796602 84 67 45 0 0
0.740829 1.338974 -0.803162 95 73 52 2 1
0.731378 1.359397 -0.798167 88 67 43 0 0
0.719001 1.361149 -0.797454 88 67 43 0 0
0.743004 1.345167 -0.794989 89 71 42 0 0
0.861699 1.594227 -0.715895 96 59 34 7 2
0.855117 1.575489 -0.697316 94 61 32 7 2
0.850806 1.581602 -0.692557 94 59 31 7 2
0.870208 1.921985 -0.685681 40 21 10 7 2
0.858967 1.879281 -0.689270 40 20 12 7 2
0.877432 1.900330 -0.662354 42 22 12 7 2
0.872106 1.888872 -0.662323 41 21 9 7 2
0.858323 1.886253 -0.665880 40 22 9 7 2
0.857392 1.902232 -0.663597 41 21 11 7 2
0.889046 1.481663 -0.749465 73 58 36 2 1
0.885949 1.498376 -0.747440 78 58 33 2 1
0.851806 1.729605 -0.702443 53 30 19 7 2
0.874699 1.729055 -0.691430 57 34 15 7 2
0.853820 1.737333 -0.698229 54 31 17 7 2
0.861603 1.728891 -0.693568 60 31 12 7 2
0.868436 1.748784 -0.711890 38 24 13 7 2
0.869319 1.743420 -0.694958 54 29 12 7 2
0.928153 1.501520 -0.744591 92 70 47 7 2
0.947014 1.532194 -0.731056 81 63 40 7 2
0.937536 1.510473 -0.740892 84 64 39 7 2
0.994067 1.542245 -0.723254 94 71 50 7 2
0.987729 1.556245 -0.724880 90 71 48 7 2
1.019444 1.551932 -0.721364 92 74 49 7 2
0.807559 1.688538 -0.696320 75 44 16 7 2
0.806809 1.705387 -0.690472 72 42 19 7 2
0.901921 1.914080 -0.694752 48 28 17 2 1
0.908525 1.925782 -0.692395 46 27 13 2 1
0.883520 1.925332 -0.693545 46 26 12 2 1
1.020899 1.932537 -0.685651 87 69 40 2 1
0.978603 1.951536 -0.684016 82 64 36 2 1
0.815004 1.579669 -0.587610 93 54 25 7 2
0.818690 1.583192 -0.574031 84 50 15 7 2
0.813932 1.569698 -0.557857 77 48 14 7 2
0.818629 1.569938 -0.564388 78 47 17 7 2
0.895074 1.731880 -0.627589 58 32 17 7 2
0.912769 1.737201 -0.606951 56 30 16 7 2
0.912345 1.725280 -0.609058 56 31 21 7 2
0.894955 1.747236 -0.611266 54 29 18 7 2
0.902721 1.753246 -0.604280 56 30 17 7 2
0.896067 1.734156 -0.601548 53 32 18 7 2
0.897100 1.718794 -0.594072 63 33 19 7 2
0.918129 1.732198 -0.647084 55 31 16 7 2
0.914133 1.727437 -0.634064 54 30 13 7 2
0.900978 1.299516 -0.763436 90 69 44 2 1
0.865062 2.054567 -0.653606 66 36 14 7 2
0.853358 2.032657 -0.655657 64 35 14 7 2
0.879494 2.055123 -0.650105 68 35 15 7 2
0.695948 1.372900 -0.802544 96 70 52 2 1
0.683054 1.386956 -0.803405 87 70 37 2 1
0.725863 1.237333 -0.812095 92 67 47 2 1
0.744453 1.213173 -0.803788 102 81 55 0 0
0.748044 1.230118 -0.802727 106 84 54 0 0
1.019849 1.462915 -0.740196 101 80 57 2 1
1.010978 1.436817 -0.742394 98 77 50 2 1
1.035901 1.457024 -0.738083 99 76 50 2 1
0.844252 1.616471 -0.710673 89 55 33 7 2
0.843303 1.598910 -0.711903 94 61 27 7 2
0.822426 1.593857 -0.717266 93 61 32 7 2
1.049175 1.947598 -0.683173 84 65 40 2 1
1.077320 1.954232 -0.679583 80 65 42 2 1
0.913273 2.011888 -0.654348 57 33 10 7 2
0.891236 2.030119 -0.644202 76 39 16 7 2
0.879884 2.038564 -0.651984 73 40 15 7 2
0.913198 2.025137 -0.659047 74 42 22 7 2
0.988062 1.419067 -0.745523 102 79 53 2 1
0.917573 1.934626 -0.656318 41 22 11 7 2
0.916223 1.917650 -0.650463 41 23 12 7 2
0.923354 1.904812 -0.627332 41 22 10 7 2
0.922974 1.946942 -0.627584 44 24 11 7 2
0.914739 1.930906 -0.630533 42 22 11 7 2
1.105103 2.024312 -0.674316 77 56 34 2 1
1.121260 2.037697 -0.673430 82 64 44 2 1
0.865792 1.972895 -0.683217 63 36 21 7 2
0.856385 1.986941 -0.686554 65 38 25 2 1
0.869951 2.005839 -0.685583 65 38 22 2 1
0.875192 2.011763 -0.674817 65 31 13 7 2
0.890366 1.975956 -0.677686 61 32 11 7 2
0.860217 2.017661 -0.674269 64 36 12 7 2
0.857076 1.973159 -0.661093 44 23 10 7 2
0.871478 1.992623 -0.678172 63 34 15 7 2
0.879790 1.969155 -0.682071 64 36 15 7 2
0.856805 1.994188 -0.682161 70 39 18 7 2
0.869359 1.986379 -0.690234 70 40 18 2 1
0.713244 1.937764 -0.664105 39 20 8 7 2
0.916628 1.942633 -0.647501 42 23 12 7 2
0.930125 1.949538 -0.688273 82 64 39 2 1
1.174607 1.833227 -0.680839 97 74 50 2 1
0.850343 1.311474 -0.764935 89 71 40 2 1
0.833000 1.281974 -0.768572 93 71 42 2 1
0.884697 1.286854 -0.764221 88 70 41 2 1
1.163062 1.813567 -0.684981 98 74 48 2 1
1.030016 1.487670 -0.737296 100 79 50 2 1
1.115062 1.834568 -0.689384 86 65 42 2 1
1.092417 1.831312 -0.691975 87 65 42 2 1
0.706009 1.618822 -0.691319 93 60 33 7 2
0.714992 1.594780 -0.690556 99 63 38 7 2
0.766812 1.241942 -0.776107 96 75 50 2 1
0.802858 1.666465 -0.684997 84 50 21 7 2
0.799215 1.687456 -0.684269 81 48 21 7 2
0.798671 1.668261 -0.680766 81 51 17 7 2
0.795513 1.685048 -0.679605 79 50 22 7 2
1.054184 1.569548 -0.719047 98 73 45 2 1
0.892313 1.360340 -0.757765 96 71 52 2 1
0.752416 1.922522 -0.662676 39 20 11 7 2
0.802187 1.918068 -0.660425 39 21 8 7 2
0.774233 1.895686 -0.664199 39 20 7 7 2
0.791596 1.826770 -0.667660 43 22 9 7 2
0.809428 1.288094 -0.769341 94 74 40 2 1
0.825350 1.319022 -0.766320 86 67 42 2 1
0.809811 1.332791 -0.765476 92 71 46 2 1
0.784562 1.329067 -0.768322 89 67 42 2 1
0.912570 1.991302 -0.665341 67 37 18 7 2
0.906697 1.984760 -0.672522 62 34 15 7 2
0.907899 2.010594 -0.667985 67 36 14 7 2
0.885942 1.992396 -0.683077 67 38 15 2 1
0.901474 1.987765 -0.682905 71 40 18 2 1
0.891613 1.995107 -0.682081 70 38 18 7 2
0.898260 2.006243 -0.675911 76 42 18 7 2
0.915646 1.990653 -0.682933 74 42 19 2 1
0.906305 2.004001 -0.682721 73 42 20 2 1
0.896913 1.996487 -0.676783 69 34 16 7 2
0.911465 1.967237 -0.675924 52 27 11 7 2
0.893600 1.986071 -0.677750 55 28 12 7 2
0.809562 1.939317 -0.659070 40 20 11 7 2
0.831437 1.922235 -0.658644 40 20 12 7 2
0.839274 1.934191 -0.660767 39 20 12 7 2
0.828373 1.942438 -0.657833 40 20 12 7 2
0.810860 1.672549 -0.699775 84 48 24 7 2
0.808326 1.651284 -0.707838 82 49 23 7 2
0.808289 1.666861 -0.709031 81 49 21 7 2
0.808604 1.659923 -0.697937 79 51 16 7 2
0.721622 1.707393 -0.682921 83 50 23 7 2
0.750699 1.688350 -0.682037 82 50 24 7 2
1.103156 1.572357 -0.723985 92 72 46 2 1
0.892090 1.844631 -0.630404 42 21 11 7 2
0.891233 1.844292 -0.653325 42 21 15 7 2
0.890955 1.830267 -0.656479 42 23 13 7 2
0.917164 1.849957 -0.628899 39 23 10 7 2
0.815730 1.601154 -0.705622 92 58 26 7 2
0.811895 1.606572 -0.716797 92 57 30 7 2
0.702813 1.828342 -0.670287 44 24 14 7 2
0.911684 1.746736 -0.709211 65 43 26 7 2
0.945070 1.705051 -0.707809 73 51 26 7 2
0.860272 1.354351 -0.760237 88 68 45 2 1
0.819977 1.377230 -0.763573 86 65 43 2 1
0.975277 2.035189 -0.674375 80 60 40 2 1
0.980401 2.058123 -0.672734 69 60 51 2 1
0.954281 2.066671 -0.674256 69 56 47 2 1
0.883294 2.041095 -0.622257 60 31 14 7 2
0.800017 1.541240 -0.700635 86 59 37 7 2
0.785214 1.568709 -0.691571 97 61 32 7 2
0.797830 1.532535 -0.706556 87 62 43 7 2
0.817932 1.532973 -0.702245 90 65 36 7 2
0.718395 1.496482 -0.782373 78 59 38 0 0
0.687953 1.501513 -0.754303 80 59 39 7 2
0.682753 1.928642 -0.668857 43 22 11 7 2
0.871050 1.796522 -0.669398 47 25 13 7 2
0.868441 1.820464 -0.669447 43 22 10 7 2
0.848175 1.542152 -0.560102 47 28 13 7 2
0.837162 1.544280 -0.570730 85 50 19 7 2
0.844521 1.540898 -0.578162 71 43 20 7 2
0.833546 1.548959 -0.590660 90 49 18 7 2
0.841939 1.551249 -0.572803 76 45 19 7 2
0.835059 1.548862 -0.565809 85 52 20 7 2
0.848363 1.548984 -0.582651 53 30 14 7 2
0.850135 1.530041 -0.587204 71 44 21 7 2
1.010775 1.916451 -0.687099 86 65 43 2 1
1.045776 1.913651 -0.687406 84 66 41 2 1
1.014584 1.892057 -0.689960 85 65 46 2 1
1.051323 2.023463 -0.675826 62 55 39 2 1
1.074412 2.018356 -0.674168 72 58 37 2 1
1.048294 2.047057 -0.671679 80 63 41 2 1
0.808703 1.582992 -0.684102 96 62 32 7 2
1.007001 1.796487 -0.699402 86 63 43 2 1
0.991788 1.769106 -0.701702 79 61 43 2 1
0.854818 1.672197 -0.705215 74 46 24 7 2
0.854846 1.679578 -0.696504 78 45 26 7 2
0.859149 1.662575 -0.714087 80 49 26 7 2
0.867151 1.693763 -0.715724 61 34 21 7 2
0.895752 1.675559 -0.717010 52 31 16 7 2
0.875998 1.669221 -0.719157 62 38 15 7 2
0.870625 1.401447 -0.757210 90 69 41 2 1
0.833803 1.415565 -0.758884 87 69 41 2 1
0.919109 1.615179 -0.722628 70 55 33 7 2
0.938915 1.635109 -0.715732 75 61 29 7 2
0.904233 1.445916 -0.750353 91 71 45 2 1
0.799550 1.444425 -0.758186 83 66 39 2 1
0.893740 1.754861 -0.649444 58 31 14 7 2
0.889107 1.772752 -0.658332 56 32 14 7 2
0.893563 1.751736 -0.621296 50 29 13 7 2
0.893198 1.770775 -0.640121 52 30 10 7 2
0.921130 1.800717 -0.672997 42 23 10 7 2
0.917412 1.814260 -0.681019 41 22 8 7 2
0.916833 1.815186 -0.650495 42 21 14 7 2
0.714713 1.975510 -0.661323 43 24 9 7 2
0.698311 1.334841 -0.797440 91 67 40 0 0
0.718770 1.340199 -0.793873 92 71 43 0 0
0.696075 1.325340 -0.807163 87 63 44 2 1
0.708231 1.364325 -0.801740 92 73 44 2 1
0.720631 1.371337 -0.797316 91 70 42 0 0
0.697586 1.351491 -0.804183 94 72 44 2 1
0.682928 1.367328 -0.804932 90 69 49 2 1
0.706762 1.354697 -0.796425 84 67 42 0 0
0.698228 1.361368 -0.795064 89 70 41 0 0
0.992512 1.474619 -0.741338 97 75 47 2 1
0.746562 1.303067 -0.773811 86 67 38 2 1
0.734784 1.330894 -0.773233 85 67 40 2 1
0.883608 2.014001 -0.621947 51 25 12 7 2
0.884684 2.005482 -0.597829 49 25 12 7 2
0.882620 2.012119 -0.591911 54 26 12 7 2
0.858631 1.612823 -0.705397 91 57 26 7 2
0.973183 1.602704 -0.722261 89 71 39 2 1
0.986130 1.615918 -0.718885 92 68 44 2 1
0.915220 1.915809 -0.662208 42 22 13 7 2
0.890823 1.900722 -0.683338 43 23 13 7 2
0.893683 1.911461 -0.684125 45 25 14 7 2
0.909082 1.893890 -0.678741 43 22 12 7 2
0.879573 1.890377 -0.684572 41 21 11 7 2
0.913960 1.890201 -0.672774 41 22 12 7 2
0.861588 1.740210 -0.712325 36 23 10 7 2
0.855442 1.762437 -0.700186 43 24 13 7 2
0.870136 1.763185 -0.694194 44 25 12 7 2
0.860912 1.780551 -0.698115 42 23 11 7 2
0.883475 1.772312 -0.695789 41 22 10 7 2
0.858680 1.754279 -0.695983 49 26 19 7 2
0.853528 1.744128 -0.706401 40 24 14 7 2
0.913731 1.710715 -0.712735 62 39 18 7 2
0.872514 1.705732 -0.715665 55 35 16 7 2
0.915343 1.695126 -0.713458 60 41 22 7 2
0.892209 1.717296 -0.691525 69 41 16 7 2
1.023114 1.698554 -0.708828 88 69 49 2 1
1.018301 1.624741 -0.715156 90 67 39 2 1
0.953308 1.596261 -0.719737 82 63 40 7 2
0.968520 1.596864 -0.722892 86 67 41 7 2
0.968634 1.620668 -0.720048 81 64 38 7 2
0.768889 1.925634 -0.663033 40 21 8 7 2
0.712619 1.732899 -0.679349 63 38 18 7 2
0.678062 1.786817 -0.677226 54 33 17 7 2
1.136562 1.889942 -0.680334 93 70 51 2 1
1.153253 1.884996 -0.678744 94 73 51 2 1
0.790812 2.006318 -0.654970 54 29 10 7 2
0.775969 1.977943 -0.657758 49 22 9 7 2
0.756698 1.980703 -0.658991 51 24 12 7 2
0.708491 1.329871 -0.773636 90 70 44 2 1
0.884491 1.835448 -0.701937 46 28 17 7 2
0.897013 1.831886 -0.690956 42 21 12 7 2
0.912179 1.841576 -0.702550 46 29 20 2 1
0.904097 1.825051 -0.696549 41 23 11 7 2
0.797782 1.386552 -0.762707 88 67 49 2 1
0.805275 1.398671 -0.760822 90 67 43 2 1
0.819667 1.398142 -0.760993 92 68 46 2 1
0.779354 1.852644 -0.666959 42 20 13 7 2
0.921661 1.789724 -0.660787 43 25 10 7 2
0.911999 1.869191 -0.672604 41 22 9 7 2
0.893013 1.864675 -0.686916 41 21 10 7 2
0.915292 1.861534 -0.661162 41 22 9 7 2
0.912706 1.852882 -0.674057 42 23 10 7 2
0.903393 1.878797 -0.683991 41 21 9 7 2
0.885242 1.987874 -0.622229 41 22 10 7 2
0.907888 1.617777 -0.723413 61 45 26 7 2
0.933241 1.581573 -0.722896 78 60 37 7 2
0.915229 1.571324 -0.726308 86 57 31 7 2
0.965630 1.693036 -0.712248 83 65 43 7 2
0.990242 1.688224 -0.710441 85 68 43 2 1
0.961302 1.714141 -0.711444 86 67 42 7 2
0.953053 1.904965 -0.691453 77 59 40 2 1
0.708502 2.041396 -0.657491 72 39 18 7 2
0.700740 1.477668 -0.784382 89 68 46 0 0
0.713653 1.483142 -0.781433 89 68 43 0 0
0.707411 1.500899 -0.785770 80 64 44 2 1
0.704600 1.492540 -0.758976 75 56 34 2 1
0.710202 1.634607 -0.689021 97 63 30 7 2
1.120562 1.754067 -0.695035 85 68 41 2 1
1.097562 1.779067 -0.695096 86 67 46 2 1
0.916099 1.959293 -0.666993 47 23 10 7 2
0.893793 1.940698 -0.682179 50 26 15 7 2
0.892996 1.954055 -0.685542 53 27 14 7 2
0.895352 1.963975 -0.686034 62 35 13 2 1
0.911977 1.968133 -0.686628 66 38 15 2 1
0.907247 1.939812 -0.688150 55 32 16 2 1
0.899674 1.954116 -0.689000 58 34 14 2 1
0.915132 1.952311 -0.666378 45 23 10 7 2
0.905858 1.951667 -0.680300 45 25 11 7 2
0.896550 1.963473 -0.681581 57 30 14 7 2
1.090747 2.021485 -0.672581 74 58 37 2 1
0.915169 1.844443 -0.659387 42 20 9 7 2
0.907930 1.829195 -0.686907 41 21 12 7 2
0.882967 1.831899 -0.663454 44 19 11 7 2
0.884570 1.837285 -0.687676 40 20 11 7 2
0.900326 1.847732 -0.687109 40 20 12 7 2
0.768468 1.238965 -0.806028 94 71 45 2 1
0.750549 1.249059 -0.801644 99 81 52 0 0
0.775572 1.237743 -0.801685 104 81 55 0 0
0.884533 1.971734 -0.594700 43 23 15 7 2
0.716301 1.273706 -0.808303 102 80 58 2 1
0.708137 1.295935 -0.801618 89 65 43 0 0
0.717024 1.281926 -0.800882 99 79 48 0 0
0.692310 1.307472 -0.809793 95 75 47 2 1
0.719179 1.300130 -0.806105 94 72 45 2 1
1.130437 1.810318 -0.689971 89 70 41 2 1
1.152218 1.842474 -0.683471 83 67 44 2 1
0.947515 1.618788 -0.715846 77 59 33 7 2
0.938344 1.598411 -0.720437 77 58 39 7 2
0.679652 1.879645 -0.671112 40 24 10 7 2
0.809383 1.634356 -0.691911 86 53 23 7 2
0.810913 1.641760 -0.702830 84 51 24 7 2
0.824386 1.646241 -0.711028 87 51 27 7 2
0.811251 1.637444 -0.713112 85 53 16 7 2
1.043998 1.634457 -0.713805 90 69 46 2 1
0.719289 1.769554 -0.675252 65 39 20 7 2
0.721450 1.559553 -0.698274 93 59 29 7 2
0.753949 1.560410 -0.694605 94 60 32 7 2
0.857629 1.855936 -0.693378 42 20 12 7 2
0.856404 1.895319 -0.698440 34 20 10 2 1
0.857460 1.861330 -0.703000 34 20 12 2 1
0.853997 1.876916 -0.693363 42 20 12 7 2
1.142512 1.868758 -0.682724 87 66 42 2 1
1.094552 1.880392 -0.687446 84 64 38 2 1
0.943058 1.344699 -0.755778 96 76 49 2 1
0.712076 1.956996 -0.663116 43 21 12 7 2
1.173812 1.747067 -0.691072 95 75 50 2 1
0.839746 1.473975 -0.753657 84 65 46 2 1
0.944156 1.671608 -0.711735 82 55 31 7 2
0.920872 1.654161 -0.716558 71 48 25 7 2
0.824120 1.520024 -0.730370 137 103 73 7 2
0.846071 1.502147 -0.744888 76 60 41 7 2
0.701546 2.019286 -0.660412 64 33 12 7 2
0.764629 1.501859 -0.748598 86 65 41 2 1
0.743075 1.515904 -0.737867 158 121 84 7 2
0.976549 1.385373 -0.748536 98 77 51 2 1
0.848455 2.056783 -0.678648 57 50 40 2 1
1.069058 1.698915 -0.705987 83 66 44 2 1
1.045176 1.695509 -0.709337 89 67 50 2 1
1.064812 1.714067 -0.704553 81 62 39 2 1
1.053062 1.771692 -0.700333 84 68 42 2 1
0.862199 1.734363 -0.679390 60 37 14 7 2
0.879159 1.721565 -0.679156 74 43 19 7 2
0.883905 1.902568 -0.572191 45 22 12 7 2
0.903318 1.691773 -0.653314 65 37 14 7 2
0.903239 1.702032 -0.651538 64 36 16 7 2
0.903352 1.698863 -0.640294 65 37 18 7 2
0.914875 1.712771 -0.665456 59 32 13 7 2
0.898855 1.696684 -0.644226 65 37 16 7 2
0.911848 1.713457 -0.650518 57 34 11 7 2
0.899670 1.710616 -0.645320 64 33 17 7 2
0.908273 1.713074 -0.629658 58 33 15 7 2
0.740193 1.316234 -0.802629 98 74 55 2 1
0.727419 1.326871 -0.804415 92 70 45 2 1
0.736628 1.310171 -0.796952 92 71 43 0 0
0.740943 1.332503 -0.795714 88 69 45 0 0
0.752834 1.326895 -0.795110 98 76 52 0 0
0.956500 1.756994 -0.708261 83 66 38 7 2
0.749404 1.528185 -0.712861 95 66 38 7 2
0.741826 1.525123 -0.719003 101 72 45 7 2
0.716719 1.184674 -0.783418 108 88 57 2 1
0.739562 1.200317 -0.781476 100 80 53 2 1
1.070875 1.776942 -0.698209 87 67 47 2 1
1.042031 1.723844 -0.706342 85 66 42 2 1
0.768062 1.735568 -0.676486 67 42 24 7 2
1.170562 1.772755 -0.688379 94 72 50 2 1
0.917170 1.851647 -0.655890 42 21 10 7 2
0.917985 1.877636 -0.656853 41 21 10 7 2
0.917709 1.872802 -0.628417 46 26 14 7 2
0.884447 1.864911 -0.585316 47 26 12 7 2
0.903083 1.503553 -0.744509 75 57 35 7 2
0.921965 1.788226 -0.627253 49 30 17 7 2
0.932673 1.795601 -0.626310 49 28 15 7 2
1.048635 1.840513 -0.694211 82 63 44 2 1
0.755686 1.844868 -0.668043 40 21 10 7 2
0.708222 1.868158 -0.668260 42 22 11 7 2
0.732395 1.851380 -0.668862 41 22 10 7 2
0.725484 1.869889 -0.668011 41 20 10 7 2
0.728077 1.884372 -0.669498 45 23 9 7 2
1.034128 2.028188 -0.674121 81 64 39 2 1
0.878424 1.428434 -0.754956 92 73 51 2 1
0.922372 2.028606 -0.627113 65 35 19 7 2
0.922929 2.051568 -0.626616 64 34 20 7 2
0.800275 1.875654 -0.664734 41 23 10 7 2
0.818062 1.845817 -0.665038 40 21 9 7 2
0.821019 1.783694 -0.671991 51 29 11 7 2
0.841938 1.791626 -0.670852 51 28 14 7 2
0.828959 1.761996 -0.674732 55 32 16 7 2
0.857728 1.757654 -0.675285 53 30 14 7 2
0.755089 1.324545 -0.802612 92 70 47 2 1
0.760269 1.344782 -0.797195 88 67 44 0 0
0.760359 1.308553 -0.802782 96 75 48 2 1
0.761814 1.322397 -0.797709 93 73 44 0 0
0.877858 1.280051 -0.764542 91 73 44 2 1
1.182563 1.876068 -0.675264 102 77 51 2 1
0.724885 1.659216 -0.685437 87 56 25 7 2
0.915992 1.796366 -0.641106 46 21 9 7 2
0.914937 1.781112 -0.630003 47 24 13 7 2
0.915576 1.821116 -0.629743 47 24 13 7 2
0.921091 1.776943 -0.648708 44 24 11 7 2
0.934303 1.808546 -0.626458 49 27 13 7 2
0.867878 1.448197 -0.754069 92 68 45 2 1
1.025788 1.861319 -0.692473 84 65 41 2 1
1.090691 1.723604 -0.702073 86 64 46 2 1
1.098647 1.753094 -0.698728 85 65 42 2 1
0.737738 1.783424 -0.672772 49 26 11 7 2
1.041912 1.497105 -0.736215 98 77 55 2 1
0.795568 2.059088 -0.651332 66 35 11 7 2
0.729327 1.377755 -0.770455 91 70 44 2 1
1.170454 1.895937 -0.675118 94 73 46 2 1
0.979527 1.509448 -0.738069 92 72 44 2 1
0.999514 1.522838 -0.735631 92 71 54 7 2
0.718538 1.240816 -0.803266 100 76 54 0 0
0.700143 1.266510 -0.800919 100 78 46 0 0
0.713043 1.265765 -0.802180 101 74 52 0 0
0.720340 1.260923 -0.810282 94 68 46 2 1
0.701132 1.244520 -0.813774 101 78 49 2 1
0.692829 1.251458 -0.803550 97 73 52 0 0
0.700852 1.277821 -0.810159 102 80 53 2 1
0.841528 2.029177 -0.655692 51 27 13 7 2
0.838738 1.986202 -0.657758 44 23 8 7 2
0.861238 1.476924 -0.751771 86 66 42 2 1
0.854019 1.494028 -0.749349 78 55 34 2 1
1.067286 1.926828 -0.684068 86 66 41 2 1
1.026923 1.656738 -0.711221 83 65 41 2 1
1.015762 1.682505 -0.710683 87 67 43 2 1
0.956584 1.778608 -0.705928 83 65 41 7 2
0.872827 1.972907 -0.658754 43 22 10 7 2
1.064062 1.678568 -0.708381 90 69 46 2 1
1.051880 1.658272 -0.711985 90 67 45 2 1
0.857348 1.778044 -0.706620 44 26 14 7 2
0.866099 1.807729 -0.703301 45 25 15 7 2
0.873097 1.803954 -0.699524 46 25 12 7 2
0.877624 1.793476 -0.696881 40 21 11 7 2
0.856097 1.788818 -0.702498 44 23 11 7 2
0.862446 1.798447 -0.696757 44 26 13 7 2
0.873940 1.805297 -0.703442 41 24 14 7 2
0.863039 1.773132 -0.709190 42 24 12 7 2
0.965302 1.674155 -0.714237 81 64 42 7 2
0.953263 1.680339 -0.710997 80 60 38 7 2
0.989276 1.744230 -0.705346 87 66 45 2 1
1.120322 1.990279 -0.675751 77 62 41 2 1
1.090818 1.970101 -0.677633 74 57 39 2 1
1.094619 1.992567 -0.676733 75 61 42 2 1
1.074881 1.979866 -0.676400 70 59 39 2 1
1.060062 1.820567 -0.695084 86 67 44 2 1
1.087023 1.599612 -0.712783 89 70 46 2 1
1.096954 1.605613 -0.712793 91 66 47 2 1
1.081788 1.622623 -0.710788 89 71 48 2 1
1.129866 1.934542 -0.675959 83 63 40 2 1
1.138345 1.951482 -0.676947 85 69 44 2 1
1.141897 1.920260 -0.676572 80 67 42 2 1
0.757542 1.520522 -0.726578 93 65 39 7 2
0.776946 1.526900 -0.709673 90 58 35 7 2
1.099676 1.641318 -0.709206 92 72 48 2 1
1.085013 1.653736 -0.708818 89 70 44 2 1
1.100571 1.925355 -0.680768 88 67 50 2 1
0.961018 1.524365 -0.733334 92 73 52 7 2
0.972110 1.537038 -0.724836 93 73 48 7 2
0.974565 1.547288 -0.722361 89 70 47 7 2
0.944844 1.546465 -0.727062 88 68 48 7 2
0.696794 1.430259 -0.796526 89 72 45 2 1
0.713005 1.420027 -0.796486 95 73 49 2 1
0.686382 1.405983 -0.792323 88 68 44 0 0
0.719793 1.414378 -0.792217 90 71 42 0 0
0.710661 1.419577 -0.789977 90 69 51 0 0
0.717016 1.406409 -0.797305 91 70 46 2 1
0.702712 1.415128 -0.791248 89 70 44 0 0
0.910388 2.027103 -0.679125 72 47 30 2 1
0.931043 2.048715 -0.676670 70 46 29 2 1
0.692992 1.476870 -0.794503 101 73 50 2 1
0.702764 1.483567 -0.791153 82 62 39 2 1
0.721509 1.495727 -0.786079 85 63 43 2 1
0.693263 1.472535 -0.787689 86 68 44 0 0
0.971664 1.568790 -0.724725 94 69 47 7 2
0.904483 1.714522 -0.619063 60 34 19 7 2
0.902659 1.713388 -0.600222 61 35 20 7 2
0.898326 1.717370 -0.622711 61 34 17 7 2
0.747763 1.653731 -0.685749 94 59 29 7 2
0.728340 1.644457 -0.687109 95 60 35 7 2
0.753343 1.636568 -0.686275 96 62 37 7 2
0.775912 1.582214 -0.688507 100 64 33 7 2
0.790167 1.608324 -0.685524 90 59 31 7 2
0.779597 1.594192 -0.686568 97 64 36 7 2
0.755299 1.610705 -0.687316 91 60 33 7 2
1.018422 1.499294 -0.736138 96 72 52 2 1
1.006695 1.405763 -0.745144 104 79 53 2 1
0.884833 1.788561 -0.579237 51 29 10 7 2
0.883795 1.828567 -0.564191 51 27 11 7 2
0.881342 2.057070 -0.622277 63 34 13 7 2
0.883043 2.056331 -0.605820 64 33 12 7 2
0.752833 1.569857 -0.692922 86 58 30 7 2
0.771530 1.560675 -0.694394 85 58 31 7 2
0.840899 1.569529 -0.691633 95 62 36 7 2
0.844404 1.575033 -0.702739 96 61 31 7 2
0.832969 1.575178 -0.706859 93 62 28 7 2
0.829493 1.583151 -0.686799 94 62 30 7 2
0.854065 1.586058 -0.694855 97 61 33 7 2
0.836082 1.582221 -0.714620 93 59 27 7 2
0.817796 1.593307 -0.711360 94 63 27 7 2
0.774901 1.493103 -0.753121 79 57 38 2 1
0.849623 1.993487 -0.658453 47 23 10 7 2
0.707681 1.445311 -0.789022 92 69 44 0 0
0.702077 1.458438 -0.788829 89 68 45 0 0
0.695126 1.439250 -0.792606 93 70 48 0 0
0.725416 1.450654 -0.791577 93 70 46 2 1
0.896472 1.744108 -0.640554 55 32 10 7 2
0.895780 1.729201 -0.642481 59 31 14 7 2
0.885977 1.910188 -0.623573 42 22 10 7 2
0.885526 1.922838 -0.623526 41 21 10 7 2
0.885524 1.943567 -0.610691 41 22 11 7 2
1.106947 1.958938 -0.676528 81 63 42 2 1
1.111270 1.967353 -0.676513 87 68 47 2 1
1.129617 1.974930 -0.675411 82 59 44 2 1
0.915953 1.736385 -0.670676 68 39 19 7 2
0.916005 1.746970 -0.675406 58 33 14 7 2
0.883765 1.736528 -0.670731 77 44 22 7 2
0.908277 1.736455 -0.683677 70 40 18 7 2
0.894020 1.720322 -0.659936 77 45 23 7 2
1.050752 1.971979 -0.680838 83 63 41 2 1
1.050183 2.008463 -0.676486 81 61 38 2 1
0.929074 1.891781 -0.695063 48 29 17 2 1
0.891738 1.651615 -0.719219 73 44 23 7 2
0.881128 1.773632 -0.667406 59 31 17 7 2
0.873562 1.765710 -0.671497 57 33 14 7 2
0.857732 1.783643 -0.672576 48 27 11 7 2
0.825295 1.573476 -0.679452 97 64 33 7 2
0.993328 1.997224 -0.678896 80 64 40 2 1
1.006173 2.030861 -0.674332 78 61 36 2 1
0.986548 2.024444 -0.676075 81 61 40 2 1
0.838687 1.438192 -0.756112 84 70 40 2 1
0.896908 1.785252 -0.705668 49 29 17 7 2
0.882666 1.792939 -0.706005 48 28 18 7 2
0.894940 1.795482 -0.694656 40 21 12 7 2
0.894535 1.811586 -0.697845 40 22 14 7 2
0.905754 1.811630 -0.693617 41 22 12 7 2
0.889391 1.812417 -0.702074 47 30 16 7 2
0.932716 1.753744 -0.705896 77 62 35 7 2
0.944641 1.732246 -0.705962 78 62 32 7 2
1.158562 2.010567 -0.673042 78 60 42 2 1
0.818267 1.734355 -0.679177 65 38 20 7 2
0.832354 1.725364 -0.680346 67 39 25 7 2
0.827142 1.750504 -0.677560 59 34 13 7 2
0.845256 1.751959 -0.674375 58 35 17 7 2
0.849274 1.724451 -0.677889 68 42 17 7 2
0.866062 1.319817 -0.763034 90 67 45 2 1
1.162461 1.922107 -0.676574 87 66 41 2 1
1.161123 1.939110 -0.677814 86 66 39 2 1
0.755223 1.398155 -0.791215 92 69 44 2 1
0.862650 1.637125 -0.717026 84 54 28 7 2
0.856897 1.648603 -0.705552 83 51 29 7 2
0.855723 1.613956 -0.700060 85 52 20 7 2
0.880288 1.620268 -0.724445 78 47 24 7 2
0.859603 1.632082 -0.712068 86 51 26 7 2
0.855583 1.648906 -0.698979 84 51 21 7 2
0.868938 1.654182 -0.720329 76 48 25 7 2
0.879582 1.649770 -0.720726 77 48 25 7 2
0.885102 1.875309 -0.624021 41 21 9 7 2
0.885158 1.885005 -0.607067 43 20 10 7 2
0.820320 1.799981 -0.669098 44 24 10 7 2
0.861867 1.707033 -0.685901 75 42 21 7 2
0.880308 1.709819 -0.683896 75 44 21 7 2
0.867696 1.727164 -0.681231 71 41 21 7 2
0.944257 2.035658 -0.678144 84 64 42 2 1
1.012540 1.762573 -0.703905 84 64 45 2 1
1.034495 1.753975 -0.702896 86 65 45 2 1
0.931035 1.848592 -0.625351 44 25 13 7 2
0.706160 1.789067 -0.674666 46 27 16 7 2
0.736062 1.401567 -0.766784 95 72 43 2 1
0.931671 1.984424 -0.684842 72 47 25 2 1
0.949069 2.012199 -0.680827 68 57 47 2 1
0.925243 2.007913 -0.681835 76 46 25 2 1
0.748084 1.872906 -0.668355 41 23 9 7 2
0.770771 1.852334 -0.667203 41 20 11 7 2
0.851074 1.606649 -0.701773 85 52 22 7 2
0.843032 1.643016 -0.706728 85 50 26 7 2
0.813131 1.625718 -0.714551 86 54 17 7 2
0.828500 1.627807 -0.712964 86 52 23 7 2
0.850653 1.640793 -0.699978 83 50 23 7 2
0.699062 1.205067 -0.783342 102 82 55 2 1
0.772923 1.305343 -0.770446 89 71 47 2 1
0.748566 1.268100 -0.774961 89 69 45 2 1
0.784399 1.264905 -0.772789 92 69 45 2 1
0.772812 1.287817 -0.772300 89 69 40 2 1
0.868033 1.535522 -0.731454 46 33 22 7 2
0.865670 1.567100 -0.723632 25 15 6 7 2
0.885880 1.540508 -0.733320 43 31 17 7 2
0.863100 1.547367 -0.723862 27 14 8 7 2
1.069134 2.041416 -0.668013 79 58 42 2 1
1.081706 2.042894 -0.671387 78 58 36 2 1
1.042580 2.059387 -0.666022 69 52 31 2 1
1.083475 2.066146 -0.670952 72 53 37 2 1
1.011558 1.989146 -0.680349 80 65 37 2 1
1.038783 1.975930 -0.680265 83 66 36 2 1
0.742562 1.819193 -0.669178 44 23 12 7 2
0.727567 1.837289 -0.668085 45 25 9 7 2
0.696847 1.389879 -0.802132 83 64 48 2 1
0.708002 1.380287 -0.798056 91 71 52 2 1
0.715958 1.389586 -0.794433 90 71 41 0 0
0.700980 1.372730 -0.795213 91 72 45 0 0
0.689946 1.392100 -0.792228 90 70 43 0 0
0.716463 1.389206 -0.798270 83 59 42 2 1
0.909359 1.756991 -0.687753 58 32 17 7 2
0.888206 1.753756 -0.664632 67 40 21 7 2
0.917207 1.769603 -0.677935 45 25 10 7 2
0.901475 1.768078 -0.692452 44 24 8 7 2
0.851642 1.538918 -0.593206 44 22 9 7 2
0.851278 1.531066 -0.575866 42 24 9 7 2
0.892782 2.045458 -0.673600 70 38 15 7 2
0.910477 2.064681 -0.660406 70 38 15 7 2
0.894780 2.070194 -0.667776 70 38 15 7 2
0.880798 2.052970 -0.679079 71 38 16 2 1
0.907087 2.046707 -0.665417 74 36 20 7 2
0.898490 2.049525 -0.667943 71 39 14 7 2
0.898681 2.062601 -0.678071 58 49 41 2 1
0.762802 1.883322 -0.664410 42 22 10 7 2
0.758509 1.492493 -0.755691 76 56 38 2 1
0.776547 1.483117 -0.755592 71 56 33 2 1
0.709662 1.456245 -0.793896 93 67 44 2 1
0.735212 1.471895 -0.790465 90 69 47 2 1
0.741690 1.438051 -0.792112 87 64 37 2 1
0.719747 1.435312 -0.794707 87 64 37 2 1
0.919390 1.456088 -0.749093 93 71 47 2 1
0.921042 1.434138 -0.751366 99 77 45 2 1
0.955062 1.360670 -0.754192 96 75 41 2 1
0.949862 1.964574 -0.685410 77 63 37 2 1
0.924622 1.974923 -0.687517 73 56 33 2 1
1.158428 2.033808 -0.671192 76 55 37 2 1
1.142812 2.031567 -0.672410 82 60 44 2 1
1.028581 1.957827 -0.683550 86 66 45 2 1
0.766001 2.026127 -0.654287 65 35 19 7 2
0.747038 1.250420 -0.775998 99 75 49 2 1
0.915646 1.882415 -0.662758 42 22 11 7 2
0.774695 1.823264 -0.667032 45 24 12 7 2
0.793661 1.799400 -0.668584 45 25 11 7 2
0.762772 1.791137 -0.670806 55 28 16 7 2
0.778354 1.796622 -0.668929 47 27 13 7 2
0.903440 1.723352 -0.593310 60 35 19 7 2
0.734707 1.407273 -0.795965 91 72 42 2 1
0.738861 1.384567 -0.794910 92 70 46 0 0
0.724134 1.398749 -0.794670 91 71 46 0 0
0.812399 1.613623 -0.597345 79 48 17 7 2
0.813379 1.597965 -0.583975 78 47 18 7 2
0.816807 1.601365 -0.588484 81 48 21 7 2
0.744570 1.471188 -0.785923 88 66 44 0 0
0.951352 1.831720 -0.700560 81 61 43 2 1
0.994053 1.829033 -0.696926 82 63 35 2 1
1.097433 1.550928 -0.727114 92 72 46 2 1
1.075042 1.579584 -0.716965 89 68 43 2 1
1.102816 1.589837 -0.716841 90 71 42 2 1
0.824507 2.009785 -0.654405 61 31 16 7 2
0.714747 1.912188 -0.668337 42 22 11 7 2
0.881142 1.568069 -0.729827 54 38 30 7 2
0.897372 1.564137 -0.728756 82 52 27 7 2
0.894686 1.607579 -0.724578 49 35 24 7 2
1.136062 1.728568 -0.695712 89 68 43 2 1
1.047557 1.545212 -0.728981 89 72 54 7 2
1.073189 1.532312 -0.729240 92 71 47 2 1
0.805249 1.712323 -0.685128 73 41 16 7 2
0.793361 1.717813 -0.677088 76 44 21 7 2
0.791829 1.697023 -0.678064 81 47 23 7 2
0.795254 1.347703 -0.765274 88 67 37 2 1
0.877150 1.883670 -0.702484 45 25 15 2 1
0.882098 1.910279 -0.697887 42 27 17 2 1
0.864527 1.903351 -0.699471 31 22 12 2 1
0.870589 1.898502 -0.688429 41 22 12 7 2
0.857770 1.902564 -0.694832 42 23 11 7 2
0.856861 1.838915 -0.669094 40 21 13 7 2
0.881434 1.810240 -0.665991 42 23 12 7 2
0.748052 1.706853 -0.681273 82 47 23 7 2
0.773145 1.701713 -0.679985 80 46 22 7 2
0.802053 1.688335 -0.362343 160 97 45 7 2
0.790615 1.658641 -0.357819 172 115 54 7 2
0.815413 1.664933 -0.362418 167 114 59 7 2
0.810850 1.671242 -0.355989 168 119 76 7 2
0.796727 1.680671 -0.353467 168 119 76 7 2
0.818797 1.675169 -0.357786 169 116 60 7 2
0.813423 1.684077 -0.354608 171 119 70 7 2
0.866065 2.039215 -0.369154 40 22 6 7 2
0.877981 2.057819 -0.399216 43 20 11 7 2
0.878144 2.064323 -0.409639 43 21 12 7 2
0.868370 2.029999 -0.377283 51 27 10 7 2
0.844277 1.590497 -0.386099 51 32 13 7 2
0.843054 1.611392 -0.391202 53 34 12 7 2
0.838627 1.612795 -0.372042 60 39 20 7 2
0.843195 1.601927 -0.381734 56 36 17 7 2
0.846908 1.605586 -0.386829 48 31 15 7 2
0.848788 1.623276 -0.372369 58 38 18 7 2
0.793868 1.555085 -0.402047 101 72 34 7 2
0.884097 1.936627 -0.432736 53 30 15 7 2
0.905975 1.940409 -0.433939 45 26 14 7 2
0.898013 1.920794 -0.433846 65 41 18 7 2
0.691434 1.902645 -0.317790 146 130 126 7 2
0.695678 1.887681 -0.317675 201 218 247 7 2
0.718698 1.670085 -0.431741 86 68 45 7 2
0.713324 1.656278 -0.424111 87 64 41 7 2
0.711134 1.668886 -0.431865 102 76 44 7 2
0.695403 2.071929 -0.310508 172 113 56 7 2
0.681895 1.534549 -0.386292 141 97 47 7 2
0.903438 2.036490 -0.375591 41 22 14 7 2
0.896777 2.030404 -0.371623 43 24 12 7 2
0.890334 1.593709 -0.341076 172 107 60 7 2
0.870767 1.592580 -0.341570 171 107 58 7 2
0.865264 1.604374 -0.355634 174 116 54 7 2
0.881985 1.605180 -0.353552 173 112 55 7 2
0.882751 1.622405 -0.353354 173 111 49 7 2
0.869041 1.635305 -0.353491 174 112 54 7 2
0.859415 1.631798 -0.369033 137 92 36 7 2
0.874614 1.579394 -0.357969 174 112 57 7 2
0.897026 1.764976 -0.565315 58 32 16 7 2
0.914120 1.768708 -0.563632 54 31 15 7 2
0.898614 1.779772 -0.566682 53 32 17 7 2
0.887310 1.783912 -0.562726 54 32 16 7 2
0.863253 2.033670 -0.300285 164 103 49 7 2
0.881150 1.910694 -0.464278 48 27 14 7 2
0.880743 1.908139 -0.450913 52 28 14 7 2
0.936231 2.069906 -0.433788 66 42 21 7 2
0.928474 2.059840 -0.433659 86 62 42 7 2
0.743395 1.760141 -0.354406 176 128 113 7 2
0.745269 1.754284 -0.349913 182 182 195 7 2
0.732889 1.757286 -0.352784 203 220 241 7 2
0.736523 1.766409 -0.349401 191 202 219 7 2
0.735766 1.769092 -0.353454 185 179 180 7 2
0.729063 1.793140 -0.351582 188 175 163 7 2
0.747201 1.777163 -0.350250 190 208 234 7 2
0.841982 1.713686 -0.539540 45 29 14 7 2
0.839333 1.729670 -0.447439 58 39 18 7 2
