ply
format ascii 1.0
element vertex 1136
property float x
property float y
property float z
property uchar red
property uchar green
property uchar blue
property uchar semantic_label
property uchar instance_label
end_header
0.644504 0.569289 0.402226 53 43 33 0 0
0.669221 0.567125 0.405605 76 65 50 0 0
0.654131 0.573845 0.411253 52 44 32 0 0
0.660530 0.571903 0.412780 52 44 32 0 0
0.642357 0.572077 0.405612 52 43 32 0 0
0.647600 0.586518 0.414898 53 44 35 0 0
0.648222 0.575512 0.420174 79 66 52 0 0
0.504244 0.062664 -0.116086 42 30 19 7 3
0.462589 0.033225 -0.116601 43 31 16 7 3
-0.222683 0.344665 0.187638 136 124 108 40 6
-0.235453 0.335884 0.187724 137 125 109 40 6
0.553209 0.472135 0.051000 90 77 55 1 2
0.572501 0.471911 0.074500 93 76 55 1 2
0.150322 0.030556 -0.118795 38 27 15 7 3
0.185731 0.048881 -0.118661 38 28 15 7 3
0.533665 0.053050 -0.115781 42 30 18 7 3
0.521803 0.039600 -0.116154 44 31 16 7 3
-0.182079 0.497343 0.594375 134 119 98 1 2
-0.174307 0.498155 0.627214 135 118 96 1 2
0.058921 0.495572 0.635801 127 112 92 1 2
0.031873 0.496740 0.625531 128 113 93 1 2
0.043901 0.496171 0.637818 128 112 97 1 2
-0.157555 0.082219 -0.006679 35 28 22 40 6
-0.142616 0.107107 -0.006134 38 34 24 40 6
-0.128577 0.106317 0.016489 44 38 28 40 6
-0.139254 0.082883 0.002835 30 24 17 40 6
-0.049806 0.489261 0.261500 108 93 75 1 2
-0.025814 0.488210 0.249125 110 94 74 1 2
0.157914 0.241872 -0.061874 6 5 2 0 0
0.140409 0.240840 -0.069952 8 5 1 0 0
0.162641 0.240929 -0.051303 10 8 3 0 0
-0.035092 0.495676 0.596462 139 120 102 1 2
0.232306 0.480102 0.102210 88 73 55 1 2
0.217399 0.476319 0.077490 83 73 51 1 2
0.190999 0.491682 0.345325 118 104 82 1 2
0.542998 0.074168 -0.115122 43 31 18 7 3
-0.203585 0.077552 -0.060980 72 62 47 40 6
0.312253 0.093420 -0.117177 39 28 14 7 3
0.273686 0.073225 -0.117783 40 30 13 7 3
0.312730 0.124187 -0.116999 39 30 13 7 3
-0.094425 0.497082 0.556504 140 120 97 1 2
-0.103855 0.497127 0.551000 141 121 98 1 2
-0.087475 0.496377 0.536098 137 119 95 1 2
0.711675 0.352767 -0.130314 43 34 20 7 3
0.701865 0.345837 -0.128081 43 34 20 7 3
0.701884 0.336810 -0.123306 44 33 22 7 3
0.717256 0.344180 -0.127029 43 34 20 7 3
0.690191 0.335324 -0.120323 44 32 20 7 3
0.710133 0.359342 -0.125578 43 33 20 7 3
0.698170 0.350331 -0.124271 42 32 22 7 3
0.271104 0.089949 -0.117512 40 28 17 7 3
0.224878 0.495778 0.619942 121 106 87 1 2
0.196157 0.494923 0.619418 121 107 88 1 2
0.653733 0.468483 0.045500 93 78 57 1 2
0.213100 0.228867 -0.115235 7 5 1 7 3
0.218877 0.204234 -0.115576 26 17 8 7 3
0.576138 0.528270 0.397316 101 89 70 0 0
0.555821 0.485026 0.481280 109 96 71 1 2
0.562056 0.485404 0.496550 112 97 74 1 2
0.431827 0.489017 0.529653 115 99 79 1 2
0.438783 0.488306 0.549652 115 98 76 1 2
0.099319 0.494972 0.661826 127 112 92 1 2
0.115788 0.495621 0.666738 126 112 91 1 2
0.102992 0.496425 0.646611 126 111 92 1 2
0.186002 0.495680 0.698353 125 111 92 1 2
0.150215 0.495152 0.704994 125 110 91 1 2
0.134608 0.497187 0.809205 126 112 94 1 2
0.127094 0.497025 0.796035 125 111 93 1 2
0.416528 0.491389 0.718298 119 102 82 1 2
0.439722 0.489503 0.742000 118 103 82 1 2
0.195946 0.495293 0.687830 123 108 89 1 2
0.201529 0.494435 0.662219 122 108 88 1 2
0.230114 0.493546 0.697958 123 109 87 1 2
0.246211 0.495652 0.655862 119 107 86 1 2
0.259052 0.495183 0.685388 122 107 85 1 2
0.289476 0.492267 0.683750 121 107 86 1 2
0.273251 0.492977 0.667877 121 105 87 1 2
0.271670 0.493588 0.695275 123 107 87 1 2
0.011322 0.498813 0.708956 131 116 96 1 2
-0.009053 0.498210 0.703758 132 116 98 1 2
0.305937 0.492000 0.679065 120 106 86 1 2
0.306059 0.492671 0.666250 119 107 85 1 2
0.283646 0.492442 0.651137 120 105 86 1 2
0.282149 0.494621 0.775669 121 107 85 1 2
0.504070 0.490099 0.671073 114 101 77 1 2
0.527177 0.490648 0.668773 115 100 81 1 2
-0.231851 0.492069 0.773319 89 69 50 38 5
-0.181148 0.498843 0.700455 143 126 104 1 2
-0.202673 0.499564 0.692812 141 124 101 1 2
0.132581 0.495160 0.746679 125 110 93 1 2
0.150108 0.495872 0.740741 124 111 91 1 2
0.138876 0.495232 0.731603 126 113 95 1 2
0.167635 0.495908 0.758995 126 111 92 1 2
0.303618 0.491559 0.735997 120 106 87 1 2
0.315439 0.494294 0.771151 120 105 87 1 2
0.348219 0.492395 0.756144 121 105 85 1 2
0.326530 0.492348 0.752617 122 107 84 1 2
-0.023195 0.497700 0.662621 130 115 97 1 2
-0.043221 0.497678 0.677121 132 116 98 1 2
-0.007096 0.496187 0.662937 130 116 96 1 2
0.361710 0.490530 0.690961 119 105 85 1 2
0.381885 0.490636 0.759782 120 104 82 1 2
-0.024044 0.499490 0.788748 132 117 99 1 2
-0.024046 0.498317 0.767105 132 116 97 1 2
-0.049045 0.497865 0.779269 132 118 99 1 2
0.396025 0.490925 0.707531 119 104 81 1 2
-0.073428 0.498254 0.806116 135 120 100 1 2
-0.094392 0.500740 0.808813 136 120 100 1 2
0.019083 0.497160 0.788245 130 116 96 1 2
0.026482 0.497198 0.805868 129 116 95 1 2
0.261505 0.494844 0.782449 123 107 87 1 2
-0.202790 0.500780 0.770541 146 127 108 1 2
-0.213006 0.499035 0.763749 137 120 98 38 5
0.439704 0.489589 0.695673 116 102 79 1 2
0.463642 0.488012 0.689487 117 101 79 1 2
0.485449 0.490213 0.721092 115 102 80 1 2
0.252206 0.495421 0.796099 122 106 85 1 2
0.232070 0.496415 0.800187 123 108 88 1 2
0.440581 0.489832 0.715547 116 103 81 1 2
0.414854 0.490660 0.708193 117 101 82 1 2
0.405041 0.491464 0.697682 117 103 82 1 2
-0.030802 0.497844 0.759004 134 118 101 1 2
-0.066622 0.498631 0.762000 133 117 101 1 2
-0.065797 0.499582 0.779430 133 119 100 1 2
0.244576 0.493830 0.767618 123 108 88 1 2
0.236781 0.494655 0.751160 122 108 88 1 2
0.210608 0.493108 0.780487 124 107 90 1 2
0.123900 0.497254 0.651610 125 112 91 1 2
0.123317 0.496123 0.679938 125 111 91 1 2
-0.244160 0.485734 0.658865 79 61 44 38 5
0.505009 0.490556 0.710366 115 102 77 1 2
0.485330 0.489770 0.699490 114 102 79 1 2
0.031265 0.497604 0.825252 131 114 95 1 2
-0.126296 0.498763 0.759000 149 127 107 1 2
-0.108996 0.499120 0.747891 143 125 102 1 2
-0.119927 0.498272 0.778464 136 120 102 1 2
0.146718 0.493996 0.776763 125 109 91 1 2
0.371130 0.490237 0.746386 120 105 83 1 2
0.511416 0.489793 0.689625 114 99 76 1 2
-0.094840 0.497927 0.767841 135 120 101 1 2
-0.074735 0.497866 0.764436 133 119 100 1 2
-0.077784 0.498668 0.780319 134 120 100 1 2
-0.098481 0.498503 0.781401 135 120 102 1 2
-0.065897 0.498757 0.798593 133 119 100 1 2
-0.040909 0.498256 0.808812 135 119 96 1 2
-0.066352 0.498980 0.818412 135 118 102 1 2
0.533479 0.489091 0.691000 113 100 77 1 2
-0.199738 0.500503 0.727916 141 124 102 1 2
0.278739 0.493156 0.755908 120 107 87 1 2
0.259729 0.492322 0.757231 122 107 86 1 2
0.085703 0.497177 0.654644 127 112 93 1 2
0.056318 0.496856 0.675298 127 113 94 1 2
0.085674 0.497349 0.678154 128 113 94 1 2
0.076348 0.496231 0.686594 127 112 93 1 2
0.425095 0.490449 0.663723 118 103 82 1 2
0.061368 0.496549 0.723290 130 113 95 1 2
0.084936 0.497706 0.750618 129 113 96 1 2
0.469450 0.488831 0.660872 115 101 80 1 2
-0.047307 0.497020 0.737743 132 118 100 1 2
-0.043437 0.497154 0.702309 132 118 100 1 2
-0.142425 0.497748 0.650500 137 121 97 1 2
-0.179130 0.498022 0.672813 139 122 100 1 2
-0.147539 0.497986 0.670500 140 123 98 1 2
-0.159963 0.498815 0.687136 141 125 100 1 2
0.462244 0.488896 0.733000 117 101 82 1 2
0.208548 0.494080 0.793270 124 109 91 1 2
-0.081841 0.498568 0.681865 139 121 100 1 2
-0.079487 0.497602 0.689613 147 126 104 1 2
-0.117502 0.498304 0.686590 149 130 109 1 2
0.301956 0.493079 0.758422 121 106 87 1 2
0.283270 0.493362 0.743632 121 106 85 1 2
0.135518 0.495985 0.686283 125 111 89 1 2
0.128107 0.495576 0.701068 126 111 92 1 2
0.180546 0.496002 0.653027 124 110 90 1 2
0.176689 0.496912 0.686328 124 109 92 1 2
0.160311 0.496348 0.661818 123 110 91 1 2
-0.087622 0.497564 0.741742 133 120 100 1 2
-0.093107 0.496762 0.730507 135 119 97 1 2
0.250952 0.493171 0.704402 121 107 86 1 2
0.243859 0.493993 0.731605 120 106 90 1 2
-0.263512 0.483251 0.772871 70 49 25 38 5
0.269931 0.493759 0.730678 121 107 87 1 2
0.317040 0.492554 0.680376 121 106 86 1 2
0.316646 0.491810 0.700776 121 107 87 1 2
0.294349 0.492722 0.710259 121 106 85 1 2
-0.108873 0.497087 0.790095 135 120 100 1 2
-0.124527 0.498941 0.796647 136 120 102 1 2
0.268380 0.494903 0.793504 123 108 87 1 2
0.056729 0.497641 0.774243 130 114 97 1 2
0.029473 0.497404 0.779960 129 115 95 1 2
0.176544 0.495164 0.792725 125 109 92 1 2
0.155723 0.494293 0.789000 126 110 90 1 2
0.161548 0.494614 0.807883 125 111 92 1 2
0.006392 0.497265 0.678875 131 116 98 1 2
0.034113 0.497666 0.672253 130 114 96 1 2
0.009715 0.496935 0.656922 129 115 97 1 2
0.407704 0.489317 0.657318 117 103 82 1 2
0.391117 0.490067 0.657250 118 104 83 1 2
0.396662 0.490425 0.676000 118 104 82 1 2
0.378555 0.489772 0.668000 119 104 85 1 2
0.418218 0.490293 0.682250 119 103 83 1 2
0.062419 0.495442 0.706318 126 113 95 1 2
0.086079 0.495890 0.713304 126 113 93 1 2
0.052639 0.498233 0.716887 129 113 97 1 2
0.095628 0.496050 0.731949 124 113 91 1 2
0.099729 0.497208 0.716778 127 113 94 1 2
0.321314 0.492799 0.710358 120 106 86 1 2
-0.211162 0.497428 0.650500 130 114 94 38 5
-0.202837 0.499503 0.666174 137 119 97 1 2
0.202875 0.493074 0.737135 122 109 88 1 2
0.184386 0.495217 0.750867 122 110 91 1 2
0.179056 0.495383 0.732665 124 109 90 1 2
0.010508 0.497500 0.758014 130 116 96 1 2
0.007238 0.498235 0.773132 132 115 97 1 2
0.209749 0.494717 0.813472 124 109 90 1 2
0.494063 0.489442 0.661275 114 102 80 1 2
0.478834 0.489799 0.675569 116 101 80 1 2
0.335522 0.491805 0.657128 119 104 82 1 2
0.330150 0.491681 0.687024 119 103 84 1 2
-0.182883 0.500866 0.788006 149 130 107 1 2
0.300418 0.493916 0.775902 120 106 86 1 2
0.333172 0.493680 0.783329 119 106 84 1 2
0.097647 0.496647 0.791451 127 112 93 1 2
0.090081 0.496810 0.805869 129 114 93 1 2
0.118160 0.496248 0.820015 127 112 92 1 2
-0.117877 0.499208 0.732845 153 133 104 1 2
-0.124785 0.498610 0.736389 154 134 106 1 2
0.226774 0.495651 0.671371 123 107 89 1 2
0.241416 0.494818 0.687887 122 107 88 1 2
0.097615 0.498552 0.760624 126 114 92 1 2
-0.212737 0.498547 0.778872 139 121 97 38 5
-0.151465 0.501063 0.744099 146 128 105 1 2
-0.137393 0.499598 0.736816 145 126 102 1 2
-0.154394 0.500289 0.719198 143 126 103 1 2
0.042498 0.497759 0.730468 129 114 95 1 2
0.019608 0.498361 0.725483 131 114 96 1 2
0.053612 0.496888 0.742500 129 114 96 1 2
0.032534 0.497188 0.753989 131 114 96 1 2
0.547666 0.487868 0.662960 112 100 75 1 2
0.551699 0.489551 0.677619 113 100 76 1 2
0.564740 0.488364 0.665572 114 100 76 1 2
0.347392 0.490150 0.675378 118 104 83 1 2
0.378340 0.489781 0.691897 118 103 85 1 2
0.353048 0.490687 0.651000 120 104 83 1 2
0.226840 0.494867 0.736626 122 109 88 1 2
-0.072923 0.498145 0.705374 133 118 99 1 2
-0.086092 0.496663 0.711850 133 119 100 1 2
-0.074510 0.497355 0.723289 135 118 99 1 2
0.347089 0.492425 0.712264 120 104 85 1 2
0.351937 0.492498 0.731000 119 106 86 1 2
0.327453 0.492597 0.732500 119 105 85 1 2
0.212303 0.493736 0.699570 123 109 87 1 2
0.031537 0.497578 0.699476 131 115 96 1 2
0.047654 0.497664 0.694000 127 114 96 1 2
0.033388 0.498910 0.714248 129 115 94 1 2
-0.057888 0.495888 0.686543 131 116 99 1 2
-0.043776 0.497592 0.650603 129 117 98 1 2
-0.068072 0.495892 0.669209 132 117 100 1 2
-0.268507 0.480942 0.729559 71 49 27 38 5
-0.246991 0.487029 0.757577 76 53 27 38 5
-0.249483 0.486551 0.735099 76 55 33 38 5
0.072905 0.496767 0.766070 129 113 96 1 2
0.069945 0.496388 0.810537 129 113 95 1 2
0.129840 0.496113 0.719798 127 112 93 1 2
0.093265 0.497858 0.691659 126 111 93 1 2
0.212779 0.495017 0.720572 121 108 86 1 2
-0.180787 0.499354 0.716015 146 128 105 1 2
-0.153708 0.498984 0.705271 142 125 103 1 2
0.580262 0.487760 0.664001 113 98 80 1 2
-0.171553 0.498838 0.729219 145 127 107 1 2
0.191361 0.496114 0.775511 125 109 91 1 2
0.207358 0.493979 0.763710 124 109 90 1 2
-0.234604 0.489004 0.721484 98 81 62 38 5
-0.232126 0.491019 0.736321 88 71 51 38 5
-0.211139 0.498684 0.726908 132 117 93 38 5
-0.010623 0.498012 0.742750 130 115 98 1 2
-0.031930 0.498783 0.731291 131 117 99 1 2
-0.000126 0.497579 0.721503 133 116 94 1 2
0.001997 0.496653 0.736834 132 116 100 1 2
0.021347 0.497968 0.746008 132 115 96 1 2
0.064872 0.498258 0.796478 129 115 94 1 2
0.037676 0.498438 0.797799 130 115 95 1 2
0.054224 0.496516 0.805136 130 115 95 1 2
0.050004 0.496302 0.821395 131 115 97 1 2
0.384180 0.491525 0.717878 116 103 84 1 2
0.405885 0.490163 0.744010 119 104 83 1 2
-0.215221 0.496841 0.691063 108 94 75 38 5
-0.230888 0.490557 0.698250 104 89 70 38 5
-0.135384 0.497093 0.686210 141 124 100 1 2
-0.121094 0.497902 0.670343 143 123 101 1 2
0.262026 0.493978 0.709000 120 108 87 1 2
-0.153466 0.499285 0.764773 146 128 104 1 2
-0.163273 0.500502 0.793000 149 130 103 1 2
-0.141063 0.500546 0.784405 147 129 108 1 2
-0.233690 0.489441 0.674000 78 60 41 38 5
-0.244014 0.486685 0.672344 78 56 35 38 5
-0.186402 0.498000 0.652436 142 123 99 1 2
-0.181174 0.497390 0.685949 143 123 101 1 2
0.140667 0.495614 0.761790 125 111 93 1 2
0.130100 0.495965 0.770586 127 111 96 1 2
0.043385 0.498284 0.673547 129 112 94 1 2
-0.174672 0.500428 0.760727 148 129 107 1 2
-0.186357 0.501455 0.757647 150 129 106 1 2
0.164277 0.495245 0.734416 125 110 92 1 2
0.187935 0.496380 0.721869 126 110 93 1 2
0.161838 0.495711 0.725393 126 111 90 1 2
-0.240505 0.487832 0.701625 82 64 44 38 5
-0.252140 0.486028 0.713412 75 53 30 38 5
-0.006154 0.497983 0.783220 132 117 98 1 2
-0.012714 0.499896 0.813747 132 117 96 1 2
-0.007945 0.497679 0.799481 132 117 96 1 2
-0.030166 0.499234 0.797634 132 119 97 1 2
0.115963 0.496635 0.756169 127 115 93 1 2
0.105011 0.496373 0.773665 125 113 94 1 2
0.081652 0.496018 0.781445 127 113 93 1 2
-0.074178 0.498444 0.747933 134 118 100 1 2
-0.064806 0.497041 0.728953 133 118 100 1 2
-0.034560 0.498160 0.704000 132 116 98 1 2
0.247199 0.494777 0.666951 121 107 85 1 2
-0.129678 0.497672 0.704981 147 128 103 1 2
-0.114756 0.498165 0.710244 149 131 109 1 2
0.225685 -0.400185 -0.799201 30 31 32 2 4
0.204059 -0.409869 -0.799939 29 31 29 2 4
0.218194 -0.427901 -0.799384 32 34 35 2 4
-0.244355 0.055391 -0.807100 11 13 10 2 4
0.655832 -0.089438 -0.763803 3 5 4 2 4
0.667129 -0.101444 -0.762427 4 6 5 2 4
0.663302 -0.117795 -0.764616 4 6 5 2 4
0.365020 -0.209255 -0.793316 20 22 22 2 4
0.343531 -0.220355 -0.795087 20 22 24 2 4
0.343983 -0.209584 -0.795606 20 22 23 2 4
0.449631 -0.008596 -0.570737 1 2 2 0 0
0.454638 -0.003268 -0.554525 1 3 2 0 0
0.445729 -0.006829 -0.581913 4 5 5 0 0
-0.050154 -0.145971 -0.806979 19 21 20 2 4
-0.025526 -0.166976 -0.805700 19 21 21 2 4
0.075414 -0.480225 -0.805492 36 39 38 2 4
-0.145160 -0.274092 -0.810960 29 34 34 2 4
-0.126304 -0.259254 -0.810062 27 32 34 2 4
-0.151030 -0.265141 -0.809784 28 33 32 2 4
-0.156956 -0.256144 -0.810628 31 34 35 2 4
0.287804 -0.359114 -0.797721 28 30 31 2 4
0.306929 -0.350887 -0.796009 26 31 29 2 4
0.282868 -0.341135 -0.796634 25 30 27 2 4
0.409940 0.004521 -0.589817 13 13 9 0 0
0.194104 -0.326405 -0.799034 26 29 28 2 4
0.048616 -0.539105 -0.805593 39 41 36 2 4
0.021107 -0.544704 -0.807145 37 40 38 2 4
-0.088688 -0.514513 -0.806527 40 49 46 2 4
0.534268 -0.325080 -0.788046 25 27 26 2 4
0.550611 -0.305746 -0.786989 23 26 28 2 4
0.515559 -0.301225 -0.788821 23 25 26 2 4
0.531207 -0.309407 -0.789503 25 26 26 2 4
-0.268558 -0.406291 -0.820366 37 40 43 2 4
-0.241854 -0.378392 -0.814069 41 43 44 2 4
-0.260059 -0.381006 -0.815012 41 43 44 2 4
0.471999 -0.186327 -0.789826 18 20 19 2 4
0.447277 -0.171921 -0.791232 17 19 18 2 4
0.234426 -0.324068 -0.798080 25 29 27 2 4
0.250398 -0.369262 -0.797638 26 31 29 2 4
0.210272 -0.208914 -0.797186 19 25 24 2 4
0.352932 -0.248389 -0.793784 20 24 25 2 4
0.308667 -0.255046 -0.795962 22 25 26 2 4
0.321842 -0.224508 -0.795043 21 24 23 2 4
0.338430 -0.238559 -0.795838 20 24 23 2 4
0.364910 -0.480966 -0.795796 30 34 32 2 4
0.364821 -0.500723 -0.796431 31 34 35 2 4
0.389409 -0.498785 -0.796269 34 36 35 2 4
-0.234407 -0.024626 -0.809821 17 20 19 2 4
-0.218633 -0.038469 -0.811084 15 19 18 2 4
-0.181249 -0.213284 -0.811888 29 32 32 2 4
-0.168787 -0.235264 -0.811891 26 33 33 2 4
-0.197093 -0.255154 -0.812595 30 33 34 2 4
-0.170192 -0.224961 -0.811245 29 31 33 2 4
0.299848 -0.091332 -0.796954 12 14 13 2 4
-0.174456 -0.371736 -0.811480 33 36 39 2 4
-0.171906 -0.345396 -0.811464 34 36 37 2 4
-0.190070 -0.364857 -0.810821 32 38 37 2 4
0.656593 -0.025212 -0.765086 3 5 4 2 4
0.651805 -0.038048 -0.764463 3 5 4 2 4
0.657646 -0.049593 -0.758570 3 5 4 2 4
0.297988 -0.323622 -0.795930 26 29 29 2 4
-0.283930 -0.011558 -0.810911 17 21 22 2 4
-0.285651 -0.031990 -0.810825 17 21 23 2 4
0.640805 -0.278761 -0.775999 16 19 20 2 4
0.617103 -0.284354 -0.777514 18 20 22 2 4
0.590661 -0.268870 -0.781624 21 25 25 2 4
0.594880 -0.283750 -0.781381 21 24 25 2 4
0.603650 -0.298620 -0.781809 22 23 25 2 4
0.364013 -0.071776 -0.793755 9 11 10 2 4
0.115144 -0.300872 -0.800945 26 29 30 2 4
0.553699 -0.257143 -0.784732 20 24 24 2 4
0.564905 -0.245021 -0.785041 19 22 21 2 4
0.582960 -0.257806 -0.783643 20 24 24 2 4
0.330752 -0.152244 -0.793732 15 17 16 2 4
0.019099 -0.112315 -0.805666 14 16 15 2 4
0.038548 -0.123712 -0.805606 14 16 15 2 4
0.053166 -0.306723 -0.803862 27 29 31 2 4
0.076636 -0.306426 -0.803648 26 30 31 2 4
0.083168 -0.328662 -0.803550 27 32 31 2 4
0.563172 -0.105270 -0.781581 10 12 11 2 4
-0.241320 -0.482593 -0.813901 46 50 50 2 4
-0.217105 -0.443824 -0.813537 41 48 49 2 4
0.441214 -0.408836 -0.792441 29 31 29 2 4
-0.170362 -0.057597 -0.808237 16 19 18 2 4
-0.183714 -0.061892 -0.809635 17 20 19 2 4
-0.147132 -0.056223 -0.808564 16 18 17 2 4
-0.162541 -0.071808 -0.809757 17 19 18 2 4
0.216108 -0.544758 -0.798669 36 37 35 2 4
0.211771 -0.566142 -0.799445 36 39 35 2 4
0.350847 -0.443249 -0.796462 31 33 34 2 4
0.348504 -0.457024 -0.795644 29 34 30 2 4
-0.091971 -0.346305 -0.809922 30 34 34 2 4
-0.070504 -0.339554 -0.809825 30 33 34 2 4
-0.241130 -0.237291 -0.813979 31 36 38 2 4
-0.229765 -0.242696 -0.811798 30 35 37 2 4
-0.220175 -0.254303 -0.813856 32 36 38 2 4
-0.230865 -0.264208 -0.811277 33 36 39 2 4
0.475683 -0.001059 -0.790375 4 5 7 2 4
0.040375 -0.260710 -0.804543 25 28 30 2 4
0.610732 -0.010138 -0.775227 4 6 5 2 4
0.553886 -0.175569 -0.785025 17 18 19 2 4
0.542701 -0.185386 -0.786125 17 18 20 2 4
-0.264628 0.018585 -0.809136 16 18 17 2 4
-0.297062 -0.001306 -0.810668 15 17 16 2 4
-0.274728 0.004476 -0.810782 16 18 17 2 4
-0.131244 -0.518455 -0.807891 42 47 47 2 4
-0.130994 -0.496757 -0.809001 43 48 48 2 4
0.476828 -0.413157 -0.792289 28 31 29 2 4
0.473308 -0.396202 -0.790534 31 31 31 2 4
0.489588 -0.397905 -0.790819 27 30 29 2 4
0.490568 -0.450836 -0.791347 31 33 31 2 4
0.474721 -0.442444 -0.791488 32 33 30 2 4
-0.149494 -0.551936 -0.810423 43 50 48 2 4
0.342986 -0.131786 -0.794122 11 13 12 2 4
0.340310 -0.095357 -0.794607 11 13 12 2 4
-0.007419 -0.251723 -0.807531 26 28 32 2 4
0.438549 -0.006604 -0.551393 1 3 2 0 0
0.086175 -0.572828 -0.803113 40 42 42 2 4
0.460654 -0.287846 -0.789856 24 26 27 2 4
0.223965 -0.015113 -0.798665 10 12 11 2 4
0.260253 -0.023717 -0.796160 10 12 11 2 4
-0.275924 -0.045591 -0.812211 19 22 23 2 4
-0.244319 -0.048001 -0.811268 19 23 22 2 4
0.583068 -0.143556 -0.778113 12 14 13 2 4
0.565933 -0.151499 -0.781656 13 15 14 2 4
0.580179 -0.160570 -0.780018 15 17 16 2 4
0.280920 -0.013298 -0.796195 9 11 10 2 4
0.283867 -0.042076 -0.797368 10 12 11 2 4
-0.226315 -0.300811 -0.811005 32 37 38 2 4
-0.203802 -0.305931 -0.813217 33 36 37 2 4
-0.187422 -0.263487 -0.813691 32 36 38 2 4
-0.227531 -0.278264 -0.811819 32 37 37 2 4
-0.210444 -0.285477 -0.813178 32 36 37 2 4
-0.109140 -0.217385 -0.809700 25 30 31 2 4
0.070844 -0.026941 -0.802455 11 13 12 2 4
-0.244784 -0.405779 -0.813224 38 44 40 2 4
-0.250149 -0.398607 -0.815220 37 44 46 2 4
-0.234567 -0.412413 -0.813211 42 44 46 2 4
-0.119509 -0.105258 -0.806898 17 19 18 2 4
-0.147543 -0.091336 -0.808234 16 19 18 2 4
0.419029 -0.002173 -0.660361 2 5 7 0 0
0.133336 -0.455053 -0.802053 32 35 35 2 4
0.352415 -0.015918 -0.793640 8 10 9 2 4
0.344183 -0.000196 -0.793904 6 7 8 2 4
0.078868 -0.294405 -0.802873 27 30 29 2 4
0.265014 -0.464035 -0.798515 33 35 34 2 4
0.255997 -0.447051 -0.798699 31 34 33 2 4
0.214371 0.005822 -0.799396 7 9 8 2 4
0.231650 -0.004399 -0.797566 9 11 10 2 4
0.424762 -0.124842 -0.789891 13 15 14 2 4
0.397133 -0.138374 -0.790468 14 15 16 2 4
0.410526 -0.151659 -0.789629 14 16 16 2 4
-0.283429 -0.261178 -0.809346 33 38 36 2 4
-0.264310 -0.272493 -0.810175 32 38 39 2 4
-0.259934 -0.296060 -0.809766 35 38 38 2 4
-0.277855 -0.286470 -0.809899 33 38 40 2 4
0.526773 -0.153021 -0.787531 15 17 16 2 4
0.542852 -0.149505 -0.785728 14 16 15 2 4
0.513648 -0.141914 -0.790528 14 16 15 2 4
0.349570 -0.528524 -0.796612 35 37 33 2 4
0.019648 -0.253037 -0.805842 25 30 28 2 4
0.034600 -0.237420 -0.804370 25 28 26 2 4
0.020346 -0.226706 -0.805621 24 27 28 2 4
-0.077512 -0.429662 -0.810501 33 35 37 2 4
-0.275510 -0.193469 -0.811130 27 33 35 2 4
0.197945 -0.251778 -0.798020 22 26 25 2 4
0.021233 -0.161872 -0.805293 17 19 19 2 4
0.001444 -0.169333 -0.806376 18 22 21 2 4
0.048206 -0.180833 -0.805533 21 23 25 2 4
0.149403 0.030683 -0.801598 7 9 8 2 4
0.200043 -0.110881 -0.797650 14 16 15 2 4
0.207986 -0.125506 -0.798469 14 16 15 2 4
0.243962 -0.136508 -0.797678 14 16 15 2 4
0.112299 -0.109445 -0.801898 14 16 15 2 4
0.134139 -0.088088 -0.801239 14 16 15 2 4
0.135884 -0.057667 -0.800725 13 15 14 2 4
0.263075 -0.512309 -0.798766 35 37 35 2 4
0.245476 -0.523233 -0.800834 34 37 36 2 4
-0.237399 -0.108617 -0.810897 19 23 23 2 4
-0.222889 -0.120763 -0.809513 19 23 23 2 4
-0.257052 -0.140769 -0.809770 23 27 28 2 4
-0.239147 -0.130848 -0.811916 22 26 25 2 4
-0.050574 -0.126740 -0.806541 15 17 16 2 4
-0.032419 -0.102834 -0.806967 14 16 15 2 4
-0.010452 0.016532 -0.804569 8 10 9 2 4
0.306102 -0.541408 -0.797351 37 39 35 2 4
0.123089 -0.525764 -0.803024 37 39 36 2 4
0.123130 -0.548136 -0.803312 39 39 42 2 4
-0.008121 -0.420917 -0.808902 30 32 35 2 4
0.134247 -0.308385 -0.799686 25 30 31 2 4
0.142421 -0.292113 -0.800433 27 29 28 2 4
-0.170750 -0.255179 -0.810341 30 34 33 2 4
-0.063583 -0.277166 -0.807366 29 32 31 2 4
-0.104497 -0.245764 -0.808865 28 33 32 2 4
0.395169 0.007601 -0.790633 5 6 8 2 4
0.388712 -0.011044 -0.792712 5 6 7 2 4
0.405103 -0.010822 -0.790625 6 7 9 2 4
0.372735 -0.015679 -0.793958 7 8 8 2 4
0.484858 -0.088229 -0.790038 9 11 10 2 4
0.424695 -0.308449 -0.791427 25 28 28 2 4
0.422117 -0.331958 -0.792118 25 29 28 2 4
0.429568 -0.350920 -0.791986 24 28 26 2 4
0.454407 -0.354377 -0.790928 25 28 27 2 4
-0.233041 -0.006231 -0.807710 16 18 18 2 4
-0.075238 -0.105852 -0.808727 14 16 15 2 4
-0.102861 -0.117008 -0.807270 17 19 18 2 4
0.077013 -0.134139 -0.803327 17 19 18 2 4
0.512978 -0.408183 -0.791778 29 29 27 2 4
0.522299 -0.390234 -0.790265 27 30 29 2 4
-0.157677 -0.243148 -0.810482 27 33 34 2 4
-0.150047 -0.201136 -0.811126 28 30 32 2 4
-0.143717 -0.223204 -0.810630 27 32 32 2 4
0.226174 -0.578063 -0.797474 38 39 41 2 4
-0.064371 -0.453151 -0.809009 35 37 39 2 4
-0.167549 -0.315067 -0.811219 30 36 36 2 4
-0.177999 -0.303965 -0.811323 34 37 37 2 4
-0.175864 -0.334761 -0.812034 32 37 36 2 4
0.417367 0.016120 -0.788469 5 6 8 2 4
0.427225 -0.022560 -0.792049 6 7 9 2 4
-0.036673 -0.136179 -0.806855 17 19 18 2 4
-0.271413 -0.342562 -0.820473 33 37 38 2 4
-0.280768 -0.333988 -0.819328 33 36 38 2 4
-0.260638 -0.356680 -0.816173 37 39 44 2 4
-0.277034 -0.358719 -0.820657 33 37 35 2 4
-0.264493 -0.339262 -0.812411 39 43 44 2 4
0.460480 -0.335164 -0.789478 26 27 29 2 4
0.436848 -0.322335 -0.791976 26 27 28 2 4
0.179373 -0.157929 -0.799501 18 20 20 2 4
-0.280712 0.050543 -0.809637 12 14 11 2 4
-0.298297 0.048290 -0.810643 12 14 11 2 4
-0.273498 0.037550 -0.808665 13 15 13 2 4
-0.180767 -0.487417 -0.810450 43 48 43 2 4
-0.153347 -0.483262 -0.812348 42 49 44 2 4
0.135818 -0.472114 -0.802020 35 38 38 2 4
0.114719 -0.488760 -0.804395 35 38 38 2 4
0.642418 -0.087444 -0.766658 3 5 4 2 4
0.401675 -0.366810 -0.791363 26 28 27 2 4
0.418641 -0.379034 -0.792846 28 30 29 2 4
0.381445 -0.377625 -0.792869 28 30 29 2 4
-0.076920 -0.081013 -0.806824 12 14 13 2 4
-0.058560 -0.086604 -0.805930 14 16 15 2 4
-0.246475 -0.511390 -0.812486 45 50 51 2 4
-0.224014 -0.495335 -0.812471 45 48 50 2 4
-0.237501 -0.501383 -0.813477 47 49 50 2 4
-0.029324 -0.492904 -0.806787 39 39 36 2 4
-0.031418 -0.505773 -0.807854 39 38 37 2 4
-0.049392 -0.510600 -0.808735 37 41 36 2 4
0.294766 -0.439037 -0.799201 30 34 33 2 4
0.276348 -0.420481 -0.797889 32 34 31 2 4
0.301846 -0.465065 -0.798593 32 35 34 2 4
0.602777 -0.120351 -0.777848 9 11 10 2 4
0.299160 -0.182462 -0.796231 19 21 20 2 4
0.274560 -0.157189 -0.796246 15 17 16 2 4
0.280594 -0.173869 -0.795684 16 18 17 2 4
0.577022 -0.296379 -0.785156 23 24 27 2 4
0.562850 -0.302516 -0.786016 24 24 28 2 4
0.566772 -0.272052 -0.785209 22 24 25 2 4
0.540035 -0.281031 -0.786943 23 24 27 2 4
-0.042909 -0.182430 -0.806677 21 26 27 2 4
-0.040972 -0.207814 -0.805755 24 28 28 2 4
0.266114 -0.488478 -0.799222 33 35 33 2 4
0.283111 -0.482583 -0.798533 32 35 35 2 4
0.260170 -0.075187 -0.796398 11 13 12 2 4
0.258713 -0.055770 -0.797057 10 12 11 2 4
0.438006 -0.392635 -0.793144 27 30 29 2 4
-0.172047 -0.389834 -0.811313 34 38 37 2 4
-0.186651 -0.390899 -0.809619 34 37 36 2 4
-0.038692 -0.573978 -0.805371 41 48 44 2 4
-0.051715 -0.564037 -0.807021 42 46 48 2 4
-0.259245 -0.172363 -0.808497 26 31 34 2 4
-0.278823 -0.173497 -0.809757 26 32 31 2 4
0.094066 0.007763 -0.802759 8 10 9 2 4
0.089511 -0.013271 -0.802462 9 11 10 2 4
0.150186 -0.019067 -0.801305 11 13 12 2 4
0.113993 -0.008884 -0.802018 10 12 11 2 4
0.609678 -0.211970 -0.777071 16 18 17 2 4
0.574047 -0.224510 -0.783981 17 18 20 2 4
0.574969 -0.199818 -0.783004 16 17 17 2 4
0.588532 -0.205506 -0.779305 16 17 18 2 4
0.073875 -0.221500 -0.803945 25 27 31 2 4
0.090234 -0.226801 -0.803853 23 26 29 2 4
0.059918 -0.246596 -0.804705 24 27 29 2 4
0.075564 -0.265162 -0.804330 23 28 28 2 4
-0.162253 -0.422711 -0.812626 36 40 40 2 4
-0.151613 -0.439428 -0.812047 35 38 42 2 4
-0.164197 -0.404475 -0.811274 33 37 36 2 4
0.354247 -0.391016 -0.795009 27 30 29 2 4
-0.279543 -0.327637 -0.813995 36 39 38 2 4
-0.276969 -0.311152 -0.811129 32 37 37 2 4
-0.301506 -0.295438 -0.809583 35 40 37 2 4
-0.220315 -0.201911 -0.812938 29 33 35 2 4
0.381251 -0.036651 -0.793923 8 9 10 2 4
0.381491 -0.051070 -0.793149 9 11 10 2 4
0.666115 -0.067700 -0.762960 4 6 5 2 4
0.687683 -0.071608 -0.766416 4 6 5 2 4
0.673641 -0.082970 -0.764936 3 5 4 2 4
0.372235 -0.361728 -0.793906 27 29 29 2 4
0.339837 -0.355625 -0.794485 26 29 28 2 4
0.323652 -0.344077 -0.795640 27 30 28 2 4
0.182858 -0.216205 -0.798865 20 26 25 2 4
0.175590 -0.197881 -0.799090 20 27 25 2 4
0.650802 -0.252602 -0.774269 17 18 19 2 4
0.660072 -0.265266 -0.773413 17 18 20 2 4
0.636574 -0.260467 -0.774827 17 19 18 2 4
0.685852 -0.241122 -0.768093 16 18 17 2 4
0.173982 -0.012935 -0.799598 10 12 11 2 4
0.271234 -0.292991 -0.797376 25 26 29 2 4
0.280073 -0.316416 -0.798047 24 26 29 2 4
0.519201 -0.347903 -0.789592 26 27 27 2 4
0.318263 -0.478731 -0.797948 32 35 34 2 4
0.298090 -0.498870 -0.798396 32 35 34 2 4
-0.145971 -0.458785 -0.810937 39 44 47 2 4
-0.174915 -0.445598 -0.811961 39 44 43 2 4
-0.172155 -0.460476 -0.810512 40 44 47 2 4
-0.040774 -0.395811 -0.808719 31 32 36 2 4
0.021693 -0.206383 -0.804756 22 25 24 2 4
0.008671 -0.207952 -0.805945 22 25 25 2 4
0.041055 -0.226020 -0.803307 21 26 28 2 4
0.399245 -0.265387 -0.792696 21 23 23 2 4
0.409600 -0.232811 -0.791953 20 23 23 2 4
0.403406 -0.251111 -0.793113 21 23 23 2 4
0.459621 -0.060616 -0.791875 9 11 10 2 4
0.443471 -0.053480 -0.791243 8 9 11 2 4
0.468058 -0.046721 -0.790865 8 9 10 2 4
0.473572 -0.110474 -0.791661 11 13 11 2 4
-0.072492 -0.240880 -0.806885 27 30 31 2 4
-0.087888 -0.238542 -0.808903 26 30 31 2 4
0.129056 -0.574449 -0.801655 40 41 39 2 4
0.104950 -0.585557 -0.801651 40 41 40 2 4
0.086494 -0.559645 -0.804913 38 40 41 2 4
0.097367 -0.565706 -0.802541 40 41 38 2 4
0.123932 -0.562977 -0.801522 39 40 37 2 4
0.059151 -0.281510 -0.802502 24 29 29 2 4
0.045921 -0.272938 -0.803835 25 28 27 2 4
-0.265433 -0.416229 -0.819612 35 41 41 2 4
-0.260957 -0.407848 -0.815962 41 44 47 2 4
-0.259837 -0.424149 -0.816366 42 45 46 2 4
0.090911 -0.127105 -0.801914 14 18 17 2 4
0.462003 -0.364348 -0.791168 28 29 31 2 4
0.468463 -0.383945 -0.790740 29 29 32 2 4
-0.180181 -0.106698 -0.810349 17 20 18 2 4
0.641017 -0.210846 -0.772418 13 16 15 2 4
0.635350 -0.225892 -0.775008 14 15 17 2 4
0.662665 -0.237176 -0.771683 14 17 17 2 4
0.662941 -0.217339 -0.768378 7 9 9 2 4
0.681323 -0.224128 -0.768640 8 9 9 2 4
-0.111133 0.055880 -0.807092 9 11 9 2 4
-0.101502 0.027102 -0.806707 9 11 9 2 4
-0.081060 0.028249 -0.805296 10 12 11 2 4
0.425455 -0.366672 -0.791611 26 29 29 2 4
0.069409 -0.445254 -0.805258 33 36 33 2 4
0.098251 -0.460867 -0.804893 33 38 35 2 4
0.124906 -0.443104 -0.801606 34 36 37 2 4
0.106520 -0.427795 -0.803271 32 34 33 2 4
0.088603 -0.431861 -0.804628 31 36 33 2 4
0.598943 -0.254262 -0.780366 19 21 22 2 4
0.122324 -0.053507 -0.800529 12 14 13 2 4
-0.052014 -0.409689 -0.808609 28 32 32 2 4
-0.044345 -0.304948 -0.807758 27 31 31 2 4
-0.050593 -0.291320 -0.806837 27 30 31 2 4
-0.023577 -0.288159 -0.807391 27 30 31 2 4
0.173372 -0.416441 -0.800857 31 34 32 2 4
0.160789 -0.403107 -0.802104 30 34 34 2 4
-0.025341 -0.346869 -0.808048 28 33 31 2 4
-0.008689 -0.387055 -0.807710 28 31 33 2 4
-0.003551 -0.589777 -0.802305 41 46 45 2 4
-0.130687 -0.195083 -0.809186 25 28 29 2 4
-0.136572 -0.185201 -0.807999 22 27 29 2 4
0.454744 -0.302112 -0.789201 23 26 26 2 4
0.199746 -0.544793 -0.800135 37 37 40 2 4
0.165530 -0.548426 -0.800874 38 38 42 2 4
0.336181 -0.326241 -0.794870 26 28 29 2 4
0.190889 -0.125639 -0.800006 14 16 15 2 4
-0.259190 -0.435456 -0.817915 39 45 47 2 4
-0.271401 -0.429250 -0.819082 38 44 43 2 4
-0.249022 -0.441140 -0.814490 42 46 47 2 4
-0.269645 -0.450956 -0.816601 40 43 46 2 4
0.030968 -0.355126 -0.805445 26 31 32 2 4
0.026720 -0.391395 -0.806673 29 31 32 2 4
0.056766 -0.373842 -0.803853 28 32 29 2 4
0.233520 -0.461923 -0.800183 34 36 35 2 4
0.221932 -0.463179 -0.799808 32 36 35 2 4
0.329249 -0.008500 -0.794064 7 9 8 2 4
-0.127942 -0.234586 -0.809249 27 32 34 2 4
-0.101104 -0.264507 -0.809477 27 31 35 2 4
-0.129126 -0.269294 -0.811218 28 32 34 2 4
-0.146180 -0.420166 -0.810610 32 37 34 2 4
-0.122275 -0.403314 -0.810978 30 36 32 2 4
-0.126200 -0.430339 -0.811558 33 37 39 2 4
0.228391 -0.352210 -0.798319 26 29 30 2 4
0.250102 -0.339413 -0.797588 25 30 28 2 4
-0.008168 -0.013971 -0.803651 10 12 11 2 4
-0.002412 -0.158522 -0.806158 18 20 20 2 4
0.001592 -0.133203 -0.805386 15 17 16 2 4
-0.016405 -0.142208 -0.807180 15 17 17 2 4
0.607640 -0.080740 -0.772419 6 8 7 2 4
0.608937 -0.059902 -0.773119 7 9 8 2 4
-0.198712 -0.144028 -0.810713 20 24 26 2 4
-0.202080 -0.122758 -0.810932 19 23 23 2 4
0.016009 -0.511299 -0.807764 39 39 40 2 4
0.007741 -0.544934 -0.807420 39 41 39 2 4
-0.016355 -0.535395 -0.807556 39 41 37 2 4
0.242299 -0.479984 -0.800495 31 36 33 2 4
0.253466 -0.506522 -0.798639 35 36 34 2 4
-0.175767 -0.077298 -0.810618 17 19 18 2 4
-0.195350 -0.099013 -0.810283 18 20 20 2 4
-0.004092 -0.324562 -0.807186 27 31 33 2 4
0.015466 -0.337557 -0.806391 28 32 33 2 4
0.003814 -0.345177 -0.806234 27 31 32 2 4
-0.150228 -0.375084 -0.808618 33 37 38 2 4
-0.144051 -0.397251 -0.809451 32 37 38 2 4
-0.140801 -0.166643 -0.809303 21 26 27 2 4
-0.143127 -0.147565 -0.808670 20 23 25 2 4
0.608143 -0.328834 -0.782005 21 24 23 2 4
0.624278 -0.331526 -0.779084 22 24 24 2 4
-0.128799 -0.116310 -0.808186 17 20 19 2 4
-0.088168 -0.134456 -0.808535 18 20 19 2 4
-0.101631 -0.144969 -0.809561 18 20 19 2 4
-0.115026 -0.132421 -0.808506 19 21 20 2 4
-0.175637 -0.278696 -0.811235 30 32 34 2 4
-0.180105 -0.290349 -0.811142 31 36 38 2 4
-0.134418 -0.451317 -0.811700 33 39 37 2 4
-0.132003 -0.466370 -0.810793 40 43 39 2 4
0.500696 -0.069565 -0.789098 9 11 10 2 4
0.505833 -0.049679 -0.789554 8 10 9 2 4
0.531623 -0.050300 -0.788311 7 9 8 2 4
-0.056783 0.019531 -0.804858 9 11 10 2 4
-0.258104 -0.198761 -0.810106 28 34 37 2 4
-0.282209 -0.216407 -0.809960 32 37 37 2 4
0.109911 -0.151673 -0.800802 18 19 20 2 4
0.432865 -0.005032 -0.652594 5 7 9 0 0
0.424844 -0.007965 -0.630854 8 10 11 0 0
0.416986 -0.007531 -0.645520 10 12 12 0 0
0.399528 -0.003299 -0.647385 5 11 11 0 0
0.405530 0.006435 -0.640821 4 10 10 0 0
0.091143 -0.259570 -0.802690 22 30 27 2 4
0.116477 -0.410161 -0.802387 28 32 33 2 4
0.099244 -0.401269 -0.803332 30 35 32 2 4
0.235562 -0.569962 -0.797967 39 39 40 2 4
0.310836 -0.163664 -0.795771 16 18 17 2 4
0.059268 -0.328149 -0.803162 27 31 30 2 4
0.159036 -0.165497 -0.800497 20 21 21 2 4
0.482296 -0.063564 -0.790024 9 11 10 2 4
0.463246 -0.231166 -0.791052 22 23 22 2 4
0.474846 -0.240100 -0.790763 21 22 24 2 4
0.461677 -0.252296 -0.790629 22 23 24 2 4
0.571048 -0.283401 -0.786839 21 25 25 2 4
-0.100063 -0.544711 -0.808858 43 48 45 2 4
-0.075870 -0.561863 -0.805113 43 47 45 2 4
0.661518 -0.205236 -0.763669 5 7 6 2 4
0.657453 -0.182773 -0.763488 8 9 9 2 4
0.672824 -0.199510 -0.762015 7 9 8 2 4
0.660483 -0.192950 -0.764955 7 9 8 2 4
0.041687 -0.323763 -0.804329 27 31 29 2 4
0.002652 -0.299575 -0.805392 27 29 30 2 4
-0.201428 -0.360370 -0.811956 33 36 34 2 4
-0.227272 -0.363308 -0.813257 32 38 40 2 4
-0.208125 -0.346950 -0.812853 32 37 37 2 4
-0.215116 -0.338671 -0.813695 34 36 39 2 4
0.676072 -0.017444 -0.765421 3 5 4 2 4
0.434107 -0.432257 -0.793702 30 32 31 2 4
0.455571 -0.435763 -0.793329 30 31 31 2 4
0.449192 -0.454040 -0.794434 30 32 28 2 4
-0.104395 -0.403621 -0.809815 34 35 36 2 4
-0.124656 -0.383776 -0.810799 33 35 37 2 4
0.228375 -0.234339 -0.797203 22 25 26 2 4
0.261001 -0.226420 -0.796697 19 23 23 2 4
0.236288 -0.215547 -0.797167 20 24 23 2 4
0.686351 -0.042132 -0.762279 4 6 5 2 4
0.700205 -0.047458 -0.766254 4 6 4 2 4
0.670690 -0.048966 -0.759533 3 5 4 2 4
0.063284 -0.494660 -0.806527 38 39 40 2 4
0.034484 -0.504505 -0.807003 36 38 38 2 4
0.079097 -0.190603 -0.802328 20 24 25 2 4
0.024964 -0.076538 -0.805588 13 15 14 2 4
0.045347 -0.099420 -0.806145 13 15 14 2 4
0.011436 -0.093297 -0.805030 14 16 15 2 4
-0.065243 -0.061747 -0.806202 13 16 15 2 4
-0.040421 -0.036779 -0.804748 12 15 13 2 4
0.102902 -0.476303 -0.804408 36 37 36 2 4
0.086095 -0.499545 -0.803601 38 39 38 2 4
0.080348 -0.452857 -0.805423 34 38 36 2 4
0.569259 -0.181173 -0.782263 15 17 16 2 4
-0.259500 -0.228684 -0.809583 31 37 34 2 4
-0.244667 -0.212113 -0.813097 30 35 35 2 4
0.188767 -0.070227 -0.799510 12 14 13 2 4
0.195367 -0.094426 -0.797526 13 15 14 2 4
0.170547 -0.377978 -0.801010 29 31 33 2 4
0.163567 -0.364124 -0.800707 28 31 34 2 4
0.147808 -0.507778 -0.802877 36 37 36 2 4
0.142881 -0.479861 -0.802610 36 37 37 2 4
0.512695 -0.419631 -0.791419 29 31 28 2 4
0.624278 -0.069663 -0.770702 4 6 5 2 4
0.651440 -0.053751 -0.761395 3 5 4 2 4
0.656906 -0.072901 -0.764641 3 5 4 2 4
0.626585 -0.045104 -0.770959 3 5 4 2 4
0.641759 -0.044668 -0.768176 3 5 4 2 4
0.636737 -0.062767 -0.768399 3 5 4 2 4
0.087390 -0.543571 -0.804083 39 40 37 2 4
0.057856 -0.526180 -0.805812 38 40 38 2 4
0.087822 -0.522510 -0.804393 38 39 37 2 4
0.110974 -0.542023 -0.802962 37 39 36 2 4
0.074461 -0.538372 -0.805682 37 39 39 2 4
0.521876 -0.083446 -0.786466 8 10 9 2 4
0.516209 -0.104465 -0.788351 9 11 10 2 4
-0.088202 -0.204443 -0.809313 24 27 32 2 4
-0.078622 -0.217782 -0.807781 24 27 27 2 4
0.424477 -0.001822 -0.581904 8 8 7 0 0
0.437278 -0.005834 -0.571430 1 4 3 0 0
-0.300353 -0.207743 -0.808860 31 37 37 2 4
-0.300776 -0.223709 -0.810824 31 37 38 2 4
0.352926 -0.048688 -0.794437 9 11 10 2 4
0.323623 -0.067028 -0.795083 9 11 10 2 4
0.358271 -0.031491 -0.793572 9 11 10 2 4
0.511798 -0.192681 -0.788550 18 20 19 2 4
0.492920 -0.191157 -0.789323 19 20 20 2 4
0.499028 -0.171096 -0.788296 16 18 18 2 4
0.520423 -0.171079 -0.789103 17 19 18 2 4
0.409420 -0.191235 -0.791590 18 20 20 2 4
0.416777 -0.169669 -0.791136 17 19 19 2 4
0.031340 -0.561192 -0.805743 40 40 36 2 4
0.040101 -0.572495 -0.804695 38 41 37 2 4
0.436149 -0.093606 -0.790977 9 11 9 2 4
0.453878 -0.078430 -0.791645 9 11 10 2 4
0.462090 -0.100059 -0.791350 9 11 9 2 4
0.168816 -0.180546 -0.800058 20 23 22 2 4
0.526822 -0.237004 -0.788051 21 24 22 2 4
0.541725 -0.270689 -0.785947 22 24 24 2 4
0.528582 -0.249027 -0.786708 20 24 22 2 4
-0.284942 -0.145307 -0.811176 26 29 28 2 4
-0.295598 -0.133308 -0.812852 25 29 31 2 4
-0.293501 -0.150123 -0.812832 26 30 31 2 4
0.174584 -0.317183 -0.799816 26 28 29 2 4
0.320729 -0.381768 -0.795618 28 31 30 2 4
0.331021 -0.396958 -0.795085 28 33 33 2 4
0.314883 -0.397427 -0.795449 29 30 32 2 4
0.002696 -0.053931 -0.805506 13 15 14 2 4
-0.019355 -0.056738 -0.804686 13 15 14 2 4
0.019923 -0.021495 -0.804868 12 14 13 2 4
-0.014252 -0.037708 -0.804974 12 14 13 2 4
0.473363 -0.215855 -0.789680 21 22 24 2 4
0.458423 -0.199282 -0.790124 19 21 20 2 4
0.224434 -0.491346 -0.800420 35 37 36 2 4
-0.190796 -0.173304 -0.811603 26 28 32 2 4
-0.202927 -0.163077 -0.812331 25 30 27 2 4
0.444405 -0.014007 -0.792047 7 8 10 2 4
0.460062 -0.016032 -0.790888 5 6 8 2 4
0.475670 -0.021416 -0.791622 7 8 10 2 4
0.446662 -0.031328 -0.791246 7 8 10 2 4
-0.080431 -0.378903 -0.809379 31 36 38 2 4
-0.082389 -0.405656 -0.809610 32 35 34 2 4
-0.095233 -0.412143 -0.809142 31 36 35 2 4
0.289692 -0.526572 -0.797988 35 37 33 2 4
0.288360 -0.510016 -0.799487 34 37 34 2 4
-0.017142 -0.255106 -0.807268 26 31 30 2 4
-0.010137 -0.278476 -0.806409 29 29 32 2 4
0.503435 -0.317629 -0.789581 25 27 28 2 4
0.478378 -0.322036 -0.789726 25 27 28 2 4
0.490252 -0.334055 -0.789424 25 26 29 2 4
0.163810 -0.040221 -0.800968 12 14 13 2 4
0.167930 -0.059900 -0.800147 12 14 13 2 4
0.107419 -0.068976 -0.802844 13 15 14 2 4
0.094066 -0.097083 -0.802531 14 16 15 2 4
0.067150 -0.105292 -0.803137 13 15 14 2 4
0.074730 -0.079041 -0.803571 13 15 14 2 4
-0.037992 -0.068878 -0.806230 13 15 14 2 4
0.044068 -0.299516 -0.803201 27 29 31 2 4
0.023108 -0.299268 -0.804810 27 30 30 2 4
0.327230 -0.444922 -0.796618 28 34 30 2 4
0.316611 -0.425479 -0.797134 29 32 29 2 4
0.066814 -0.348994 -0.803274 28 31 32 2 4
0.429468 -0.273065 -0.791003 22 25 20 2 4
0.398037 -0.279791 -0.792649 21 23 25 2 4
-0.241454 0.029835 -0.808473 12 14 11 2 4
-0.256961 0.048421 -0.808981 12 14 11 2 4
-0.230376 0.018922 -0.806965 13 15 12 2 4
0.076263 -0.119453 -0.802990 14 17 16 2 4
-0.131211 0.008600 -0.806365 8 10 9 2 4
-0.128369 -0.014009 -0.806799 12 14 13 2 4
-0.148196 -0.034417 -0.809104 14 16 15 2 4
0.296847 -0.045209 -0.796285 10 12 11 2 4
0.289558 -0.070681 -0.796587 10 12 11 2 4
0.378633 -0.298265 -0.793333 23 25 24 2 4
0.402583 -0.299306 -0.793625 24 25 27 2 4
0.390429 -0.317967 -0.792282 25 27 28 2 4
0.108326 -0.328656 -0.801118 26 29 31 2 4
0.142986 -0.351203 -0.802386 28 31 32 2 4
0.207486 -0.059663 -0.799115 11 13 12 2 4
0.239091 -0.071042 -0.797465 12 14 13 2 4
-0.000582 -0.364393 -0.806679 27 31 30 2 4
0.006754 -0.394264 -0.806145 26 33 33 2 4
0.645701 -0.198691 -0.769678 4 6 5 2 4
0.641510 -0.182109 -0.766940 6 8 7 2 4
0.619932 -0.196836 -0.773853 10 11 12 2 4
0.630971 -0.206086 -0.773857 3 5 4 2 4
0.630001 -0.186792 -0.768486 4 6 5 2 4
0.511849 -0.431416 -0.792104 29 31 30 2 4
0.311481 -0.190746 -0.795720 20 22 21 2 4
0.268706 -0.195872 -0.795875 19 22 22 2 4
0.321191 -0.204377 -0.795968 19 22 21 2 4
-0.149672 -0.321447 -0.810301 30 35 35 2 4
0.422179 0.001004 -0.569537 5 6 7 0 0
0.413160 0.009281 -0.572525 5 6 7 0 0
-0.191642 -0.414052 -0.810020 38 42 43 2 4
-0.186937 -0.426007 -0.810449 39 43 44 2 4
-0.180443 -0.150171 -0.811700 25 27 26 2 4
-0.169347 -0.167531 -0.810060 26 27 34 2 4
0.404822 -0.004381 -0.652937 2 6 7 0 0
0.311903 -0.239469 -0.795323 21 25 25 2 4
0.345800 -0.426281 -0.796524 29 31 29 2 4
0.259161 -0.262491 -0.796315 23 27 25 2 4
0.212528 -0.263607 -0.797391 22 26 27 2 4
0.243249 -0.255991 -0.797270 22 26 26 2 4
0.064989 -0.590277 -0.804924 39 41 40 2 4
-0.041259 -0.369793 -0.807750 30 32 31 2 4
-0.062573 -0.386607 -0.809598 32 34 37 2 4
-0.056972 -0.361958 -0.807848 30 34 35 2 4
0.238092 -0.039547 -0.797864 10 12 11 2 4
0.211843 -0.043351 -0.798816 11 13 12 2 4
0.208276 -0.022704 -0.799101 9 11 10 2 4
-0.126565 -0.533461 -0.808298 45 50 50 2 4
0.102919 -0.182893 -0.802323 19 21 22 2 4
0.088160 -0.166623 -0.801491 20 21 24 2 4
0.366194 -0.099658 -0.793899 10 12 11 2 4
0.376309 -0.112360 -0.792317 10 12 11 2 4
-0.220037 -0.058283 -0.809766 18 22 21 2 4
-0.223180 -0.071939 -0.810772 19 21 20 2 4
-0.209762 -0.097463 -0.811359 19 23 22 2 4
-0.243762 -0.096954 -0.810442 20 24 23 2 4
-0.072553 -0.357818 -0.808027 29 32 34 2 4
-0.062565 -0.315727 -0.809000 28 32 31 2 4
-0.049777 -0.323964 -0.807462 29 33 31 2 4
0.596199 -0.111801 -0.778156 10 12 11 2 4
0.591803 -0.093395 -0.777591 9 11 10 2 4
0.624422 -0.084086 -0.770267 7 9 8 2 4
0.616227 -0.095124 -0.770408 8 10 9 2 4
0.618897 -0.112804 -0.771083 6 8 7 2 4
0.553078 -0.098721 -0.787047 9 11 10 2 4
0.540443 -0.107907 -0.786126 10 12 11 2 4
-0.072974 -0.124095 -0.808416 17 19 19 2 4
-0.064654 -0.147787 -0.808038 18 20 19 2 4
0.008734 -0.269953 -0.806070 26 29 29 2 4
0.024245 -0.283036 -0.805684 26 28 31 2 4
0.164580 -0.240552 -0.798441 21 27 24 2 4
0.147920 -0.211014 -0.800180 21 26 26 2 4
0.137924 -0.230526 -0.800831 22 26 26 2 4
-0.129178 -0.056358 -0.807787 13 15 14 2 4
0.304824 -0.284804 -0.795123 24 28 28 2 4
0.342291 -0.296012 -0.794573 26 28 24 2 4
0.321483 -0.312338 -0.794980 26 28 27 2 4
-0.042543 -0.020376 -0.805704 11 14 13 2 4
-0.289153 -0.070499 -0.811523 19 23 25 2 4
-0.297612 -0.081930 -0.814528 19 24 25 2 4
-0.282689 -0.085176 -0.811414 21 25 23 2 4
-0.303445 -0.101906 -0.813077 21 25 26 2 4
0.111986 -0.513173 -0.804329 36 40 36 2 4
-0.088576 -0.279978 -0.810051 28 31 31 2 4
-0.132530 -0.285311 -0.810377 30 33 35 2 4
-0.118222 -0.279265 -0.810154 30 32 36 2 4
-0.099974 -0.300537 -0.810309 31 34 33 2 4
-0.125783 -0.308121 -0.811444 30 35 36 2 4
-0.127550 -0.092795 -0.807402 15 18 17 2 4
0.275641 -0.093432 -0.796961 11 13 12 2 4
0.237969 -0.088388 -0.798022 12 14 13 2 4
0.261261 -0.111586 -0.797480 12 14 13 2 4
-0.291192 -0.172293 -0.810705 30 34 35 2 4
-0.315770 -0.203437 -0.808163 30 35 37 2 4
-0.291910 -0.188722 -0.811285 30 34 36 2 4
0.271999 -0.534933 -0.798223 36 38 36 2 4
0.270108 -0.561842 -0.800199 36 38 39 2 4
0.555247 -0.393951 -0.790064 27 29 27 2 4
0.543132 -0.348775 -0.788272 28 28 28 2 4
0.546595 -0.378415 -0.790902 26 28 29 2 4
-0.230760 -0.327321 -0.813036 33 36 40 2 4
-0.247472 -0.340564 -0.811621 35 38 38 2 4
-0.243190 -0.362026 -0.813010 34 38 39 2 4
-0.199540 -0.212480 -0.812008 28 32 34 2 4
-0.238996 -0.224594 -0.813673 29 33 34 2 4
-0.186672 -0.232948 -0.811089 29 33 33 2 4
-0.220676 -0.231877 -0.812867 28 34 36 2 4
0.387624 -0.212384 -0.793578 20 23 22 2 4
0.375460 -0.244232 -0.792988 20 24 24 2 4
0.591640 -0.229910 -0.780129 19 23 23 2 4
0.215329 -0.510237 -0.800010 36 38 36 2 4
0.216079 -0.525506 -0.800266 36 39 35 2 4
-0.284002 -0.121962 -0.811616 21 26 25 2 4
-0.284810 -0.108978 -0.810848 21 26 24 2 4
-0.298463 -0.116982 -0.813839 22 27 24 2 4
0.546092 -0.021477 -0.786125 5 7 6 2 4
0.528528 -0.020860 -0.787977 6 8 7 2 4
0.424617 -0.006664 -0.601148 7 7 7 0 0
0.413262 -0.000669 -0.632984 11 13 14 0 0
0.436676 -0.006012 -0.592113 5 6 6 0 0
0.424616 -0.005683 -0.609796 7 9 9 0 0
-0.241498 -0.312229 -0.811331 34 36 38 2 4
-0.266233 -0.316091 -0.811089 35 37 39 2 4
0.162288 -0.519637 -0.801735 37 38 37 2 4
0.156378 -0.536958 -0.801941 37 38 38 2 4
0.142164 -0.559007 -0.801473 36 40 39 2 4
0.275419 -0.275050 -0.796308 23 27 27 2 4
0.176158 -0.094200 -0.799651 14 16 15 2 4
0.166193 -0.103810 -0.800525 14 16 15 2 4
0.571585 -0.368999 -0.789694 26 28 26 2 4
0.571261 -0.384540 -0.788449 26 30 27 2 4
0.053318 -0.486341 -0.806315 36 37 40 2 4
0.052389 -0.466868 -0.807453 35 37 36 2 4
0.452042 -0.268446 -0.790795 23 25 24 2 4
0.478864 -0.271072 -0.790660 24 25 25 2 4
0.490383 -0.297829 -0.788980 24 25 27 2 4
-0.051668 -0.543835 -0.806609 42 47 45 2 4
-0.035089 -0.559400 -0.805717 40 42 44 2 4
-0.048439 -0.524582 -0.808694 42 48 42 2 4
-0.025052 -0.546485 -0.807822 38 41 42 2 4
-0.177408 -0.506331 -0.810601 44 50 47 2 4
-0.152924 -0.499046 -0.811917 44 48 49 2 4
-0.161925 -0.513148 -0.811900 45 50 50 2 4
-0.150761 -0.530194 -0.810792 45 49 48 2 4
0.311319 -0.052120 -0.795612 9 11 10 2 4
0.324301 -0.030703 -0.793748 9 11 10 2 4
0.329009 -0.047538 -0.794183 9 11 10 2 4
0.365534 -0.325875 -0.793452 25 27 27 2 4
0.400018 -0.343556 -0.791913 24 29 26 2 4
0.376130 -0.342669 -0.793591 25 29 28 2 4
0.114670 -0.038485 -0.801601 12 14 13 2 4
0.097297 -0.027889 -0.802902 12 14 13 2 4
0.308790 -0.015544 -0.795935 9 11 10 2 4
0.281247 0.016490 -0.796337 9 11 10 2 4
-0.041092 0.012966 -0.805398 11 13 12 2 4
-0.059646 -0.029067 -0.805667 10 12 11 2 4
-0.069604 -0.010835 -0.805339 9 11 10 2 4
0.201527 -0.304325 -0.799650 25 28 26 2 4
0.201788 -0.291800 -0.798381 25 28 29 2 4
0.648463 -0.108913 -0.763626 4 6 5 2 4
0.633943 -0.106750 -0.767867 4 6 5 2 4
0.639885 -0.125284 -0.766333 4 6 5 2 4
0.642606 -0.138960 -0.764482 4 6 5 2 4
0.213947 -0.151022 -0.798086 16 18 17 2 4
0.217643 -0.183418 -0.797434 18 19 19 2 4
0.242882 -0.174571 -0.798766 18 21 20 2 4
0.529541 -0.211145 -0.787301 19 20 21 2 4
-0.247922 -0.076412 -0.811633 20 23 23 2 4
-0.273658 -0.088965 -0.812132 20 24 24 2 4
-0.255720 -0.095648 -0.811871 20 24 23 2 4
0.240163 -0.408346 -0.798169 30 31 31 2 4
0.229675 -0.441543 -0.800102 31 34 32 2 4
0.168534 -0.504250 -0.802164 33 38 36 2 4
0.193128 -0.481935 -0.800534 35 35 39 2 4
-0.268665 -0.489053 -0.814995 39 40 44 2 4
-0.221821 -0.382981 -0.815090 34 39 40 2 4
0.605815 -0.189713 -0.776993 16 17 19 2 4
0.589934 -0.188709 -0.778867 17 18 20 2 4
0.288838 -0.126021 -0.797905 12 14 13 2 4
-0.231461 0.034419 -0.807157 12 14 11 2 4
0.117639 -0.257267 -0.801463 23 27 28 2 4
0.439895 -0.004997 -0.608645 7 5 5 0 0
0.042408 -0.138329 -0.805246 15 17 16 2 4
0.018734 -0.152203 -0.804620 17 19 18 2 4
-0.043174 -0.273795 -0.808324 25 29 28 2 4
-0.046977 -0.260447 -0.806885 29 29 34 2 4
-0.065279 -0.258506 -0.808225 29 30 32 2 4
-0.247782 -0.469312 -0.815305 40 45 45 2 4
-0.228324 -0.471687 -0.810631 40 45 44 2 4
0.030699 -0.005761 -0.803408 11 13 12 2 4
0.043283 -0.021474 -0.803934 12 14 13 2 4
0.026000 -0.035776 -0.805927 12 14 13 2 4
0.253525 -0.540715 -0.799333 35 38 35 2 4
0.244855 -0.558605 -0.799077 37 38 36 2 4
0.399023 -0.396275 -0.793378 28 30 30 2 4
0.361794 -0.407421 -0.795993 28 31 30 2 4
-0.024838 -0.516154 -0.808309 38 38 36 2 4
0.063457 -0.571635 -0.804288 38 39 40 2 4
0.425002 -0.291172 -0.792863 23 26 27 2 4
0.317636 -0.171837 -0.795727 16 18 17 2 4
0.167647 -0.139790 -0.800632 16 18 17 2 4
0.146972 -0.130182 -0.799703 15 17 16 2 4
0.136460 -0.115119 -0.799326 15 17 16 2 4
0.356653 -0.315966 -0.794655 24 27 28 2 4
-0.019547 -0.305937 -0.807191 28 30 34 2 4
0.086085 -0.037740 -0.804126 11 13 12 2 4
0.576993 -0.040264 -0.778208 6 8 7 2 4
0.593800 -0.043290 -0.775848 7 8 8 2 4
0.550047 -0.039154 -0.784384 7 9 8 2 4
0.566125 -0.011917 -0.781740 5 7 6 2 4
0.586698 -0.007217 -0.779840 5 7 6 2 4
-0.112370 -0.338961 -0.808791 31 35 34 2 4
-0.103717 -0.359072 -0.809806 32 34 37 2 4
-0.091481 -0.369595 -0.811013 32 35 37 2 4
-0.104362 -0.378486 -0.809817 30 34 33 2 4
-0.239903 -0.162286 -0.811310 27 31 34 2 4
-0.218604 -0.174202 -0.812338 26 29 26 2 4
-0.247268 -0.153956 -0.810602 24 28 27 2 4
-0.225740 -0.156653 -0.810505 25 27 29 2 4
-0.237338 -0.171240 -0.812903 26 32 31 2 4
-0.242498 -0.192702 -0.811965 27 32 33 2 4
-0.236896 -0.207202 -0.814447 28 33 32 2 4
0.413859 -0.207756 -0.792859 21 23 22 2 4
0.445507 -0.219339 -0.790583 20 23 22 2 4
0.337105 -0.270102 -0.795216 23 26 25 2 4
0.319377 -0.266235 -0.795354 23 26 24 2 4
0.374013 -0.266095 -0.793134 22 26 24 2 4
-0.172909 -0.538828 -0.809708 44 50 48 2 4
-0.195467 -0.520828 -0.811740 44 49 45 2 4
-0.193446 -0.508206 -0.811580 44 48 48 2 4
0.261357 -0.141749 -0.797611 15 17 16 2 4
0.631838 -0.240500 -0.775394 17 18 20 2 4
0.616223 -0.234658 -0.777992 17 18 20 2 4
0.613298 -0.259831 -0.777468 17 18 19 2 4
0.626515 -0.268219 -0.776175 18 19 20 2 4
0.160853 0.007224 -0.800034 8 10 9 2 4
0.465146 -0.001082 -0.577798 1 2 2 0 0
0.467138 0.000289 -0.558361 1 3 2 0 0
0.410394 -0.453711 -0.794704 30 31 32 2 4
0.408507 -0.468364 -0.794309 31 34 31 2 4
-0.105561 -0.037840 -0.806595 13 16 15 2 4
-0.086678 -0.063470 -0.807588 13 17 16 2 4
