ply
format ascii 1.0
element vertex 1091
property float x
property float y
property float z
property uchar red
property uchar green
property uchar blue
property uchar semantic_label
property uchar instance_label
end_header
0.174106 0.092449 -0.339719 33 41 50 5 1
0.195818 0.069493 -0.329964 35 45 55 5 1
0.194508 0.070649 -0.320463 31 41 50 5 1
0.195754 0.080970 -0.323847 58 65 76 5 1
0.013134 0.285129 -0.252808 47 45 44 14 3
0.009115 0.285246 -0.278433 49 44 46 14 3
0.045031 0.282248 -0.289058 49 46 46 14 3
-0.396370 0.110223 0.361096 149 123 107 15 2
-0.392993 0.109998 0.344180 149 125 108 15 2
0.165844 0.397806 -0.238433 235 235 215 14 3
0.166533 0.413728 -0.237058 225 218 196 14 3
0.166806 0.408057 -0.203119 234 235 214 14 3
-0.057303 0.772889 0.053442 155 147 142 1 8
-0.073694 0.773782 0.070942 155 147 141 1 8
-0.460448 0.675398 0.434718 129 105 85 15 2
-0.455802 0.690760 0.449983 112 91 76 15 2
-0.474528 0.681411 0.435684 106 84 68 15 2
-0.468165 0.682040 0.429155 129 105 86 15 2
-0.479986 0.689253 0.442846 104 82 67 15 2
-0.491772 0.685353 0.436934 128 102 84 15 2
-0.507515 0.109341 0.056096 162 132 109 15 2
0.134316 0.674676 -0.287581 155 142 119 14 3
0.144732 0.673912 -0.281957 80 70 55 14 3
0.150861 0.679204 -0.293579 163 154 134 14 3
0.145448 0.504058 -0.108348 207 209 195 14 3
0.148131 0.501457 -0.100839 221 218 204 14 3
-0.063472 0.277469 -0.169433 33 31 30 14 3
-0.087351 0.284716 -0.181333 32 31 32 14 3
-0.070976 0.280967 -0.175366 40 36 33 14 3
0.018054 0.282963 -0.147967 54 48 39 14 3
0.013225 0.277872 -0.142794 48 46 45 14 3
0.139916 0.285824 -0.326784 113 107 92 14 3
0.145621 0.290098 -0.322178 208 201 182 14 3
0.233285 0.139549 -0.003272 64 72 80 5 1
0.235432 0.143598 -0.017827 54 62 70 5 1
0.231353 0.130818 0.003783 52 59 65 5 1
0.228514 0.149147 -0.014160 93 94 94 5 1
0.206761 0.148541 -0.005155 61 63 68 5 1
0.214975 0.140433 0.000453 56 48 45 5 1
0.032504 0.778930 0.372442 165 162 159 1 8
0.028971 0.781480 0.410692 165 164 160 1 8
0.049033 0.779990 0.373942 164 162 159 1 8
-0.048128 0.674212 -0.068677 65 52 38 14 3
-0.054759 0.677729 -0.070528 77 61 44 14 3
-0.111041 0.780787 0.584442 158 157 155 1 8
-0.151453 0.779615 0.600336 159 155 157 1 8
-0.127143 0.780444 0.609067 160 157 160 1 8
-0.461726 0.107388 0.251505 155 128 110 15 2
-0.073300 0.356039 -0.046282 160 135 105 14 3
0.155051 0.410196 -0.086139 251 247 231 14 3
0.170044 0.367252 -0.060809 251 242 218 14 3
0.171283 0.399119 -0.062452 252 248 226 14 3
0.169388 0.368038 -0.056813 251 242 217 14 3
-0.445028 0.309128 -0.021330 151 122 96 15 2
-0.503445 0.318038 -0.021388 154 123 98 15 2
-0.525585 -0.083457 0.614942 115 91 76 15 2
0.246975 -0.132490 -0.325295 26 33 39 5 1
0.249425 -0.109546 -0.323579 28 37 47 5 1
-0.373391 0.322504 0.430768 207 193 179 15 2
-0.370139 0.320323 0.445663 227 218 204 15 2
-0.371832 0.315916 0.450360 218 201 187 15 2
-0.374097 0.305147 0.430994 215 207 192 15 2
-0.369191 0.317959 0.435775 188 174 159 15 2
0.257443 -0.129807 -0.337254 32 42 49 5 1
0.257926 -0.112678 -0.336920 35 42 52 5 1
0.255954 -0.112909 -0.342585 22 28 37 5 1
0.053401 0.488076 -0.047372 158 128 100 14 3
-0.122406 0.772539 0.154942 159 150 145 1 8
-0.151741 0.771894 0.149942 157 149 144 1 8
-0.155636 0.771098 0.137692 157 149 142 1 8
-0.127892 0.771620 0.144442 156 149 142 1 8
0.001206 0.782995 0.519942 167 164 165 1 8
-0.295915 0.753825 -0.058482 94 84 78 14 3
-0.292934 0.758570 -0.077260 92 78 64 14 3
0.197823 0.031055 -0.188205 30 35 44 5 1
0.150987 0.298551 -0.314963 226 220 198 14 3
0.154542 0.323584 -0.318389 225 221 199 14 3
0.159194 0.331986 -0.295058 218 211 188 14 3
-0.431487 0.727370 0.337468 137 111 87 15 2
0.167268 0.774457 -0.214308 117 118 120 1 8
-0.003035 -0.138867 -0.046298 189 163 126 14 3
-0.027664 -0.177987 -0.045013 193 164 129 14 3
-0.209746 0.569800 -0.064921 39 30 21 14 3
-0.194115 0.545969 -0.066456 42 31 24 14 3
-0.189175 0.554641 -0.065676 41 31 24 14 3
-0.190118 0.565453 -0.069109 41 31 24 14 3
-0.198598 0.560615 -0.065280 41 31 23 14 3
-0.200392 0.547040 -0.069043 40 31 23 14 3
-0.206755 0.555159 -0.069386 41 31 24 14 3
-0.187665 0.547842 -0.071887 43 32 25 14 3
-0.186923 0.542968 -0.043749 137 110 87 14 3
-0.388679 0.692135 0.106692 133 106 86 15 2
-0.417994 0.726001 0.121495 146 114 85 15 2
0.209890 0.123105 -0.167736 29 33 40 5 1
-0.306940 0.605710 -0.041831 130 104 82 14 3
-0.326476 0.616678 -0.040504 135 107 83 14 3
0.067971 0.282202 -0.353808 50 47 46 14 3
0.028989 0.282981 -0.337058 48 47 49 14 3
-0.451566 0.771161 0.516775 79 69 67 1 8
-0.447565 0.772105 0.535517 81 72 75 1 8
-0.437125 0.775999 0.556829 81 71 74 1 8
-0.246365 0.767351 -0.053674 104 101 99 1 8
-0.246359 0.752800 -0.058161 111 96 89 14 3
-0.258241 0.761170 -0.056775 95 92 88 1 8
-0.425968 -0.074265 -0.021140 177 146 111 15 2
0.055940 0.774995 -0.001370 148 146 141 1 8
0.155891 0.342790 -0.122851 242 235 217 14 3
0.159701 0.321811 -0.127420 247 241 222 14 3
0.159924 0.337666 -0.130342 244 240 221 14 3
0.161624 0.362773 -0.130914 243 239 220 14 3
-0.483621 0.108158 0.033255 132 100 78 15 2
-0.474448 0.108333 0.009192 134 102 80 15 2
-0.377641 0.313264 0.540396 229 221 210 15 2
-0.401140 0.767944 0.185317 79 71 71 1 8
0.187178 0.034892 -0.272115 29 32 42 5 1
-0.282139 0.518246 -0.042322 142 113 90 14 3
0.251473 -0.210642 -0.039146 35 38 43 5 1
0.231660 -0.223880 -0.046522 37 44 49 5 1
0.253096 -0.221557 -0.030611 38 41 46 5 1
0.241585 -0.212840 -0.017644 42 45 46 5 1
0.231077 -0.215633 -0.030888 134 128 110 5 1
0.244114 -0.216808 -0.044352 38 44 50 5 1
0.233931 -0.234413 -0.038098 38 43 47 5 1
-0.246378 0.772978 0.402442 149 142 139 1 8
-0.050167 0.777296 0.349942 162 153 152 1 8
-0.078259 0.775769 0.365183 166 155 155 1 8
-0.392773 0.726161 0.074942 155 137 118 15 2
-0.402123 0.733606 0.095138 153 134 116 15 2
-0.405705 0.735449 0.080919 156 137 118 15 2
-0.414586 0.725455 0.105483 159 136 115 15 2
-0.411968 0.730131 0.095395 159 136 115 15 2
-0.414148 0.729648 0.078404 157 136 117 15 2
-0.411490 0.736514 0.089923 158 139 119 15 2
0.255704 -0.153868 -0.022109 65 60 54 5 1
0.264362 -0.156464 -0.009125 172 159 137 5 1
-0.094903 0.497821 -0.044198 144 117 89 14 3
-0.425206 -0.086032 0.523942 123 92 70 15 2
-0.423182 -0.085556 0.541192 127 99 82 15 2
0.035117 0.779626 0.333942 163 161 157 1 8
-0.254370 0.768060 0.024942 141 131 125 1 8
-0.275575 0.767979 0.014942 140 131 125 1 8
-0.533573 0.133080 0.239548 120 90 58 15 2
-0.534790 0.133162 0.254900 132 99 69 15 2
-0.550754 0.132067 0.237987 122 92 62 15 2
0.123205 0.249730 -0.050103 182 156 121 14 3
0.127487 0.231063 -0.050396 184 157 119 14 3
-0.438641 0.265390 0.440913 165 137 116 15 2
-0.417846 0.266806 0.440438 141 110 89 15 2
-0.444409 0.257401 0.439558 151 121 100 15 2
-0.440262 0.246791 0.434775 185 164 144 15 2
-0.449796 0.262250 0.434611 178 158 138 15 2
-0.445569 0.262620 0.430390 188 173 152 15 2
-0.439262 0.273715 0.428176 237 223 199 15 2
0.148893 0.289612 -0.175116 226 219 202 14 3
0.134696 0.283274 -0.141058 106 98 90 14 3
0.138785 0.284442 -0.175958 99 91 82 14 3
-0.423284 0.107508 0.167442 155 127 105 15 2
-0.409693 0.107936 0.142067 153 125 103 15 2
-0.482119 0.137745 0.369293 233 226 213 15 2
-0.490694 0.135454 0.350028 167 126 88 15 2
-0.493881 0.136257 0.386957 159 121 83 15 2
0.184798 0.149021 -0.089454 33 29 25 5 1
0.180265 0.155834 -0.082708 27 23 20 5 1
0.183738 0.159567 -0.083129 27 23 20 5 1
0.201797 0.155369 -0.114013 38 44 50 5 1
0.187629 0.160069 -0.113124 41 51 59 5 1
0.184354 0.159848 -0.108626 35 38 39 5 1
0.196925 0.139561 -0.098497 34 33 37 5 1
0.185682 0.149694 -0.115405 32 27 24 5 1
0.197730 0.137356 -0.114539 29 33 39 5 1
-0.304952 0.627094 -0.042615 132 104 83 14 3
-0.076512 0.717005 -0.049035 130 112 96 14 3
-0.073731 0.731260 -0.052762 129 113 101 14 3
-0.084384 0.731909 -0.053633 116 103 91 14 3
0.202142 0.155057 -0.013288 67 76 85 5 1
0.193451 0.147528 -0.016335 139 124 111 5 1
0.207194 0.129669 -0.001563 154 133 113 5 1
0.192890 0.141203 -0.018365 79 62 45 5 1
0.183603 0.153124 -0.021404 97 80 60 5 1
0.226021 0.145888 -0.001082 56 53 55 5 1
0.201238 0.136365 -0.006646 79 69 65 5 1
-0.397000 0.110550 0.204502 161 136 113 15 2
-0.423736 0.341444 0.452674 204 195 179 15 2
-0.406178 0.310217 0.423978 226 217 204 15 2
-0.421192 0.339681 0.426739 231 209 179 15 2
-0.440073 0.329676 0.431883 228 209 183 15 2
-0.434266 0.323634 0.428793 182 169 158 15 2
0.063174 0.201969 -0.049779 180 152 119 14 3
-0.512931 0.315417 0.433030 134 114 91 15 2
-0.500100 0.298357 0.439186 122 95 74 15 2
-0.524128 0.303135 0.440597 119 92 72 15 2
-0.516724 0.303974 0.448785 129 98 77 15 2
0.204883 -0.184741 -0.120490 34 35 39 5 1
0.202858 -0.184829 -0.131856 28 33 38 5 1
0.229684 -0.197463 -0.124541 38 43 48 5 1
0.226153 -0.190931 -0.150997 38 47 54 5 1
0.232948 -0.187566 -0.133495 28 35 41 5 1
-0.011872 0.776085 0.064942 161 152 149 1 8
-0.028201 0.775179 0.076442 160 153 147 1 8
0.163493 -0.122049 -0.062131 116 101 84 14 3
0.166266 -0.131757 -0.070000 83 78 72 5 1
0.234361 0.112702 -0.093039 28 36 44 5 1
0.225440 0.114238 -0.112775 30 37 45 5 1
0.227255 0.111637 -0.088530 31 38 43 5 1
0.219499 0.113488 -0.080981 34 36 43 5 1
0.237475 0.117067 -0.110862 26 34 39 5 1
0.232398 0.112956 -0.112534 30 35 44 5 1
-0.135880 0.775539 0.366942 159 156 151 1 8
-0.094221 0.719720 -0.067627 84 68 52 14 3
-0.090282 0.729574 -0.067948 83 67 52 14 3
-0.086523 0.743933 -0.070904 85 69 53 14 3
-0.063148 0.745965 -0.067686 92 75 60 14 3
-0.073620 0.734185 -0.071685 86 69 54 14 3
-0.085496 0.719118 -0.079484 43 34 26 14 3
-0.084678 0.733280 -0.080810 42 33 26 14 3
-0.078710 0.745350 -0.080468 43 34 28 14 3
-0.067567 0.708368 -0.073389 65 51 39 14 3
-0.072696 0.729575 -0.081019 43 34 28 14 3
-0.079860 0.730469 -0.073223 43 34 28 14 3
-0.077548 0.718393 -0.079077 43 35 27 14 3
-0.063406 0.722717 -0.076593 44 35 26 14 3
-0.072964 0.724044 -0.084376 44 35 26 14 3
-0.059116 0.731969 -0.076375 43 35 27 14 3
0.044130 0.010852 -0.049089 181 151 115 14 3
-0.309016 0.776268 0.630942 142 139 137 1 8
-0.284846 0.777412 0.649005 138 140 136 1 8
0.165863 -0.010643 -0.208257 31 32 36 5 1
0.181468 -0.024047 -0.206775 33 34 38 5 1
0.168724 -0.008040 -0.194284 24 26 29 5 1
0.173547 -0.018266 -0.215871 31 35 35 5 1
0.182502 -0.021245 -0.189725 29 30 36 5 1
0.162833 -0.001459 -0.213320 27 30 33 5 1
-0.089916 0.013779 -0.047042 174 148 114 14 3
-0.113208 0.664858 -0.045308 137 115 93 14 3
-0.085685 0.673139 -0.045061 134 114 92 14 3
-0.102188 0.773189 -0.202557 109 101 92 1 8
-0.496415 0.693555 0.252942 126 99 85 15 2
-0.484203 0.692466 0.237442 128 103 88 15 2
-0.097898 0.772360 -0.185539 77 70 66 1 8
-0.439294 0.765410 -0.049897 64 54 52 1 8
-0.430819 0.762633 -0.050311 61 54 56 1 8
-0.416087 0.762468 -0.047395 61 56 59 1 8
0.014196 0.784755 0.620672 164 165 165 1 8
0.018088 0.786922 0.639206 166 164 161 1 8
0.041324 0.785207 0.625123 165 164 167 1 8
-0.376456 0.699962 0.525492 125 105 89 15 2
-0.377866 0.701758 0.555135 126 107 92 15 2
-0.370136 0.710945 0.532923 132 114 99 15 2
-0.397620 0.698622 0.554054 122 100 87 15 2
-0.386093 0.724126 0.544472 166 151 135 15 2
-0.369573 0.708003 0.538783 160 143 127 15 2
-0.373997 0.714403 0.546399 151 134 118 15 2
0.175912 0.037145 -0.070488 43 46 49 5 1
0.171372 0.022532 -0.071433 112 113 106 5 1
0.165502 0.037150 -0.067380 111 113 108 14 3
0.178666 0.003000 -0.073335 37 38 40 5 1
0.195464 0.018381 -0.066855 41 48 49 5 1
0.178080 0.010874 -0.095038 27 27 32 5 1
-0.439717 -0.065940 0.621778 215 200 179 15 2
-0.449953 -0.066791 0.640138 133 96 64 15 2
0.113551 0.281742 -0.149683 56 51 50 14 3
0.117015 0.282153 -0.119804 62 55 51 14 3
-0.472591 0.252521 -0.020622 158 127 100 15 2
-0.490128 0.280369 -0.020184 156 125 97 15 2
-0.167111 0.769973 -0.001558 143 136 130 1 8
-0.185501 0.769867 -0.009058 146 137 131 1 8
-0.470073 0.733434 0.059448 128 103 81 15 2
-0.458953 0.733758 0.052933 81 64 48 15 2
-0.457801 0.731778 0.063918 99 82 70 15 2
0.100913 0.281513 -0.330058 56 50 47 14 3
0.081784 0.281618 -0.335058 52 47 45 14 3
-0.314457 0.723442 -0.049614 108 95 82 14 3
-0.329176 0.710727 -0.045683 112 90 76 14 3
0.222306 -0.073967 -0.080631 28 30 37 5 1
0.221828 -0.085852 -0.078407 27 28 32 5 1
0.223131 -0.095975 -0.070856 27 28 28 5 1
0.229111 -0.081343 -0.058637 29 30 30 5 1
-0.435948 0.728211 0.375843 127 104 84 15 2
-0.540305 0.133545 0.206436 132 98 66 15 2
-0.564023 0.132808 0.226353 121 91 60 15 2
-0.416498 0.732189 0.579587 156 136 119 15 2
-0.405426 0.729725 0.576094 166 147 134 15 2
-0.389196 0.726311 0.571863 167 151 136 15 2
0.161740 0.143324 -0.224010 27 25 25 5 1
0.175877 0.131850 -0.240871 22 22 23 5 1
0.165068 0.144048 -0.230960 21 21 23 5 1
0.159036 0.138915 -0.238065 23 23 25 5 1
0.181915 0.154638 -0.228525 22 24 26 5 1
0.174381 0.151982 -0.226990 22 22 21 5 1
0.152086 0.143124 -0.230844 27 28 29 5 1
0.038680 0.776044 0.059192 158 154 148 1 8
0.011877 0.776436 0.069255 162 154 148 1 8
0.150076 0.485342 -0.048866 164 141 110 14 3
0.139587 0.516950 -0.048941 162 139 108 14 3
0.156913 0.508462 -0.050231 166 142 115 14 3
0.158878 0.544376 -0.049781 169 146 119 14 3
0.216072 0.155211 -0.106333 36 44 53 5 1
0.239959 0.137324 -0.120473 32 40 48 5 1
0.232219 0.146874 -0.107034 33 42 51 5 1
0.232794 0.144897 -0.083725 37 46 55 5 1
0.238348 0.139645 -0.103930 37 46 55 5 1
0.237282 0.120990 -0.099436 30 36 46 5 1
-0.429384 0.106665 0.120067 164 133 110 15 2
-0.393796 0.110269 0.302942 153 129 109 15 2
-0.526085 0.135041 0.273354 137 102 69 15 2
-0.526519 0.134970 0.298257 138 105 72 15 2
-0.506722 0.134201 0.270960 173 135 97 15 2
-0.526868 0.132674 0.261337 174 137 95 15 2
-0.040387 0.774157 0.143942 161 153 148 1 8
-0.391826 -0.083326 0.523813 199 178 161 15 2
0.140117 0.094035 -0.347898 30 31 31 5 1
-0.148841 -0.053606 -0.046389 180 152 117 14 3
-0.176688 -0.034010 -0.046336 175 149 116 14 3
0.103479 -0.039923 -0.047964 185 156 121 14 3
-0.022858 0.781701 0.479192 162 160 159 1 8
0.125727 0.129114 -0.264520 8 8 10 5 1
0.117943 0.119209 -0.280001 27 30 32 5 1
0.135214 0.121477 -0.273256 21 25 29 5 1
0.133875 0.125412 -0.263053 34 36 35 5 1
-0.010045 0.785215 0.613375 164 164 165 1 8
-0.100580 0.286258 -0.189012 27 28 27 14 3
-0.128081 0.283700 -0.209226 28 31 32 14 3
-0.111895 0.284911 -0.210869 26 27 28 14 3
-0.112722 0.288527 -0.198998 24 25 23 14 3
-0.119365 0.285714 -0.192357 33 32 34 14 3
-0.510761 0.364208 -0.020758 153 124 98 15 2
0.148325 0.124160 -0.091245 128 121 97 14 3
0.143590 0.143815 -0.084768 151 141 115 14 3
0.166133 0.124014 -0.053909 232 215 177 14 3
0.167532 0.102005 -0.075764 166 154 136 5 1
0.164007 0.109062 -0.080414 197 186 158 14 3
0.175844 0.132434 -0.066587 181 164 136 14 3
0.169948 0.120814 -0.069458 196 183 161 14 3
0.139982 0.379986 -0.105845 224 224 209 14 3
0.140896 0.388840 -0.117592 111 104 91 14 3
0.138225 0.391132 -0.111767 144 139 125 14 3
0.145501 0.372178 -0.096734 237 236 220 14 3
-0.367769 0.442114 -0.028635 180 154 129 15 2
-0.391303 -0.078304 0.635480 243 221 206 15 2
-0.384415 -0.077430 0.622864 240 233 215 15 2
-0.395103 -0.071725 0.625930 240 231 214 15 2
-0.392838 -0.084017 0.625353 235 223 202 15 2
-0.350060 0.332479 -0.039855 158 134 108 14 3
-0.360389 0.343136 -0.036265 193 172 144 15 2
-0.371360 0.346236 -0.028220 191 168 141 15 2
-0.138598 0.770698 -0.033808 131 126 124 1 8
-0.123650 0.770749 -0.016808 134 129 125 1 8
-0.121129 0.769765 -0.052021 109 105 103 1 8
-0.160386 0.766520 -0.055241 105 101 101 1 8
-0.500389 0.129443 0.041333 107 77 53 15 2
-0.145960 0.772352 0.177442 156 148 143 1 8
-0.396903 0.729940 0.138239 163 142 125 15 2
-0.411360 0.729582 0.153726 159 136 116 15 2
-0.415534 0.739117 0.152088 163 141 121 15 2
-0.409971 0.738817 0.151773 156 139 125 15 2
-0.416979 0.726263 0.174212 140 117 93 15 2
-0.410217 0.730205 0.140559 163 140 122 15 2
-0.575573 -0.088332 0.552505 118 98 84 15 2
-0.462796 -0.065892 0.549334 228 214 193 15 2
-0.481944 -0.064689 0.569015 195 169 142 15 2
-0.478820 -0.064503 0.590083 195 169 142 15 2
-0.282881 0.084634 -0.044591 170 142 111 14 3
-0.070111 0.286792 -0.332558 47 45 45 14 3
-0.083892 0.287461 -0.324558 46 46 47 14 3
-0.047898 0.556311 -0.045698 147 121 95 14 3
0.181589 0.139565 -0.203463 33 29 28 5 1
0.173687 0.141859 -0.213384 31 27 24 5 1
0.179605 0.155286 -0.214321 26 22 20 5 1
0.021362 0.775126 0.020442 153 149 144 1 8
-0.280151 0.293829 -0.338669 47 53 57 14 3
0.054682 0.776931 0.078442 163 156 150 1 8
0.067138 0.776736 0.097192 164 158 154 1 8
0.076319 0.772729 -0.198558 84 83 83 1 8
0.090472 0.772971 -0.187058 87 86 86 1 8
-0.118468 0.771805 0.015442 150 144 136 1 8
-0.468274 -0.110255 0.438494 138 113 91 15 2
-0.398976 0.324536 0.487167 228 221 204 15 2
-0.392883 0.306518 0.458436 145 115 93 15 2
-0.394672 0.325178 0.464078 218 209 193 15 2
-0.379297 0.312379 0.463494 210 193 179 15 2
-0.386726 0.311082 0.479723 150 127 108 15 2
-0.382965 0.314641 0.479861 229 218 204 15 2
-0.399885 0.307504 0.480851 148 123 105 15 2
-0.389701 0.319790 0.491835 228 217 201 15 2
-0.371879 0.225427 0.434925 189 173 157 15 2
-0.373055 0.233558 0.430894 218 206 192 15 2
-0.374834 0.221533 0.438469 189 172 156 15 2
-0.388728 0.237961 0.442287 144 122 106 15 2
-0.376230 0.206328 0.430808 228 222 206 15 2
-0.382976 0.203593 0.442788 147 121 104 15 2
-0.443356 0.150488 -0.018347 159 138 119 15 2
-0.484639 0.129372 -0.006737 126 88 58 15 2
-0.491458 0.131701 -0.014007 120 82 54 15 2
-0.486957 0.143644 -0.017347 155 130 110 15 2
-0.502703 0.154934 -0.018121 157 137 117 15 2
-0.470316 0.136958 -0.013435 124 85 59 15 2
-0.137485 0.235777 -0.047492 171 145 112 14 3
0.029515 0.784963 0.534942 167 165 166 1 8
0.035597 0.785188 0.514942 167 165 165 1 8
0.053175 0.785487 0.501442 166 163 163 1 8
-0.486763 0.229040 -0.020925 159 131 104 15 2
-0.509623 0.246553 -0.020528 157 129 102 15 2
0.123445 -0.217027 -0.080269 73 69 64 14 3
-0.446050 0.766360 0.312188 147 132 122 1 8
-0.462823 0.770755 0.338072 155 139 128 1 8
-0.449001 0.769133 0.362102 148 131 122 1 8
-0.470395 0.772451 0.321692 151 135 124 1 8
-0.282226 -0.139935 -0.044364 181 155 119 14 3
-0.275279 0.585039 -0.041979 132 105 83 14 3
-0.247990 0.769855 0.086192 148 139 131 1 8
-0.255354 0.769331 0.104942 151 141 134 1 8
-0.194933 0.773257 0.369942 157 151 148 1 8
-0.220666 0.772681 0.394692 152 147 144 1 8
-0.212612 0.773044 0.412942 151 147 142 1 8
-0.359870 -0.127116 -0.041023 177 147 114 14 3
-0.380674 0.059546 -0.029040 195 170 142 15 2
0.217488 0.007415 -0.352785 59 70 83 5 1
-0.061042 0.776136 0.322942 164 157 153 1 8
-0.030380 0.778199 0.310942 160 155 152 1 8
-0.049184 0.777101 0.308942 160 155 153 1 8
-0.402417 0.057455 0.446944 198 202 207 15 2
-0.402675 0.033820 0.446029 206 202 201 15 2
-0.421282 0.055834 0.444467 219 220 221 15 2
-0.377624 0.070530 0.427163 238 233 220 15 2
-0.393148 0.086641 0.421455 238 234 220 15 2
-0.390374 0.061279 0.446800 195 191 186 15 2
-0.408680 0.040977 0.426327 234 230 217 15 2
-0.405747 0.059580 0.425139 244 237 223 15 2
-0.477614 0.775761 0.478769 156 143 130 1 8
-0.455245 0.771132 0.465199 160 146 133 1 8
-0.389917 -0.091294 0.426625 233 221 196 15 2
-0.368554 -0.076279 0.435138 234 225 199 15 2
-0.373114 -0.050363 0.430934 225 215 190 15 2
-0.386041 -0.064997 0.453626 205 186 162 15 2
-0.397853 -0.058681 0.449671 205 185 161 15 2
-0.375634 -0.084274 0.447978 200 183 165 15 2
-0.379755 -0.059527 0.444983 202 183 158 15 2
-0.388111 -0.067580 0.426941 236 227 201 15 2
-0.371995 -0.071869 0.430978 237 227 201 15 2
-0.376028 -0.088757 0.431016 235 225 199 15 2
-0.211391 0.552241 -0.043245 136 110 86 14 3
0.247155 -0.022737 -0.332709 90 100 113 5 1
0.240366 -0.005068 -0.334788 79 90 102 5 1
0.251754 -0.038457 -0.336016 39 44 57 5 1
0.246710 -0.023846 -0.339131 43 50 61 5 1
0.236468 -0.019028 -0.322976 47 56 66 5 1
-0.326465 0.769180 0.149567 131 124 119 1 8
-0.422308 0.306454 0.483442 147 117 91 15 2
0.125254 0.281868 -0.110427 63 56 49 14 3
0.104386 0.278396 -0.112961 147 141 130 14 3
0.102671 0.272984 -0.108839 206 198 179 14 3
0.201149 0.121266 -0.197201 51 43 37 5 1
0.191283 0.117430 -0.209794 25 29 38 5 1
0.186452 0.107349 -0.216590 25 29 37 5 1
0.178172 0.113314 -0.210722 23 22 22 5 1
0.213905 0.118636 -0.201323 24 28 33 5 1
0.184057 0.120011 -0.208957 33 28 27 5 1
0.181990 0.102705 -0.206369 28 28 30 5 1
0.205723 0.117279 -0.216958 24 30 36 5 1
-0.442070 0.690718 0.176942 133 104 86 15 2
-0.509366 -0.069326 0.497180 217 200 181 15 2
-0.508766 -0.069021 0.480147 217 199 181 15 2
-0.512690 -0.083736 0.493880 123 98 83 15 2
-0.489783 -0.084474 0.504130 122 94 76 15 2
0.047657 0.727932 -0.052399 125 110 101 14 3
0.024935 0.739451 -0.057175 126 109 98 14 3
0.021374 0.771729 -0.237393 158 149 139 1 8
0.033699 0.770696 -0.208597 156 147 133 1 8
-0.031117 -0.007893 -0.047493 180 153 117 14 3
-0.040426 -0.024735 -0.046093 182 153 118 14 3
-0.290160 0.775040 0.513942 141 134 134 1 8
-0.413389 0.767959 0.081190 77 71 74 1 8
-0.405161 0.768905 0.065942 77 71 74 1 8
-0.397331 0.768150 0.088942 87 80 82 1 8
0.037363 0.775618 -0.005058 156 150 146 1 8
0.007944 0.775441 -0.007058 146 142 139 1 8
0.006946 0.774418 -0.028558 144 140 136 1 8
0.047077 0.772793 -0.187558 75 73 75 1 8
0.054167 0.773016 -0.162558 77 78 79 1 8
0.062871 0.773217 -0.149732 81 77 80 1 8
-0.378847 0.693702 0.116916 129 103 83 15 2
-0.370543 0.695943 0.112051 133 106 85 15 2
-0.369642 0.701336 0.087392 134 108 86 15 2
-0.375832 0.710992 0.084855 161 137 117 15 2
-0.386944 0.721749 0.097317 161 139 119 15 2
-0.370223 0.474244 0.430782 195 183 166 15 2
-0.380339 0.472249 0.444132 140 126 117 15 2
-0.374284 0.491182 0.442667 153 141 127 15 2
-0.388125 0.488825 0.446252 134 122 110 15 2
-0.376052 0.472966 0.426870 198 188 170 15 2
-0.372939 0.510804 0.426852 195 183 167 15 2
-0.385921 0.470667 0.425052 200 190 173 15 2
-0.425566 -0.065231 0.532994 202 172 146 15 2
-0.452564 -0.065506 0.533186 155 116 79 15 2
0.234979 -0.219599 -0.066465 41 47 52 5 1
0.238392 -0.207752 -0.081119 35 40 47 5 1
0.232768 -0.217556 -0.079564 37 40 48 5 1
0.241511 -0.207738 -0.067791 30 35 43 5 1
0.140841 -0.014404 -0.050656 189 162 126 14 3
0.125279 0.022458 -0.050471 189 160 126 14 3
0.156033 0.009567 -0.053623 187 162 126 14 3
0.135898 -0.203646 -0.084199 52 50 45 14 3
-0.433834 0.726132 0.236564 136 109 87 15 2
0.156136 0.536010 -0.091198 205 201 182 14 3
0.170878 0.554883 -0.068575 222 217 196 14 3
-0.325471 0.214329 -0.043071 163 138 108 14 3
-0.341057 0.264219 -0.043310 164 138 109 14 3
-0.341500 0.244212 -0.042155 163 137 107 14 3
-0.414612 0.175334 0.427870 191 175 156 15 2
-0.427359 0.191959 0.428305 198 183 164 15 2
-0.403800 0.204482 0.426883 191 175 155 15 2
-0.413106 0.175993 0.445086 159 134 112 15 2
-0.419644 0.202545 0.444562 151 122 101 15 2
-0.399574 0.198358 0.446208 182 164 149 15 2
-0.053251 0.775140 0.199942 162 154 148 1 8
-0.364465 0.768428 0.045952 106 100 101 1 8
-0.363068 0.768878 0.025567 101 95 96 1 8
0.234616 -0.042684 -0.138000 27 32 37 5 1
0.237699 -0.060928 -0.140009 31 36 44 5 1
0.087337 0.773700 -0.133943 86 82 78 1 8
0.083292 0.771085 -0.124708 149 141 130 1 8
0.070780 0.771611 -0.134288 122 115 104 1 8
0.160125 0.592640 -0.049047 158 135 108 14 3
0.147896 0.553112 -0.048625 161 138 110 14 3
0.169349 0.570099 -0.053048 171 150 125 14 3
-0.419990 -0.065449 0.555954 238 229 211 15 2
-0.425970 -0.064195 0.581985 240 229 212 15 2
-0.412414 -0.065675 0.582975 237 225 207 15 2
0.083435 0.779852 0.247692 165 163 161 1 8
0.094799 0.779940 0.227161 168 161 159 1 8
0.238950 0.125027 -0.172730 25 30 41 5 1
0.234523 0.119607 -0.185042 26 30 40 5 1
0.214228 0.119176 -0.187978 26 31 40 5 1
0.205578 0.123684 -0.189331 25 29 40 5 1
0.225181 0.115558 -0.163996 27 32 40 5 1
0.233628 0.117130 -0.158900 26 32 41 5 1
-0.185342 0.289096 -0.328163 56 64 73 14 3
-0.191809 0.288306 -0.293828 61 70 77 14 3
-0.193759 0.289443 -0.281797 61 70 77 14 3
-0.225866 0.289322 -0.311389 57 66 73 14 3
-0.290121 0.429467 -0.042892 150 123 98 14 3
-0.160709 0.771771 0.261942 158 149 145 1 8
-0.150642 0.772581 0.290942 154 149 143 1 8
-0.168848 0.770928 0.280705 158 150 145 1 8
0.112693 0.281261 -0.264558 60 57 52 14 3
0.110491 0.281480 -0.230808 57 54 52 14 3
0.254367 -0.151295 -0.068526 31 35 40 5 1
0.254061 -0.140462 -0.084342 25 29 35 5 1
0.260475 -0.147060 -0.053998 26 30 36 5 1
0.248814 -0.172941 -0.083870 25 31 39 5 1
-0.536377 0.128665 -0.003868 164 135 101 15 2
-0.527875 0.108295 -0.007231 128 100 81 15 2
-0.541438 0.110242 -0.000058 141 114 97 15 2
-0.540947 0.105859 -0.013511 129 103 86 15 2
0.142597 0.778178 0.096942 166 160 158 1 8
0.098061 0.776991 0.052942 164 158 155 1 8
0.110513 0.778044 0.096161 166 159 155 1 8
-0.072511 0.776123 0.265442 160 156 149 1 8
-0.429142 0.484726 0.432744 167 156 145 15 2
-0.427567 0.480684 0.439297 162 152 143 15 2
0.155399 0.103348 -0.131780 33 34 38 5 1
-0.191109 0.206637 -0.045350 168 140 109 14 3
-0.090006 0.772525 0.116817 159 149 144 1 8
-0.111051 0.772598 0.114442 155 150 144 1 8
-0.547761 0.136088 0.333692 171 129 92 15 2
-0.546291 0.136908 0.358288 169 131 91 15 2
-0.572444 0.135208 0.333317 170 131 93 15 2
0.223167 -0.024801 -0.181114 22 27 35 5 1
0.235189 -0.108434 -0.314489 24 31 40 5 1
0.233601 -0.129818 -0.314889 28 36 43 5 1
-0.272399 0.294530 -0.310146 58 58 65 14 3
-0.273833 0.292444 -0.282074 44 40 43 14 3
-0.457697 0.102340 0.410247 181 161 146 15 2
-0.474141 0.108548 0.397561 137 113 95 15 2
-0.469331 0.097848 0.415422 201 183 167 15 2
-0.472138 0.106511 0.404268 139 114 96 15 2
-0.432083 0.104367 0.409819 143 117 103 15 2
-0.450640 0.087369 0.421056 197 181 162 15 2
-0.450079 0.774806 0.556506 93 80 76 1 8
-0.460373 0.773965 0.526324 115 101 95 1 8
-0.467255 0.775672 0.549636 147 134 122 1 8
0.005206 0.772692 -0.240058 65 66 68 1 8
0.018539 0.771312 -0.261697 139 129 118 1 8
0.008704 0.772450 -0.281058 61 62 64 1 8
-0.171370 -0.150999 -0.045025 186 157 125 14 3
-0.131052 -0.120896 -0.045266 186 158 126 14 3
-0.169813 -0.131347 -0.045638 184 158 124 14 3
-0.429869 0.107286 0.270942 151 125 104 15 2
-0.389960 0.768590 0.120317 86 77 77 1 8
-0.397694 0.767490 0.137442 80 71 73 1 8
0.166730 0.712887 -0.052124 139 124 108 14 3
0.170021 0.719492 -0.057369 150 135 114 14 3
-0.117260 0.642896 -0.069260 73 56 42 14 3
-0.123932 0.653173 -0.067733 74 57 42 14 3
-0.130488 0.632739 -0.069084 73 55 41 14 3
-0.133858 0.653405 -0.068816 83 63 48 14 3
-0.141405 0.630694 -0.069616 64 50 36 14 3
-0.138411 0.646950 -0.071990 63 49 37 14 3
-0.150665 0.638491 -0.068875 63 49 37 14 3
-0.122745 0.649040 -0.072551 63 49 37 14 3
-0.385598 0.110967 -0.022719 218 192 161 15 2
-0.403976 0.111701 0.000179 193 164 134 15 2
-0.394148 0.116235 -0.000093 190 161 132 15 2
-0.394408 0.122371 -0.001003 217 198 173 15 2
-0.386012 0.124534 -0.019460 192 170 145 15 2
-0.398330 0.137546 -0.019712 161 138 120 15 2
-0.389846 0.120336 -0.013871 221 198 173 15 2
-0.396369 0.112422 -0.011478 196 167 137 15 2
-0.242243 0.687197 -0.063806 82 61 49 14 3
-0.241249 0.675738 -0.064277 77 60 45 14 3
-0.251512 0.680590 -0.067666 74 59 44 14 3
-0.250688 0.665994 -0.073991 38 30 21 14 3
-0.265545 0.680234 -0.067948 70 56 41 14 3
-0.230381 0.692000 -0.066591 78 60 45 14 3
-0.250258 0.693962 -0.066122 59 47 35 14 3
-0.263443 0.687389 -0.074209 39 31 23 14 3
-0.256986 0.692322 -0.080895 39 31 23 14 3
-0.464097 0.736168 -0.000906 127 97 67 15 2
-0.179289 0.773329 0.361442 157 150 143 1 8
-0.496022 -0.084917 0.599942 115 90 74 15 2
-0.456017 0.132004 0.267150 206 190 170 15 2
-0.437785 0.133800 0.294436 234 230 220 15 2
-0.440779 0.133127 0.266929 144 116 92 15 2
-0.010703 0.273926 -0.048323 172 146 111 14 3
-0.413714 0.732286 0.636006 146 127 110 15 2
-0.414188 0.731527 0.619619 119 99 79 15 2
-0.404930 0.731146 0.642547 147 127 112 15 2
-0.400700 0.731018 0.630658 166 149 136 15 2
0.153200 0.372911 -0.086858 236 236 216 14 3
0.140704 0.350811 -0.117464 96 91 77 14 3
-0.179300 0.552511 -0.069205 42 31 24 14 3
0.269148 -0.234385 -0.005395 46 50 55 5 1
-0.340267 0.479535 -0.040539 141 116 90 14 3
-0.351967 0.457338 -0.036576 149 123 97 15 2
0.251379 -0.094411 -0.030535 111 99 88 5 1
0.262640 -0.080521 -0.052615 33 38 45 5 1
0.267671 -0.107249 -0.045354 24 31 38 5 1
0.175791 0.580699 -0.267192 180 169 142 14 3
0.173907 0.588949 -0.295708 187 177 149 14 3
0.172229 0.554355 -0.294550 197 190 163 14 3
-0.024576 0.775813 0.145192 165 156 153 1 8
-0.474901 -0.067886 0.491118 207 186 163 15 2
-0.468596 -0.067669 0.516480 208 186 163 15 2
-0.497393 -0.068665 0.481494 220 204 186 15 2
0.032786 0.724761 -0.073786 86 72 56 14 3
-0.289632 0.655260 -0.074328 35 27 20 14 3
-0.299355 0.659190 -0.073555 35 27 20 14 3
-0.269461 0.672479 -0.075067 38 30 21 14 3
-0.279101 0.665661 -0.063385 80 64 48 14 3
-0.283370 0.655756 -0.063478 71 55 40 14 3
-0.302901 0.654609 -0.064180 85 67 51 14 3
-0.293527 0.672222 -0.063647 79 64 47 14 3
-0.292455 0.645958 -0.064439 84 66 49 14 3
0.086973 -0.094906 -0.046814 192 164 127 14 3
0.041054 -0.083145 -0.046480 190 162 126 14 3
0.194048 0.035249 -0.172999 28 37 43 5 1
0.189432 0.038655 -0.160656 30 33 39 5 1
0.182132 0.047016 -0.171838 23 29 34 5 1
0.168172 0.059159 -0.189753 28 30 37 5 1
0.166471 0.373493 -0.052988 207 189 164 14 3
0.160721 0.376906 -0.050475 185 160 128 14 3
0.162518 0.060176 -0.240521 31 32 40 5 1
0.169574 0.054253 -0.226480 28 37 41 5 1
0.161493 0.067675 -0.227372 23 33 39 5 1
0.257465 -0.130353 -0.069983 26 30 37 5 1
0.256948 -0.119834 -0.079660 26 30 37 5 1
0.259803 -0.115353 -0.067209 26 33 38 5 1
-0.236900 0.354883 -0.044423 155 131 101 14 3
-0.258378 0.372641 -0.044400 155 130 100 14 3
-0.351771 0.130338 -0.042077 167 142 111 14 3
-0.358752 0.107883 -0.040681 180 155 124 14 3
-0.368998 0.135926 -0.037101 174 149 119 15 2
-0.368255 0.108194 -0.037181 215 192 162 15 2
-0.260162 0.771225 0.342192 146 139 135 1 8
-0.429275 0.730287 0.494561 157 143 127 15 2
0.036629 0.770048 -0.283058 169 160 146 1 8
-0.408944 0.108205 0.207942 155 129 108 15 2
-0.429015 0.107252 0.209192 156 128 107 15 2
-0.406446 0.107969 0.230881 161 135 111 15 2
-0.404539 0.767396 0.149692 79 72 74 1 8
-0.417378 0.767614 0.170573 83 76 77 1 8
-0.375446 0.769667 0.175692 85 79 80 1 8
-0.445177 0.687021 -0.012993 116 87 67 15 2
-0.448434 0.689349 -0.005058 120 90 71 15 2
-0.467902 0.665932 -0.021156 113 86 65 15 2
-0.141040 0.325148 -0.045877 161 137 107 14 3
-0.215444 0.717055 -0.048161 127 107 86 14 3
-0.185518 0.729847 -0.052547 120 104 90 14 3
-0.568189 -0.062396 0.614480 142 101 65 15 2
-0.567343 -0.084509 0.594429 116 96 82 15 2
-0.570606 -0.084356 0.613759 116 96 82 15 2
-0.577424 -0.088066 0.592936 117 96 82 15 2
-0.579562 -0.087317 0.608093 115 96 81 15 2
-0.572728 -0.063239 0.595482 129 90 55 15 2
-0.114676 0.771427 -0.211638 128 117 108 1 8
-0.104201 0.769842 -0.237195 142 133 122 1 8
-0.410079 0.306149 0.607281 141 113 90 15 2
-0.443004 0.306308 0.602942 140 113 91 15 2
0.119858 0.772323 -0.247058 96 94 94 1 8
0.133605 0.774324 -0.226496 93 91 89 1 8
0.105471 0.771981 -0.225058 93 87 90 1 8
-0.415575 0.129740 0.270854 236 232 217 15 2
-0.388375 0.695430 0.356942 124 97 82 15 2
-0.390276 0.725112 0.364313 165 145 127 15 2
-0.372476 0.704784 0.386021 129 103 87 15 2
-0.369846 0.708184 0.343038 131 107 89 15 2
-0.379617 0.697925 0.372396 126 99 83 15 2
-0.377412 0.714648 0.375994 163 143 124 15 2
0.088278 0.622275 -0.046299 147 127 102 14 3
-0.372957 0.708721 0.383725 159 136 117 15 2
-0.415227 0.281163 0.426872 230 221 208 15 2
-0.380849 0.268686 0.439212 138 110 90 15 2
-0.385290 0.287326 0.439272 138 110 89 15 2
-0.399637 0.299833 0.448231 139 109 82 15 2
-0.421373 0.301502 0.452511 137 106 80 15 2
-0.389497 0.289355 0.425313 213 199 183 15 2
-0.406222 0.289784 0.443881 133 102 79 15 2
-0.379956 0.301281 0.442553 137 108 85 15 2
0.220988 -0.040173 -0.228869 21 29 37 5 1
0.225348 -0.071235 -0.237586 23 29 37 5 1
0.222319 -0.063752 -0.251202 22 28 36 5 1
0.227079 -0.062312 -0.213567 20 26 34 5 1
0.224109 -0.059694 -0.229891 24 30 38 5 1
0.049059 0.126100 -0.049624 181 156 119 14 3
0.028401 0.773654 -0.156989 84 78 77 1 8
0.006536 0.777859 -0.144769 83 78 78 1 8
0.022689 0.779016 -0.138270 90 87 86 1 8
0.035652 0.778043 -0.132962 93 87 82 1 8
0.224065 -0.071641 -0.286614 21 27 35 5 1
0.217858 -0.042919 -0.255443 25 32 38 5 1
-0.540926 0.040116 -0.020418 142 113 91 15 2
-0.526351 0.066824 -0.020108 137 108 86 15 2
-0.280525 0.774331 0.528942 146 138 137 1 8
-0.277585 0.773678 0.550942 145 139 136 1 8
-0.243692 0.774469 0.550942 149 142 140 1 8
-0.441472 0.345745 0.444093 149 115 81 15 2
-0.449552 0.696961 0.642942 111 91 79 15 2
-0.425285 0.132752 0.290566 234 233 225 15 2
-0.403389 0.127774 0.289860 231 231 225 15 2
-0.428615 0.133722 0.337295 233 234 227 15 2
-0.415677 0.130575 0.316679 232 234 228 15 2
0.153632 0.013899 -0.212998 23 27 28 5 1
0.153454 0.014883 -0.197221 30 31 33 5 1
0.163533 0.001257 -0.195441 30 31 33 5 1
0.163484 0.005961 -0.188852 24 28 33 5 1
-0.242576 0.771453 0.254942 152 143 138 1 8
-0.523202 0.132442 0.239508 172 132 93 15 2
-0.504746 0.131386 0.258889 175 138 99 15 2
-0.507047 0.132721 0.239606 116 83 54 15 2
-0.490170 0.133437 0.246923 173 132 88 15 2
0.061484 0.638836 -0.046204 143 121 97 14 3
-0.363919 0.775587 0.542473 115 111 109 1 8
-0.366775 0.776151 0.572942 106 102 102 1 8
0.138549 0.283459 -0.249683 100 90 83 14 3
0.150909 0.288591 -0.218403 137 131 116 14 3
0.145567 0.285897 -0.217961 100 92 80 14 3
-0.293107 0.768495 -0.032558 130 122 119 1 8
-0.279198 0.768238 -0.014558 135 127 123 1 8
0.243256 -0.153043 -0.324081 26 29 38 5 1
0.229749 -0.153986 -0.315015 31 36 46 5 1
0.250729 -0.174134 -0.023373 41 43 43 5 1
0.260068 -0.157327 -0.012722 70 70 65 5 1
0.257241 -0.178777 -0.010690 98 89 82 5 1
0.250395 -0.200878 -0.011257 118 108 97 5 1
0.241743 -0.197997 -0.027245 37 37 36 5 1
-0.435358 0.772454 0.398878 75 69 73 1 8
-0.446677 0.768467 0.393483 74 66 66 1 8
-0.436853 0.773878 0.411713 70 65 69 1 8
-0.193945 0.634696 -0.064326 87 67 50 14 3
-0.174408 0.660099 -0.069182 74 56 42 14 3
-0.196068 0.661072 -0.066355 62 47 35 14 3
0.204094 -0.232233 -0.093769 45 49 56 5 1
0.123143 0.281816 -0.202808 63 58 54 14 3
-0.395099 0.034430 0.425976 235 232 218 15 2
-0.070905 0.245829 -0.047161 170 143 112 14 3
-0.108924 0.233074 -0.047522 168 142 109 14 3
0.185842 0.040500 -0.216211 32 35 45 5 1
0.181295 0.042546 -0.246540 31 35 45 5 1
0.171975 0.051025 -0.243851 35 37 48 5 1
0.182246 0.037610 -0.233016 25 32 40 5 1
-0.418853 -0.118777 -0.020745 179 147 113 15 2
-0.417675 -0.150155 -0.021310 183 153 118 15 2
-0.331661 -0.036524 -0.042685 171 143 110 14 3
-0.343444 -0.066258 -0.042507 173 143 110 14 3
-0.351906 -0.035507 -0.041443 171 140 108 14 3
0.139281 -0.146630 -0.047735 193 169 132 14 3
0.176672 0.598989 -0.246558 188 175 150 14 3
0.174670 0.578576 -0.247683 192 182 155 14 3
-0.148292 0.288499 -0.309058 47 49 50 14 3
0.249581 -0.081520 -0.325711 41 49 60 5 1
0.258395 -0.096382 -0.337537 40 45 56 5 1
0.258005 -0.070968 -0.337204 26 29 40 5 1
-0.338197 0.776793 0.619942 131 125 125 1 8
-0.377355 0.774316 0.403442 103 98 100 1 8
-0.362751 0.774818 0.417692 109 105 106 1 8
0.154140 0.502541 -0.090621 236 237 222 14 3
0.161695 0.445097 -0.312784 225 227 206 14 3
0.167302 0.442875 -0.338716 224 223 199 14 3
0.162131 0.445385 -0.322055 239 239 220 14 3
-0.157348 0.474494 -0.044216 146 119 97 14 3
-0.446026 0.260370 -0.021207 156 125 95 15 2
-0.441435 0.241611 -0.020459 159 127 100 15 2
-0.473874 0.334365 0.478135 161 126 85 15 2
-0.476072 0.333772 0.463628 158 121 83 15 2
-0.502957 0.338732 0.458096 158 117 79 15 2
-0.465863 0.338277 0.451097 161 123 81 15 2
-0.493375 0.336744 0.476933 159 123 82 15 2
-0.506267 0.340278 0.473660 160 124 82 15 2
-0.557407 0.129271 -0.007198 134 94 64 15 2
-0.499034 0.128060 -0.005519 110 78 51 15 2
-0.512041 0.128275 0.011657 96 77 68 15 2
-0.543596 0.131010 -0.013668 134 94 65 15 2
-0.538187 0.153796 -0.019971 132 109 94 15 2
-0.487255 0.136782 -0.015502 107 73 46 15 2
-0.516737 0.134771 -0.017811 109 74 47 15 2
-0.518017 0.150337 -0.019551 147 122 104 15 2
-0.426959 -0.041072 -0.021167 176 145 110 15 2
-0.451396 -0.047783 -0.021200 176 144 111 15 2
-0.430488 0.776691 0.579340 84 77 75 1 8
-0.420412 0.777741 0.594612 86 80 79 1 8
-0.450218 0.773869 0.579547 82 75 73 1 8
-0.440280 0.777058 0.599561 82 75 73 1 8
0.038579 0.737794 -0.075848 85 70 54 14 3
0.034991 0.733705 -0.073072 89 73 57 14 3
0.031854 0.746686 -0.060599 131 115 104 14 3
0.074442 0.748256 -0.061072 123 110 102 14 3
0.054560 0.741501 -0.072682 91 76 61 14 3
0.064899 0.747640 -0.070904 91 77 62 14 3
0.058689 0.755537 -0.069147 119 102 90 14 3
0.042807 0.758363 -0.069254 131 116 103 14 3
0.050294 0.755255 -0.081312 118 102 87 14 3
0.055797 0.743917 -0.078074 47 38 31 14 3
0.062947 0.750053 -0.076621 47 38 32 14 3
0.056084 0.764142 -0.065001 114 107 100 1 8
0.058480 0.746483 -0.066924 139 119 105 14 3
0.047550 0.748274 -0.067628 132 114 94 14 3
0.039786 0.761561 -0.084566 103 87 75 14 3
0.038163 0.750805 -0.080071 48 38 31 14 3
-0.050302 0.783929 0.610942 161 160 162 1 8
-0.065952 0.784281 0.639942 160 159 159 1 8
-0.063069 0.782721 0.632942 160 160 160 1 8
-0.031623 0.784941 0.640818 164 160 158 1 8
-0.397673 0.656694 0.421330 176 157 136 15 2
-0.413592 0.648702 0.423893 158 137 118 15 2
-0.418467 0.637000 0.425014 156 137 118 15 2
-0.397464 0.627179 0.422165 178 160 136 15 2
0.170843 0.403052 -0.056668 234 225 202 14 3
0.166170 0.421059 -0.052124 215 202 178 14 3
0.155301 0.403649 -0.049409 180 153 124 14 3
0.046380 0.771718 -0.208854 80 76 75 1 8
0.060561 0.771179 -0.201814 80 76 76 1 8
-0.412867 0.739719 0.008398 143 125 111 15 2
-0.390827 0.725618 0.004942 143 124 111 15 2
-0.400316 0.732687 0.020192 149 128 111 15 2
-0.410398 0.738873 0.034127 141 124 112 15 2
-0.412315 0.729887 0.004169 155 132 109 15 2
-0.414243 0.730403 0.034995 154 132 111 15 2
-0.121914 0.776275 0.342442 159 154 149 1 8
-0.511228 -0.066440 0.531506 150 108 67 15 2
-0.503076 -0.065152 0.554706 145 106 67 15 2
-0.496843 -0.065719 0.519717 187 158 129 15 2
0.021167 0.251817 -0.048760 178 149 114 14 3
-0.000434 0.236133 -0.049031 177 149 113 14 3
-0.414538 0.725651 -0.000042 151 124 102 15 2
-0.403741 0.734977 -0.022514 141 121 106 15 2
-0.409721 0.729635 -0.027403 152 127 104 15 2
-0.410533 0.734519 -0.024262 146 125 107 14 3
-0.401759 0.733168 -0.001469 141 122 108 15 2
-0.411547 0.738103 -0.007179 139 120 107 15 2
-0.412925 0.731011 -0.009613 152 124 100 15 2
0.138402 -0.192986 -0.046847 194 167 132 14 3
0.118647 0.203618 -0.051789 185 154 118 14 3
0.104902 0.191696 -0.052365 166 143 115 14 3
-0.316221 0.714034 -0.073218 35 28 24 14 3
0.163476 -0.095384 -0.066864 123 109 92 5 1
0.162849 -0.082297 -0.057730 124 111 96 14 3
0.162327 -0.077610 -0.071414 133 128 115 5 1
0.153440 -0.076999 -0.079031 91 83 74 5 1
0.163721 -0.055027 -0.056214 173 165 150 14 3
-0.454626 0.767766 -0.065324 105 89 81 1 8
-0.407053 0.306461 0.623810 137 111 90 15 2
-0.439889 0.306983 0.638942 134 109 87 15 2
-0.411893 0.306265 0.639153 131 106 90 15 2
-0.398382 0.683639 0.415987 154 135 119 15 2
-0.386258 0.684188 0.420484 167 148 130 15 2
0.230280 0.001425 -0.093284 29 34 41 5 1
0.240960 -0.038782 -0.095581 28 32 37 5 1
0.237507 -0.027466 -0.107825 42 48 55 5 1
0.235292 -0.018482 -0.100084 45 52 57 5 1
0.241615 -0.020927 -0.083645 31 36 42 5 1
-0.364737 0.180339 -0.036648 197 173 144 15 2
-0.376803 0.187744 -0.026772 203 179 150 15 2
0.212619 -0.180159 -0.249589 23 28 34 5 1
0.213417 -0.188885 -0.221873 23 25 34 5 1
0.212303 -0.189147 -0.237650 26 29 37 5 1
-0.338342 0.769942 0.240942 124 119 117 1 8
-0.361185 0.770731 0.245567 124 117 116 1 8
-0.330394 0.770939 0.262942 128 120 118 1 8
0.166555 0.277365 -0.066606 255 252 233 14 3
0.186666 0.049528 -0.137196 29 30 34 5 1
0.176881 0.060575 -0.134051 26 29 31 5 1
0.192528 0.047296 -0.120786 31 35 37 5 1
0.173355 0.056780 -0.159372 26 27 32 5 1
0.174360 0.064011 -0.144945 27 31 39 5 1
0.191532 0.044343 -0.145466 26 31 37 5 1
0.199936 0.040719 -0.123542 27 29 33 5 1
0.161289 0.290538 -0.074553 255 253 234 14 3
0.196099 0.033276 -0.147991 27 32 40 5 1
0.158739 0.271328 -0.077407 255 252 229 14 3
-0.427111 -0.086276 0.494942 122 90 70 15 2
-0.433063 -0.085525 0.506942 125 95 76 15 2
-0.440694 -0.086028 0.518942 123 94 73 15 2
-0.216229 0.751597 -0.059381 120 104 90 14 3
-0.240279 0.735270 -0.053378 114 101 88 14 3
0.212105 -0.034964 -0.087402 27 32 38 5 1
0.210330 -0.055150 -0.118320 37 40 49 5 1
0.209702 -0.043915 -0.110887 28 33 41 5 1
0.205952 -0.033192 -0.118759 28 32 40 5 1
0.217584 -0.051253 -0.094433 34 38 46 5 1
0.214734 -0.033819 -0.098108 30 35 37 5 1
0.186483 -0.078445 -0.219252 25 27 28 5 1
-0.035109 0.026482 -0.048826 179 150 116 14 3
-0.065691 0.000504 -0.047456 179 150 117 14 3
-0.052479 0.012759 -0.048193 177 150 117 14 3
-0.522905 0.000076 -0.019636 159 125 96 15 2
-0.515810 0.021435 -0.020424 153 119 91 15 2
0.068911 0.770086 -0.283058 80 77 76 1 8
-0.385616 0.369689 0.444009 163 146 130 15 2
-0.381742 0.398679 0.443740 158 139 123 15 2
-0.392077 0.409066 0.446628 156 135 119 15 2
-0.393727 0.386523 0.425065 227 218 203 15 2
-0.375464 0.380140 0.436779 204 190 172 15 2
-0.374640 0.400689 0.436666 204 189 173 15 2
-0.374847 0.397385 0.430894 210 198 181 15 2
-0.375596 0.374632 0.430881 213 201 185 15 2
-0.383843 0.379575 0.426581 211 198 181 15 2
-0.383801 0.400311 0.426974 210 198 181 15 2
-0.374188 0.355267 0.436424 153 136 119 15 2
-0.102461 0.702812 -0.046142 135 111 92 14 3
-0.164620 0.684607 -0.044982 130 109 88 14 3
0.245189 -0.155768 -0.031394 23 24 23 5 1
0.261902 -0.165374 -0.046259 34 38 45 5 1
0.266412 -0.137117 -0.041727 31 35 40 5 1
-0.329687 0.300182 -0.324350 57 60 68 14 3
0.080786 0.772181 -0.174058 83 80 79 1 8
0.097397 0.773857 -0.145433 89 85 90 1 8
0.085453 0.772640 -0.154073 83 80 84 1 8
-0.375810 0.775517 0.467067 99 91 94 1 8
0.173920 0.654140 -0.176649 186 178 155 14 3
0.166068 0.664464 -0.179702 170 158 137 14 3
0.160145 0.673496 -0.159931 182 172 154 14 3
0.177331 0.649573 -0.158852 187 179 156 14 3
-0.579460 -0.088483 0.623438 115 97 85 15 2
-0.589266 -0.092305 0.638324 115 97 85 15 2
-0.590369 -0.098497 0.623539 118 99 86 15 2
0.148164 0.023742 -0.052807 186 161 126 14 3
0.159089 0.014617 -0.057336 163 149 128 14 3
0.162239 0.442148 -0.171775 240 241 227 14 3
0.162453 0.427920 -0.179214 246 246 233 14 3
0.165329 0.429512 -0.156744 241 242 225 14 3
0.235318 -0.182557 -0.120120 46 52 59 5 1
0.237836 -0.168074 -0.128226 33 40 47 5 1
0.173909 -0.220914 -0.190019 65 63 61 5 1
-0.427051 0.762597 0.004451 65 59 60 1 8
-0.411891 0.766834 0.001212 67 63 65 1 8
-0.428265 0.762363 0.032406 66 60 63 1 8
-0.444047 0.765729 0.036942 73 60 59 1 8
-0.417046 0.766475 0.030942 70 66 68 1 8
-0.434460 0.763086 0.019737 70 60 62 1 8
-0.332062 0.048561 -0.043189 171 141 112 14 3
-0.346876 0.011736 -0.042145 170 140 109 14 3
-0.397986 0.111498 0.446856 195 189 185 15 2
-0.381634 0.136276 0.443572 204 197 189 15 2
-0.381720 0.113713 0.442088 212 207 197 15 2
-0.374764 0.137114 0.435278 212 208 198 15 2
-0.374450 0.111220 0.431970 234 231 219 15 2
-0.374642 0.135980 0.430184 238 238 227 15 2
-0.396182 0.647856 0.439765 111 86 72 15 2
-0.416758 0.648996 0.440725 105 83 68 15 2
-0.420067 0.666497 0.440998 108 84 70 15 2
-0.429056 0.631117 0.435165 126 101 83 15 2
-0.436558 0.648559 0.435090 125 100 81 15 2
-0.427595 0.630848 0.431516 131 108 87 15 2
0.222150 -0.035248 -0.307449 33 38 47 5 1
-0.464835 0.688398 -0.009068 120 91 72 15 2
-0.483319 0.674279 -0.019816 116 83 64 15 2
-0.436284 0.683391 -0.017150 118 89 72 15 2
-0.437847 0.690235 0.008942 121 92 72 15 2
-0.068467 0.782904 0.616220 163 161 161 1 8
0.055341 0.774274 -0.049058 134 132 131 1 8
0.080648 0.774041 -0.050739 130 127 126 1 8
0.046588 0.774843 -0.034558 136 129 128 1 8
-0.469423 0.021811 -0.021071 152 121 92 15 2
-0.503638 -0.085298 0.570942 115 85 64 15 2
-0.469812 -0.085988 0.558442 114 85 64 15 2
0.220001 0.131373 -0.222546 23 28 37 5 1
-0.497257 0.108731 0.000942 134 103 82 15 2
-0.501690 0.094215 -0.019261 138 109 90 15 2
-0.502998 0.104547 -0.013330 128 100 83 15 2
-0.505451 0.100463 -0.016924 139 110 91 15 2
-0.432867 0.134564 0.398639 243 242 236 15 2
-0.443133 0.131177 0.418278 199 181 159 15 2
-0.430101 0.138872 0.418171 247 243 232 15 2
-0.450662 0.132693 0.424146 246 236 216 15 2
-0.467665 0.134686 0.402108 196 173 150 15 2
-0.467743 0.127580 0.409830 156 126 92 15 2
-0.446980 0.134867 0.406875 246 240 232 15 2
-0.402658 0.770179 0.282567 76 67 69 1 8
-0.431528 0.768398 0.260821 77 70 71 1 8
-0.441860 0.764579 0.280671 78 67 66 1 8
0.071081 0.780733 0.268130 166 165 162 1 8
0.067603 0.778774 0.293664 166 165 162 1 8
0.096024 0.781391 0.269567 166 163 160 1 8
0.205605 0.032327 -0.107907 34 38 38 5 1
0.207959 0.034609 -0.095386 34 38 44 5 1
0.201606 0.047113 -0.089028 34 42 45 5 1
-0.214018 0.772845 0.381942 151 145 141 1 8
-0.408687 0.107892 0.333787 148 121 104 15 2
-0.203573 0.026725 -0.044959 171 143 111 14 3
-0.155920 0.287840 -0.235109 139 139 134 14 3
-0.160376 0.288838 -0.223159 38 38 42 14 3
-0.164986 0.286090 -0.212640 28 31 34 14 3
-0.181869 0.284790 -0.222151 28 31 36 14 3
0.102048 0.776623 0.008942 159 151 148 1 8
0.072143 0.775482 0.016942 156 151 147 1 8
-0.162444 -0.071994 -0.046351 186 155 123 14 3
0.137824 0.772565 -0.272058 98 97 97 1 8
0.147946 0.772839 -0.280558 107 107 109 1 8
-0.423368 0.505258 -0.022255 133 110 91 15 2
-0.426889 0.137029 0.018159 175 158 134 15 2
-0.398911 0.128698 -0.009956 164 143 123 15 2
-0.413844 0.133455 -0.001880 210 190 166 15 2
-0.567971 0.011596 -0.018844 162 128 99 15 2
-0.393288 0.122878 0.114097 227 210 182 15 2
-0.386801 0.113284 0.086075 189 165 137 15 2
-0.396974 0.123074 0.082028 228 211 183 15 2
-0.386576 0.117480 0.085487 227 212 184 15 2
0.154845 0.678295 -0.143793 170 163 148 14 3
0.179126 0.650834 -0.117694 183 176 152 14 3
0.163233 0.672171 -0.134017 179 171 151 14 3
0.172632 0.660712 -0.138627 168 156 139 14 3
0.173169 0.659128 -0.158857 155 143 125 14 3
0.175347 0.660464 -0.117339 181 172 151 14 3
0.160968 0.672801 -0.142737 165 155 137 14 3
-0.251164 -0.159330 -0.044735 183 153 119 14 3
-0.450969 0.332867 0.476917 165 130 90 15 2
-0.466582 0.332526 0.470979 160 123 82 15 2
-0.450709 0.333764 0.459105 165 128 87 15 2
-0.390333 -0.151615 0.427079 225 211 185 15 2
-0.389628 -0.129224 0.427260 219 207 180 15 2
-0.377060 -0.135934 0.430934 228 214 187 15 2
-0.401015 -0.143034 0.446405 166 140 119 15 2
-0.385918 -0.139345 0.443775 141 117 98 15 2
-0.374283 -0.139783 0.435662 143 127 104 15 2
-0.374718 -0.119258 0.438696 197 179 158 15 2
0.162094 0.409570 -0.315960 228 226 207 14 3
0.166232 0.406845 -0.291357 224 221 199 14 3
0.162110 0.426626 -0.313787 224 223 201 14 3
0.215681 -0.080517 -0.093683 31 34 39 5 1
0.217801 -0.068772 -0.105220 29 34 39 5 1
0.214727 -0.084506 -0.111166 27 31 38 5 1
-0.107972 0.284450 -0.047362 169 142 114 14 3
-0.501835 0.302022 0.445912 127 97 77 15 2
-0.486164 0.303499 0.451146 131 100 78 15 2
-0.495169 0.315805 0.431568 138 113 92 15 2
-0.500464 0.303901 0.433092 143 113 90 15 2
-0.478611 0.289146 0.440178 135 103 80 15 2
-0.485068 0.291037 0.438901 138 107 84 15 2
-0.475443 0.314722 0.431032 158 134 110 15 2
-0.486947 0.307324 0.433281 163 138 117 15 2
-0.486144 0.294441 0.435051 147 116 94 15 2
-0.473544 0.305511 0.431965 169 146 124 15 2
-0.144080 0.019901 -0.046234 171 144 110 14 3
-0.151488 0.057949 -0.047255 172 145 111 14 3
-0.261755 0.770306 0.187067 146 139 132 1 8
0.108900 0.771217 -0.301183 103 99 101 1 8
0.143856 0.772420 -0.312058 110 112 113 1 8
0.164229 0.773942 -0.298058 113 115 117 1 8
-0.165982 0.779458 0.635621 158 158 159 1 8
-0.148189 0.779778 0.634681 155 156 155 1 8
-0.105006 0.784369 0.641812 155 155 156 1 8
-0.439850 0.734454 0.592769 137 120 104 15 2
-0.434852 0.731737 0.603381 154 142 130 15 2
-0.428800 0.731321 0.582436 120 99 79 15 2
-0.480771 -0.101814 0.440344 135 110 88 15 2
-0.467926 -0.103856 0.442114 135 109 88 15 2
-0.483293 -0.094572 0.445502 121 93 75 15 2
-0.474842 -0.101261 0.432676 127 108 90 15 2
-0.398682 0.731075 0.050442 151 131 113 15 2
-0.378719 0.715100 0.063601 154 134 115 15 2
-0.415516 0.739478 0.027827 155 132 112 15 2
