ply
format ascii 1.0
element vertex 1080
property float x
property float y
property float z
property uchar red
property uchar green
property uchar blue
property uchar semantic_label
property uchar instance_label
end_header
-0.099673 -0.245168 -0.067393 60 66 75 5 1
-0.090086 -0.264899 -0.053200 55 64 74 5 1
-0.003320 -0.193020 -0.175518 27 28 34 5 1
-0.028071 -0.198904 -0.159997 26 28 33 5 1
0.355504 0.099294 -0.090202 163 159 145 14 5
0.338959 -0.133266 -0.229342 189 151 107 14 5
0.034022 -0.013865 -0.089337 195 194 183 14 5
0.084563 -0.026701 -0.089321 194 194 183 14 5
-0.444551 -0.052417 -0.088105 200 203 192 14 5
-0.373714 -0.187037 -0.230532 29 34 39 5 1
-0.372134 -0.185615 -0.239729 53 61 71 5 1
-0.256760 -0.224492 -0.079946 44 46 47 5 1
-0.269357 -0.212137 -0.090742 44 46 48 5 1
-0.057658 -0.229059 -0.074651 78 87 95 5 1
-0.037270 -0.236350 -0.072651 73 82 90 5 1
-0.045268 -0.242544 -0.066538 88 98 107 5 1
0.026410 0.015717 -0.090159 191 192 181 14 5
-0.016944 -0.010137 -0.089507 195 194 183 14 5
0.609555 0.014194 -0.087787 125 117 103 14 5
-0.402559 -0.129758 -0.246388 10 14 17 5 1
-0.410880 -0.138465 -0.228945 12 14 18 5 1
-0.479652 -0.072960 -0.240960 86 59 36 14 5
-0.480059 -0.070158 -0.219470 88 62 37 14 5
0.282632 0.018751 -0.332592 31 26 29 14 5
0.127522 -0.088588 -0.088685 196 197 187 14 5
0.130591 -0.057380 -0.088983 195 196 186 14 5
0.289886 -0.072578 -0.244853 70 45 32 14 5
0.290515 -0.077839 -0.230315 135 103 69 14 5
0.288761 -0.082015 -0.223619 87 63 37 14 5
0.271315 -0.065617 -0.209246 98 99 98 14 5
-0.401667 -0.136204 -0.244583 9 10 14 5 1
-0.388687 -0.152120 -0.252163 7 8 12 5 1
0.253868 -0.127881 -0.142342 204 177 129 14 5
0.272447 -0.128136 -0.144092 202 171 124 14 5
0.233212 -0.126772 -0.122092 189 161 119 14 5
0.105913 0.298541 -0.092442 175 173 160 14 5
-0.422130 -0.120029 -0.117842 110 80 48 14 5
-0.447807 -0.121333 -0.102929 168 136 100 14 5
-0.425910 -0.112901 -0.088836 184 151 110 14 5
-0.453490 -0.119858 -0.113600 160 135 97 14 5
-0.449639 -0.118203 -0.092716 186 152 108 14 5
-0.368685 -0.149715 -0.133498 15 14 18 5 1
0.284154 0.029426 -0.289081 29 26 30 14 5
0.479236 -0.128380 -0.109092 160 130 91 14 5
0.496095 -0.127912 -0.102092 164 137 97 14 5
0.483826 -0.119429 -0.091818 159 152 134 14 5
0.497917 -0.124990 -0.095893 163 140 110 14 5
0.135514 -0.102570 -0.193642 105 91 76 14 5
0.108945 -0.098895 -0.188998 42 37 36 14 5
0.133405 -0.114489 -0.188764 101 84 65 14 5
0.118030 -0.114699 -0.188030 40 36 38 14 5
-0.112437 0.049813 -0.090554 192 193 183 14 5
0.416483 -0.135572 -0.255623 174 134 92 14 5
-0.322211 -0.181842 -0.059630 44 43 43 5 1
-0.421258 -0.000098 -0.089073 199 202 192 14 5
-0.400446 -0.041393 -0.088252 199 202 191 14 5
-0.483444 -0.118860 -0.154217 159 125 87 14 5
-0.482390 -0.117973 -0.121616 178 136 95 14 5
-0.471723 -0.118096 -0.143092 49 27 8 14 5
-0.466514 -0.118788 -0.143717 158 123 90 14 5
0.059119 0.326972 -0.093106 175 174 162 14 5
0.029674 0.321333 -0.093446 176 174 164 14 5
-0.127004 0.415315 -0.095932 177 178 166 14 5
0.550998 -0.135299 -0.310092 156 122 87 14 5
-0.026416 -0.179853 -0.325909 32 30 35 5 1
-0.031553 -0.190597 -0.332004 23 23 32 5 1
-0.029304 -0.199409 -0.329852 24 24 30 5 1
-0.027769 -0.169734 -0.333387 40 32 32 5 1
-0.019319 -0.171927 -0.313637 28 29 32 5 1
-0.023332 -0.186445 -0.317341 24 25 30 5 1
-0.201337 -0.195784 -0.156404 44 45 48 5 1
-0.082705 -0.208371 -0.034470 67 73 77 5 1
-0.193367 -0.191197 -0.181467 41 43 47 5 1
-0.219515 0.011145 -0.090175 197 199 188 14 5
0.242169 -0.089411 -0.088066 192 194 180 14 5
0.228433 -0.103910 -0.088572 193 194 179 14 5
0.271996 -0.105854 -0.088982 193 195 182 14 5
0.627745 -0.046074 0.008494 144 143 136 15 4
0.634805 -0.034376 0.012154 144 143 136 15 4
-0.128826 -0.186923 -0.245592 38 37 43 5 1
-0.135327 -0.189446 -0.222342 40 41 45 5 1
0.604164 -0.033017 -0.087754 125 117 103 14 5
0.626229 -0.031940 -0.086792 121 113 98 14 5
-0.082942 -0.215294 -0.025428 71 74 75 5 1
-0.064259 -0.226542 -0.027884 42 48 58 5 1
-0.060830 -0.239287 -0.025069 66 79 93 5 1
-0.069334 -0.216984 -0.028273 73 77 76 5 1
-0.020197 -0.201246 -0.144717 29 29 33 5 1
-0.001249 -0.210828 -0.079871 108 123 130 5 1
-0.004614 -0.220420 -0.087480 102 113 122 5 1
-0.013332 -0.225188 -0.078893 108 121 132 5 1
0.530552 -0.135935 -0.241842 167 130 91 14 5
-0.409280 -0.116577 -0.208658 11 14 18 5 1
-0.417267 -0.134637 -0.194008 8 7 12 5 1
-0.417197 -0.148923 -0.195876 13 14 18 5 1
-0.418620 -0.128041 -0.185898 11 15 17 14 5
-0.414837 -0.136674 -0.208161 9 13 17 5 1
-0.415557 -0.139848 -0.215034 14 14 17 5 1
-0.412978 -0.144773 -0.219571 13 14 17 5 1
-0.415596 -0.148938 -0.205455 8 9 13 5 1
-0.421683 -0.121754 -0.193495 10 9 11 14 5
-0.415111 -0.127501 -0.199521 10 13 17 5 1
-0.402640 -0.132400 -0.180669 12 14 17 5 1
-0.430371 -0.124551 -0.182060 10 9 12 14 5
0.229845 0.068254 -0.090162 177 175 161 14 5
-0.383152 -0.121258 -0.106092 135 107 77 14 5
-0.383116 -0.120295 -0.096287 147 118 82 14 5
-0.424442 -0.120102 -0.095966 166 133 95 14 5
0.545527 -0.094506 -0.087062 148 142 126 14 5
0.180469 0.021935 -0.089969 184 184 171 14 5
0.134972 0.022655 -0.089789 191 191 179 14 5
0.123684 -0.021263 -0.089367 190 191 179 14 5
0.150738 0.018943 -0.089972 186 184 173 14 5
0.088653 0.242028 -0.092334 179 176 164 14 5
-0.166253 -0.219341 -0.347461 61 71 88 5 1
-0.038147 -0.207187 -0.122979 32 33 37 5 1
-0.005952 -0.203337 -0.128827 31 31 36 5 1
0.577377 -0.134025 -0.188092 151 116 78 14 5
0.531790 -0.127077 -0.152092 142 105 67 14 5
-0.114120 -0.198772 -0.167342 45 44 50 5 1
-0.134476 -0.199337 -0.160967 42 44 48 5 1
0.561424 -0.126216 -0.148092 152 116 77 14 5
0.560882 -0.126191 -0.142092 160 126 85 14 5
0.495403 -0.136629 -0.258467 167 126 87 14 5
0.417018 -0.129327 -0.163915 181 146 101 14 5
0.384758 -0.130735 -0.175092 186 152 107 14 5
0.415821 -0.130363 -0.168092 189 154 109 14 5
-0.078665 -0.264012 -0.046717 85 96 108 5 1
-0.066749 -0.256478 -0.054069 55 63 74 5 1
-0.080642 -0.258347 -0.036108 102 117 134 5 1
-0.105903 -0.257762 -0.018689 98 114 133 5 1
-0.112765 0.007315 -0.089464 197 197 187 14 5
0.650215 0.029158 -0.011921 132 130 120 0 0
0.667563 0.030103 -0.012756 131 129 119 0 0
-0.313462 -0.203109 -0.041249 18 19 23 5 1
-0.305430 -0.210254 -0.034292 16 19 21 5 1
-0.310782 -0.215349 -0.040178 17 18 22 5 1
-0.319178 -0.218301 -0.062805 20 21 26 5 1
-0.283054 -0.176007 -0.210217 44 44 47 5 1
-0.164799 -0.128139 -0.088054 75 64 43 14 5
0.468410 -0.126107 -0.152092 168 131 88 14 5
0.435064 -0.127043 -0.129342 173 138 96 14 5
0.434645 -0.125057 -0.143092 174 139 94 14 5
0.422094 -0.125474 -0.152092 171 136 92 14 5
0.492595 -0.133763 -0.204592 168 132 91 14 5
0.490230 -0.134863 -0.223217 172 137 95 14 5
-0.152262 -0.210008 -0.337010 60 71 86 5 1
-0.345441 0.165244 -0.091586 191 192 181 14 5
-0.232419 -0.251193 -0.062846 46 46 47 5 1
-0.214361 -0.256887 -0.063884 48 48 51 5 1
0.132810 0.271309 -0.092539 174 172 160 14 5
0.110552 0.223412 -0.092142 178 175 162 14 5
-0.046063 -0.210552 -0.313213 22 22 28 5 1
-0.032464 -0.204103 -0.325157 27 26 29 5 1
-0.021582 -0.198580 -0.317743 35 31 30 5 1
-0.035576 -0.201702 -0.341268 24 24 27 5 1
-0.042690 -0.208508 -0.348418 31 27 27 5 1
-0.087703 -0.130133 -0.088846 94 78 49 14 5
0.240402 -0.053703 -0.088694 188 188 176 14 5
0.316455 -0.124348 -0.143080 195 163 117 14 5
0.298892 -0.127075 -0.150568 194 161 115 14 5
0.295070 -0.125840 -0.123249 188 158 114 14 5
0.281734 0.145819 -0.334038 28 28 29 14 5
0.287156 0.145032 -0.311077 33 32 34 14 5
0.282849 0.130660 -0.318874 31 29 30 14 5
-0.368129 -0.199680 -0.154605 33 34 37 5 1
-0.376957 -0.199232 -0.159943 15 15 19 5 1
-0.372363 -0.199022 -0.163090 34 35 37 5 1
-0.378758 -0.197715 -0.167193 31 34 37 5 1
-0.355761 -0.180983 -0.188978 32 33 35 5 1
-0.366668 -0.190029 -0.179543 32 33 36 5 1
-0.377750 -0.192834 -0.187457 31 33 38 5 1
-0.382991 -0.192220 -0.180092 13 14 18 5 1
-0.393484 -0.110882 -0.228124 8 14 19 5 1
-0.406643 -0.117436 -0.224376 9 14 19 5 1
-0.396888 -0.115778 -0.232191 8 13 18 5 1
-0.408917 -0.122042 -0.232475 9 14 17 5 1
-0.397025 -0.114566 -0.217996 11 13 18 5 1
-0.402701 -0.115630 -0.241452 10 13 18 5 1
-0.330234 -0.207818 -0.057796 17 17 23 5 1
-0.296975 -0.227902 -0.048759 20 21 25 5 1
-0.318778 -0.230654 -0.081127 17 18 22 5 1
-0.305077 -0.237471 -0.071443 46 47 50 5 1
-0.310088 -0.226973 -0.089945 40 41 42 5 1
-0.253445 -0.228715 -0.009941 22 25 29 5 1
0.052582 -0.200538 -0.192123 13 14 18 5 1
0.041743 -0.202425 -0.218819 22 23 28 5 1
0.045142 -0.200374 -0.202988 14 15 19 5 1
0.055008 -0.203786 -0.218551 14 15 19 5 1
0.030752 -0.194761 -0.213014 19 20 25 5 1
-0.361734 0.133407 -0.091423 193 195 185 14 5
-0.361372 0.110937 -0.090977 193 195 185 14 5
-0.328080 -0.125170 -0.104548 92 73 54 14 5
-0.336967 -0.123964 -0.117641 66 52 42 14 5
-0.357826 -0.120810 -0.119767 101 83 64 14 5
-0.353775 -0.149500 -0.118409 38 34 30 5 1
-0.343182 -0.147539 -0.116371 34 33 28 5 1
-0.343809 -0.122140 -0.102223 99 81 55 14 5
-0.338953 -0.121232 -0.096193 122 100 71 14 5
-0.278517 0.189412 -0.092202 191 192 181 14 5
0.289306 -0.128766 -0.161044 193 162 112 14 5
0.314459 -0.130403 -0.171533 164 130 85 14 5
0.291315 -0.128449 -0.175984 191 160 112 14 5
0.293106 -0.126993 -0.184319 178 146 103 14 5
-0.234778 0.317843 -0.093907 186 187 177 14 5
0.311045 -0.089025 -0.088206 188 190 175 14 5
0.334983 -0.095457 -0.088489 188 188 176 14 5
0.514637 0.057334 -0.089868 137 131 115 14 5
0.473044 -0.127168 -0.100721 169 142 104 14 5
0.466991 -0.118105 -0.090913 169 160 138 14 5
0.552908 -0.126323 -0.097044 137 110 74 14 5
0.205766 0.064228 -0.090196 179 178 164 14 5
-0.275597 -0.190932 -0.352109 9 10 14 5 1
0.056228 -0.167516 -0.147481 28 27 30 5 1
-0.194069 0.119079 -0.091594 193 192 184 14 5
-0.217900 0.116736 -0.091739 193 194 184 14 5
0.168574 0.117421 -0.090969 178 176 163 14 5
0.206701 0.098127 -0.090470 179 178 165 14 5
0.283826 -0.047979 -0.238669 96 70 47 14 5
0.281019 -0.048911 -0.220191 85 61 44 14 5
0.279868 -0.057840 -0.223501 100 92 82 14 5
0.285243 -0.036488 -0.246848 133 109 77 14 5
0.290084 -0.051274 -0.249440 76 49 29 14 5
0.288982 -0.062876 -0.237508 140 110 79 14 5
0.041793 -0.204939 -0.236729 12 15 20 5 1
0.025764 -0.203550 -0.230212 31 36 43 5 1
-0.174304 -0.050859 -0.089161 195 198 190 14 5
-0.168748 -0.068536 -0.089602 174 175 166 14 5
-0.177390 -0.086364 -0.090498 158 159 146 14 5
0.114707 0.278870 -0.092443 174 171 159 14 5
-0.273189 -0.067122 -0.088393 197 200 191 14 5
-0.360369 -0.181211 -0.211757 52 60 69 5 1
-0.351110 -0.170892 -0.212542 33 37 42 5 1
-0.359874 -0.180309 -0.201705 48 57 65 5 1
-0.079536 -0.227680 -0.022751 74 78 77 5 1
-0.089004 -0.228833 -0.018462 38 44 52 5 1
-0.067126 -0.233033 -0.019425 38 44 52 5 1
-0.082336 -0.245495 -0.015257 52 63 73 5 1
-0.143822 -0.211596 -0.103816 45 46 48 5 1
-0.136647 -0.222269 -0.091237 40 39 42 5 1
0.466025 -0.097718 -0.087821 158 156 139 14 5
-0.312662 0.138875 -0.091346 192 193 184 14 5
0.377535 -0.136435 -0.286592 176 138 96 14 5
-0.341311 -0.191503 -0.251784 56 65 77 5 1
-0.335292 -0.168827 -0.275933 12 14 18 5 1
-0.344155 -0.170571 -0.269699 41 47 54 5 1
-0.342035 -0.187747 -0.259719 23 25 31 5 1
-0.328331 -0.183300 -0.271176 51 58 69 5 1
-0.319556 -0.179232 -0.280054 28 33 39 5 1
-0.322275 -0.193126 -0.264966 34 40 47 5 1
-0.328797 -0.191926 -0.258670 56 66 77 5 1
-0.335294 -0.182444 -0.241230 54 65 76 5 1
0.365580 0.116331 -0.090413 164 160 147 14 5
-0.267183 0.097033 -0.091570 193 196 185 14 5
-0.259318 0.075485 -0.090906 194 195 186 14 5
0.631428 0.055976 -0.087824 112 106 91 14 5
0.031214 -0.002085 -0.089470 193 194 183 14 5
0.437543 -0.134203 -0.318037 173 138 98 14 5
0.441297 -0.138267 -0.336092 181 147 106 14 5
-0.166265 0.152766 -0.092052 191 192 180 14 5
0.633217 -0.010650 0.311812 174 172 167 15 4
0.636775 -0.039361 0.316286 174 172 167 15 4
-0.063142 0.357571 -0.093693 179 179 168 14 5
-0.032364 0.377237 -0.094398 177 177 167 14 5
-0.022344 0.328417 -0.093675 179 178 167 14 5
-0.198087 -0.004685 -0.089634 198 200 190 14 5
0.005177 0.135252 -0.091382 186 184 173 14 5
0.347574 -0.135551 -0.301092 178 142 100 14 5
0.322514 -0.133476 -0.313835 179 142 100 14 5
0.316938 -0.134930 -0.300101 183 148 108 14 5
0.191294 -0.121944 -0.184401 167 140 97 14 5
-0.355288 -0.190631 -0.243817 54 65 76 5 1
-0.015553 -0.036837 -0.090224 194 197 185 14 5
0.251846 0.184064 -0.091595 169 165 153 14 5
-0.059568 0.114200 -0.091165 191 191 179 14 5
0.109939 0.164708 -0.091552 181 180 167 14 5
0.097312 -0.128998 -0.170656 85 70 59 14 5
0.101725 -0.124480 -0.164989 83 74 62 14 5
0.109510 -0.120354 -0.160972 86 79 75 14 5
0.116617 -0.131435 -0.173707 68 62 60 14 5
0.107615 -0.121966 -0.182235 40 31 29 14 5
0.104043 -0.129500 -0.176300 70 58 49 14 5
-0.378979 -0.121802 -0.133557 71 54 33 14 5
-0.369155 -0.125998 -0.142881 43 35 25 14 5
-0.370016 -0.133594 -0.151978 34 30 29 14 5
0.292834 -0.103495 -0.217639 66 44 27 14 5
-0.330803 0.078630 -0.090688 196 198 188 14 5
-0.331778 0.049873 -0.090125 197 198 188 14 5
0.124036 0.113979 -0.091132 181 179 165 14 5
0.287584 0.150398 -0.091305 172 169 156 14 5
0.639895 0.021663 0.317849 175 173 167 15 4
0.655774 0.019551 0.321286 167 168 161 15 4
0.655145 0.036411 0.299675 171 171 162 15 4
0.650908 0.019427 0.299518 174 171 165 15 4
-0.283201 0.260891 -0.092885 186 185 177 14 5
-0.220915 0.191713 -0.092554 190 191 181 14 5
0.254228 -0.129168 -0.160092 201 172 125 14 5
0.288004 -0.128947 -0.169337 201 170 122 14 5
0.256458 -0.125270 -0.178127 186 156 107 14 5
-0.059763 -0.022826 -0.089317 196 196 186 14 5
-0.048843 -0.040140 -0.090139 196 198 186 14 5
-0.008064 -0.026986 -0.089769 195 197 185 14 5
-0.393136 0.066121 -0.090393 197 198 189 14 5
0.285491 0.005851 -0.233373 56 42 33 14 5
0.286344 0.031141 -0.240172 55 41 35 14 5
-0.320380 -0.128203 -0.116820 37 32 29 14 5
-0.329794 -0.114446 -0.089279 139 118 95 14 5
-0.252364 0.226240 -0.092593 188 188 178 14 5
-0.265747 0.257414 -0.093217 189 189 180 14 5
0.211296 -0.085834 -0.088234 190 190 179 14 5
0.207622 -0.059638 -0.088656 191 191 181 14 5
0.353716 -0.124065 -0.146092 189 155 109 14 5
0.371432 -0.125019 -0.136092 196 163 114 14 5
0.358459 -0.124345 -0.152092 183 148 103 14 5
0.478525 -0.134590 -0.318092 164 129 91 14 5
0.470618 -0.135417 -0.328092 177 143 105 14 5
0.483654 -0.138573 -0.339842 179 146 108 14 5
-0.230611 -0.176975 -0.273967 34 36 41 5 1
-0.227167 -0.179001 -0.248842 35 35 39 5 1
0.054371 0.141702 -0.091568 185 184 171 14 5
0.045078 0.088245 -0.091173 186 185 173 14 5
0.068339 0.125691 -0.091191 185 184 173 14 5
0.059170 0.082078 -0.090867 186 186 173 14 5
0.021297 -0.205951 -0.127322 20 21 25 5 1
0.018660 -0.211372 -0.114257 19 20 24 5 1
0.007179 -0.200566 -0.140928 22 23 28 5 1
0.511085 0.017515 -0.089482 141 135 119 14 5
0.544790 0.008406 -0.088664 135 130 112 14 5
-0.398507 -0.123987 -0.166590 52 37 24 14 5
-0.342187 -0.135266 -0.286584 11 13 17 5 1
-0.335108 -0.138631 -0.288946 12 13 17 5 1
-0.354467 -0.128201 -0.280472 12 15 18 5 1
0.066725 -0.172703 -0.225715 23 24 30 5 1
0.057779 -0.155274 -0.235421 35 36 40 5 1
0.062716 -0.161936 -0.234698 31 31 35 5 1
0.066767 -0.164194 -0.220852 21 22 28 5 1
0.050840 -0.164459 -0.247166 38 38 44 5 1
0.289763 0.213588 -0.315282 42 41 39 14 5
0.287393 0.200354 -0.339177 26 25 29 14 5
-0.139142 -0.059598 -0.089968 197 199 191 14 5
-0.138991 -0.076704 -0.090802 156 157 146 14 5
-0.099372 -0.042421 -0.089512 195 197 189 14 5
0.641865 0.045083 0.619961 152 146 136 15 4
0.640520 0.045788 0.612121 153 147 138 15 4
0.455723 -0.128251 -0.121354 155 125 85 14 5
0.424792 -0.127735 -0.106092 177 147 105 14 5
0.434208 -0.118056 -0.091344 178 163 138 14 5
0.441639 -0.125430 -0.097376 181 152 111 14 5
0.465998 -0.124249 -0.095079 175 162 141 14 5
-0.289465 0.212915 -0.091982 190 192 182 14 5
-0.384430 -0.075321 -0.087918 199 203 193 14 5
-0.409505 -0.099753 -0.087598 200 202 193 14 5
-0.019309 -0.187746 -0.238459 25 28 33 5 1
-0.022255 -0.185903 -0.228515 24 26 32 5 1
0.005928 -0.187994 -0.216166 22 25 31 5 1
-0.039464 -0.188842 -0.214217 27 28 35 5 1
0.583389 -0.127280 -0.152299 137 100 63 14 5
-0.073940 0.003060 -0.089528 195 196 186 14 5
-0.105017 -0.201130 -0.319869 56 65 79 5 1
0.115638 -0.090993 -0.191560 35 33 35 14 5
0.101908 -0.106941 -0.184729 36 35 36 14 5
-0.027415 -0.093463 -0.091370 140 143 130 14 5
-0.038777 -0.111546 -0.088389 154 154 139 14 5
-0.159261 -0.251827 0.004395 31 34 42 5 1
-0.166411 -0.255735 -0.000817 28 33 39 5 1
-0.178475 -0.257673 -0.011450 74 86 101 5 1
-0.147583 -0.256892 -0.001717 72 85 96 5 1
-0.134317 -0.259524 -0.012062 77 91 105 5 1
-0.142619 -0.247653 0.004478 32 33 42 5 1
-0.180090 -0.260134 -0.017628 63 73 89 5 1
-0.305970 -0.187157 -0.144063 42 45 45 5 1
-0.279619 -0.185710 -0.163592 44 45 46 5 1
0.171612 -0.093162 -0.193914 194 163 120 14 5
0.169607 -0.108597 -0.192580 173 151 113 14 5
0.157055 -0.094987 -0.193592 91 70 49 14 5
0.338660 0.133792 -0.090567 163 160 146 14 5
0.358324 0.158758 -0.090972 161 157 143 14 5
-0.089256 -0.095119 -0.090145 183 184 170 14 5
-0.084620 -0.086013 -0.091579 183 185 170 14 5
-0.388941 -0.121072 -0.100092 156 124 91 14 5
-0.413834 -0.117869 -0.091891 172 139 100 14 5
-0.458903 -0.102652 -0.304226 6 10 11 14 5
-0.460223 -0.108520 -0.304449 7 12 12 14 5
-0.468529 -0.120858 -0.307903 10 12 13 14 5
-0.471169 -0.120216 -0.288457 10 10 10 14 5
-0.461551 -0.108494 -0.276239 5 10 11 14 5
-0.459532 -0.100918 -0.283075 8 10 11 14 5
-0.478994 -0.124199 -0.291969 154 120 84 14 5
-0.476434 -0.073459 -0.328814 66 44 26 14 5
0.501932 0.039989 -0.089414 145 140 125 14 5
-0.025653 -0.212472 -0.052122 82 93 105 5 1
-0.030759 -0.228347 -0.049964 89 104 116 5 1
-0.031388 -0.204428 -0.051162 55 62 68 5 1
-0.038003 -0.217000 -0.045016 76 81 87 5 1
0.308898 -0.041261 -0.088762 182 181 167 14 5
0.060555 -0.135502 -0.107109 33 34 37 14 5
-0.118136 -0.270597 -0.062458 37 42 46 5 1
-0.158097 -0.275872 -0.069269 38 42 45 5 1
-0.141085 -0.262489 -0.076368 43 47 51 5 1
-0.138037 -0.276430 -0.063142 41 44 48 5 1
0.027550 0.050627 -0.090208 190 187 177 14 5
0.081818 0.066843 -0.091058 188 185 174 14 5
0.585438 -0.122553 -0.091723 134 118 95 14 5
0.583358 -0.115286 -0.088554 134 122 101 14 5
0.579817 -0.127350 -0.095894 146 127 100 14 5
0.562453 -0.128915 -0.124363 127 96 64 14 5
0.583685 -0.129681 -0.099886 133 107 78 14 5
0.575843 -0.130480 -0.105427 134 105 71 14 5
-0.089231 -0.192328 -0.209939 39 40 44 5 1
-0.104924 -0.193429 -0.199592 39 41 45 5 1
-0.118460 -0.191723 -0.203549 38 40 45 5 1
-0.072982 -0.194420 -0.193995 38 39 44 5 1
-0.090078 -0.198599 -0.172842 38 39 43 5 1
-0.102472 -0.190612 -0.220159 39 40 44 5 1
-0.064947 -0.191213 -0.211261 35 38 41 5 1
-0.310548 -0.127520 -0.128719 35 32 27 14 5
-0.320785 -0.127102 -0.134101 24 26 21 14 5
0.294172 0.155238 -0.275177 48 37 31 14 5
0.295174 0.173765 -0.279347 47 38 31 14 5
-0.038155 0.168384 -0.091603 186 185 173 14 5
-0.154986 -0.200151 -0.151342 45 46 50 5 1
0.021018 -0.186187 -0.193423 25 25 31 5 1
0.022067 -0.191729 -0.171527 22 24 29 5 1
0.428036 -0.078352 -0.088020 167 166 151 14 5
0.456253 -0.024712 -0.088793 161 158 142 14 5
0.428822 -0.060445 -0.088107 167 165 148 14 5
0.417113 -0.127848 -0.114092 145 115 74 14 5
0.229818 0.093749 -0.090648 178 176 162 14 5
0.212753 -0.126488 -0.102453 203 170 120 14 5
0.249148 -0.125668 -0.100053 198 165 116 14 5
0.212038 -0.124348 -0.096184 194 167 124 14 5
0.639968 0.060983 0.612537 148 142 133 15 4
0.559998 -0.136102 -0.325092 149 112 77 14 5
0.591479 -0.135964 -0.317997 145 110 74 14 5
-0.244273 -0.218670 -0.082764 41 43 44 5 1
-0.225528 -0.226567 -0.075566 40 40 44 5 1
-0.455561 -0.124805 -0.177421 109 87 65 14 5
-0.438688 -0.123165 -0.164092 149 113 82 14 5
-0.450835 -0.123822 -0.182857 53 41 27 14 5
0.523460 -0.090234 -0.087435 151 146 132 14 5
0.493955 -0.063260 -0.087586 151 147 133 14 5
0.465814 -0.082911 -0.087592 153 150 136 14 5
-0.305764 0.218957 -0.092341 189 191 181 14 5
-0.279534 0.229090 -0.092553 190 190 181 14 5
-0.068334 -0.183826 -0.272787 25 28 33 5 1
-0.076948 -0.184395 -0.266525 27 29 36 5 1
-0.204977 -0.272756 -0.058310 44 46 48 5 1
-0.200849 -0.267513 -0.063587 47 47 50 5 1
-0.179520 -0.274912 -0.066509 44 46 49 5 1
-0.193015 -0.277638 -0.056901 43 46 53 5 1
-0.176102 -0.262318 -0.073675 45 47 49 5 1
-0.158375 0.111653 -0.091385 193 194 182 14 5
-0.195396 0.082545 -0.091106 193 194 184 14 5
-0.405702 -0.122356 -0.148454 93 68 46 14 5
-0.382671 -0.120199 -0.122092 102 76 51 14 5
-0.254562 -0.176151 -0.238092 36 37 40 5 1
-0.380980 -0.120215 -0.116092 64 44 27 14 5
-0.370286 -0.118297 -0.092001 126 103 74 14 5
-0.387371 -0.115839 -0.090513 162 133 101 14 5
0.165188 0.221308 -0.092067 175 174 160 14 5
0.137923 0.191730 -0.091947 178 175 162 14 5
0.653178 0.023443 0.624056 152 148 139 15 4
0.643381 0.003491 0.619817 155 149 141 15 4
-0.271198 -0.249603 -0.057000 47 47 50 5 1
-0.256798 -0.250051 -0.060185 35 36 39 5 1
-0.268800 -0.234840 -0.074632 45 47 49 5 1
-0.194703 0.268952 -0.093241 187 186 176 14 5
-0.477710 -0.079526 -0.261508 90 63 33 14 5
-0.479199 -0.070339 -0.276049 77 51 26 14 5
-0.479053 -0.071341 -0.256308 106 76 41 14 5
0.288422 0.078251 -0.263961 58 43 32 14 5
0.288033 0.101745 -0.276838 55 40 34 14 5
0.288869 0.102280 -0.269566 55 41 33 14 5
0.289577 0.101589 -0.261096 52 39 33 14 5
0.286169 0.079748 -0.254348 52 40 33 14 5
0.288066 0.115149 -0.260727 53 40 33 14 5
0.376095 0.081037 -0.089726 166 161 147 14 5
0.353959 0.056695 -0.089911 168 164 151 14 5
0.286823 -0.001438 -0.253278 142 111 76 14 5
0.285090 -0.009016 -0.282522 67 47 33 14 5
0.285119 -0.015808 -0.265776 24 24 29 14 5
0.286089 -0.027232 -0.256588 129 105 75 14 5
0.288749 -0.041033 -0.260733 83 57 36 14 5
0.260414 0.204351 -0.091196 166 163 149 14 5
0.297227 0.221138 -0.091343 165 162 149 14 5
0.278974 0.174448 -0.091000 166 162 149 14 5
0.075032 -0.191704 -0.212315 14 15 19 5 1
0.071535 -0.195945 -0.209233 14 15 19 5 1
0.073074 -0.190038 -0.194494 14 15 19 5 1
0.067529 -0.194625 -0.184346 14 15 19 5 1
0.062944 -0.201373 -0.210215 16 17 20 5 1
-0.066332 0.041948 -0.090381 193 193 183 14 5
-0.080707 0.051298 -0.090170 194 195 184 14 5
-0.099578 0.392677 -0.094386 179 177 167 14 5
0.040228 -0.161259 -0.252737 38 39 43 5 1
-0.059768 -0.134697 -0.091572 92 77 53 14 5
-0.280512 0.128319 -0.091368 190 194 182 14 5
-0.267284 0.174636 -0.091910 191 192 183 14 5
-0.313518 0.249592 -0.092939 189 190 180 14 5
-0.347127 0.234878 -0.092283 190 190 181 14 5
0.197566 -0.112318 -0.192227 172 141 100 14 5
-0.163906 -0.272638 -0.036065 57 65 79 5 1
-0.208168 -0.262386 -0.031734 43 51 60 5 1
-0.190417 -0.271954 -0.041268 48 56 65 5 1
-0.206036 -0.274451 -0.052932 45 51 59 5 1
-0.302406 -0.168421 -0.307185 18 22 26 5 1
-0.310056 -0.171174 -0.293451 24 28 33 5 1
-0.324316 -0.155150 -0.294712 8 9 13 5 1
-0.312942 -0.142363 -0.312285 9 10 14 5 1
-0.323252 -0.148489 -0.299110 7 9 13 5 1
-0.321341 -0.131902 -0.302538 13 14 18 5 1
-0.324268 -0.132186 -0.296245 14 15 18 5 1
0.031355 -0.095843 -0.093614 132 134 120 14 5
0.028219 -0.109305 -0.093435 157 141 109 14 5
0.286544 -0.041719 -0.294588 65 44 27 14 5
0.287130 -0.063025 -0.301422 70 48 29 14 5
-0.157943 0.187851 -0.092248 190 190 180 14 5
-0.370678 -0.044166 -0.088584 199 202 192 14 5
-0.316735 0.043667 -0.090295 198 199 191 14 5
0.227574 0.214475 -0.091939 169 168 155 14 5
0.056738 0.044460 -0.090599 190 190 180 14 5
0.471769 0.069955 -0.089963 151 146 130 14 5
0.434609 0.064345 -0.090073 152 147 132 14 5
-0.127147 -0.094782 -0.091123 183 184 167 14 5
-0.103806 -0.091381 -0.091509 167 170 153 14 5
-0.110300 -0.108166 -0.087717 162 161 148 14 5
0.105632 -0.114152 -0.120712 47 41 31 14 5
0.094483 -0.097077 -0.091171 165 166 160 14 5
-0.026721 0.037597 -0.090505 192 190 180 14 5
-0.051415 0.098192 -0.091157 190 191 180 14 5
-0.033150 0.061575 -0.091069 191 191 180 14 5
-0.458628 -0.112023 -0.196779 9 8 9 14 5
-0.436822 -0.104288 -0.201614 7 9 11 14 5
-0.429442 -0.117665 -0.191582 28 21 17 14 5
-0.468159 -0.118515 -0.188663 26 20 12 14 5
-0.443857 -0.112599 -0.195433 16 11 9 14 5
-0.260158 -0.190932 -0.151592 45 45 48 5 1
-0.220290 0.413692 -0.095610 178 178 166 14 5
-0.235591 0.454969 -0.100220 178 178 166 14 5
-0.207193 0.455086 -0.099547 179 179 167 14 5
0.123006 -0.074744 -0.127948 24 21 22 14 5
0.111506 -0.078966 -0.124702 21 17 18 14 5
0.189188 -0.126618 -0.178352 197 166 118 14 5
0.182713 -0.127594 -0.170284 198 168 118 14 5
0.203616 -0.130223 -0.170694 196 165 117 14 5
-0.009813 0.316070 -0.093357 179 178 167 14 5
-0.007922 0.291400 -0.093254 180 178 167 14 5
-0.302071 -0.150183 -0.324794 8 9 12 5 1
-0.178858 -0.210429 -0.104676 47 47 49 5 1
-0.201655 -0.212754 -0.090389 47 48 50 5 1
0.105301 -0.130197 -0.102327 194 162 112 14 5
0.091442 -0.129284 -0.108802 100 91 76 14 5
0.100064 -0.123532 -0.113223 100 97 93 14 5
0.111394 -0.129018 -0.108789 137 121 96 14 5
-0.221349 0.245100 -0.092897 189 189 179 14 5
-0.196048 0.234556 -0.092863 189 190 181 14 5
0.451618 -0.136259 -0.289061 166 128 87 14 5
-0.287839 -0.225642 -0.027725 21 22 27 5 1
-0.280535 -0.237570 -0.044852 24 26 30 5 1
-0.132319 -0.127620 -0.087901 87 74 47 14 5
-0.137632 -0.131128 -0.090303 85 75 50 14 5
-0.116234 -0.134567 -0.093339 77 70 48 14 5
-0.128656 -0.135946 -0.097286 64 60 46 14 5
0.565614 -0.080267 -0.087142 139 132 116 14 5
0.284578 -0.028440 -0.323927 62 42 28 14 5
0.304430 0.048743 -0.089588 176 174 161 14 5
-0.175516 -0.184638 -0.240092 37 39 43 5 1
-0.197955 -0.183740 -0.230067 39 40 43 5 1
0.379801 -0.135810 -0.264342 183 142 98 14 5
0.268428 -0.075661 -0.209497 96 96 95 14 5
0.279394 -0.069012 -0.222174 86 90 92 14 5
0.284912 -0.101424 -0.207497 148 120 84 14 5
-0.247075 -0.178795 -0.225842 36 38 42 5 1
-0.222938 -0.181626 -0.226217 40 41 45 5 1
-0.278524 0.346187 -0.093734 184 185 173 14 5
-0.252378 0.356290 -0.094142 183 183 172 14 5
-0.261547 0.371327 -0.094132 183 183 172 14 5
0.296835 -0.022419 -0.088792 180 180 166 14 5
-0.342498 -0.030671 -0.088928 201 201 193 14 5
-0.291834 0.054641 -0.090680 197 200 190 14 5
-0.299796 0.016753 -0.089897 197 200 190 14 5
-0.259693 0.044503 -0.090251 196 199 189 14 5
0.511442 -0.126162 -0.146092 165 129 88 14 5
0.514683 -0.128975 -0.122092 164 131 89 14 5
0.520518 -0.126795 -0.138092 163 130 88 14 5
-0.169429 -0.184792 -0.306310 32 37 46 5 1
-0.161524 -0.188899 -0.314216 53 61 72 5 1
-0.275476 -0.202594 -0.333257 13 14 18 5 1
-0.263032 -0.212458 -0.339675 20 28 38 5 1
-0.268365 -0.205036 -0.329002 42 51 61 5 1
-0.282596 -0.200341 -0.318328 14 16 21 5 1
-0.278726 -0.200470 -0.326057 42 48 54 5 1
-0.278363 -0.194826 -0.334361 10 11 15 5 1
-0.258563 -0.204814 -0.330536 60 69 79 5 1
0.367724 -0.134432 -0.313717 172 138 99 14 5
0.082249 -0.118340 -0.159355 43 41 40 14 5
0.091112 -0.124587 -0.174232 36 35 36 14 5
0.088244 -0.114306 -0.161231 49 48 44 14 5
0.082079 -0.128199 -0.164188 50 47 42 14 5
0.073610 -0.136736 -0.161891 38 37 36 14 5
0.378680 -0.133256 -0.215592 186 150 105 14 5
0.381964 -0.134485 -0.232092 180 143 99 14 5
0.405840 -0.134609 -0.236404 180 143 100 14 5
0.492115 -0.135060 -0.323092 156 121 84 14 5
-0.341101 -0.219537 -0.101484 27 28 31 5 1
-0.328748 -0.223604 -0.095074 45 45 49 5 1
-0.305265 -0.213351 -0.107155 45 46 49 5 1
-0.315094 -0.218693 -0.102273 44 45 47 5 1
-0.408016 -0.153161 -0.204136 10 11 15 5 1
-0.405106 -0.156308 -0.187855 10 11 15 5 1
-0.400470 -0.160721 -0.208985 12 13 17 5 1
-0.281152 -0.130160 -0.100575 27 27 25 14 5
-0.274593 -0.114306 -0.089606 100 96 83 14 5
-0.271871 -0.121827 -0.092230 117 105 85 14 5
-0.266876 -0.128668 -0.095468 116 103 80 14 5
-0.295349 -0.128610 -0.101666 45 41 34 14 5
-0.222769 -0.199722 -0.134311 43 45 47 5 1
-0.248184 -0.197621 -0.130092 44 46 49 5 1
0.583476 -0.017006 -0.088127 133 127 111 14 5
-0.159309 0.081622 -0.090827 195 194 184 14 5
-0.118964 0.088103 -0.090777 194 193 181 14 5
0.289090 -0.106451 -0.318842 75 52 31 14 5
0.286245 -0.072011 -0.335803 73 49 30 14 5
0.287800 -0.062570 -0.343515 72 47 29 14 5
0.286726 -0.080752 -0.328092 78 53 31 14 5
0.492436 -0.017665 -0.088998 149 143 127 14 5
0.038812 -0.199067 -0.254821 39 43 53 5 1
0.283232 0.092351 -0.315832 35 31 34 14 5
0.283815 0.112372 -0.306571 45 37 33 14 5
0.288575 0.104575 -0.293951 61 47 36 14 5
0.289476 0.111776 -0.287569 59 44 36 14 5
-0.381165 -0.094698 -0.087802 198 203 191 14 5
-0.350349 -0.097072 -0.087919 198 201 192 14 5
-0.362009 -0.113324 -0.089276 194 194 181 14 5
0.285288 0.009485 -0.298322 55 42 34 14 5
0.284617 -0.007585 -0.314309 44 33 26 14 5
-0.003802 -0.189057 -0.198207 26 27 34 5 1
-0.012679 -0.191905 -0.190788 29 29 36 5 1
-0.038723 -0.192103 -0.197262 28 30 36 5 1
0.004219 -0.187622 -0.206545 24 24 33 5 1
0.609707 -0.078031 -0.086826 130 124 106 14 5
-0.222956 -0.062059 -0.088493 197 201 191 14 5
0.538837 -0.135244 -0.318092 155 121 84 14 5
0.571515 -0.140482 -0.342562 161 125 88 14 5
-0.310490 -0.127299 -0.105558 47 41 35 14 5
-0.310581 -0.110298 -0.088488 174 164 149 14 5
-0.313300 -0.124510 -0.097182 64 54 42 14 5
-0.292376 -0.121956 -0.091762 74 64 52 14 5
-0.334698 -0.118482 -0.091770 101 82 57 14 5
-0.311372 -0.119259 -0.091532 80 64 45 14 5
-0.307450 -0.129536 -0.115986 23 23 24 14 5
-0.323090 -0.187736 -0.141981 41 42 44 5 1
-0.322105 -0.183584 -0.150581 39 41 43 5 1
0.555992 0.046333 -0.089355 133 127 110 14 5
-0.388360 -0.106716 -0.088283 197 198 187 14 5
-0.142517 -0.202080 -0.327974 59 69 87 5 1
-0.182208 -0.188048 -0.314296 63 75 91 5 1
-0.004316 -0.131428 -0.088316 138 119 81 14 5
0.027682 -0.130920 -0.091685 157 142 110 14 5
0.016477 -0.137258 -0.092253 112 95 63 14 5
-0.239689 0.163967 -0.092252 193 194 184 14 5
-0.255029 0.128974 -0.091666 194 194 185 14 5
-0.278488 -0.213084 -0.022680 17 21 22 5 1
-0.290568 -0.181321 -0.051119 48 49 47 5 1
-0.268631 -0.203682 -0.025215 20 23 29 5 1
-0.249980 -0.028336 -0.089533 199 201 191 14 5
0.329625 -0.135707 -0.291092 183 143 99 14 5
0.316849 -0.134927 -0.271592 162 128 91 14 5
0.349666 -0.135519 -0.259592 184 147 103 14 5
0.326014 -0.135455 -0.265342 184 146 103 14 5
0.315998 -0.134389 -0.255092 171 136 93 14 5
0.309754 -0.133648 -0.264353 177 140 95 14 5
0.331534 -0.134336 -0.240092 185 144 99 14 5
-0.177123 0.281202 -0.093624 187 187 177 14 5
-0.309728 -0.169844 -0.070472 40 36 32 5 1
-0.454868 -0.119453 -0.119791 173 139 100 14 5
-0.454626 -0.121406 -0.132880 170 135 97 14 5
0.321252 -0.131466 -0.196092 195 161 115 14 5
0.319232 -0.132597 -0.223184 192 159 114 14 5
0.343555 -0.133075 -0.214994 195 159 114 14 5
0.312710 -0.131993 -0.228967 188 157 112 14 5
-0.476135 -0.087061 -0.304065 132 99 61 14 5
-0.470768 -0.092640 -0.308668 136 104 74 14 5
-0.474965 -0.086059 -0.286371 96 71 44 14 5
-0.470850 -0.090827 -0.289738 154 114 76 14 5
-0.477614 -0.071605 -0.288437 61 40 26 14 5
-0.277007 -0.233945 -0.034641 25 26 31 5 1
-0.253640 -0.256680 -0.048951 33 35 45 5 1
-0.262350 -0.240041 -0.030705 27 30 37 5 1
0.550723 -0.134589 -0.202342 155 120 82 14 5
0.535677 -0.134466 -0.202092 157 121 82 14 5
0.512840 -0.134580 -0.219842 162 127 89 14 5
-0.415534 -0.082892 -0.200938 62 50 40 14 5
-0.144705 -0.207203 -0.021799 116 117 109 5 1
-0.127008 -0.215122 -0.014836 94 97 92 5 1
0.644541 0.054259 0.299571 171 166 158 15 4
0.634474 0.024982 0.304072 168 163 155 15 4
0.629460 0.057064 0.311774 171 170 164 15 4
0.634786 0.037139 0.315256 173 172 166 15 4
0.632581 0.021541 0.311904 174 173 167 15 4
0.630317 0.029979 0.307811 172 170 164 15 4
0.070255 0.003113 -0.089555 190 191 180 14 5
0.055559 -0.018406 -0.089483 191 191 179 14 5
0.108616 0.020823 -0.089986 190 189 177 14 5
0.124231 -0.117393 -0.091512 199 189 171 14 5
0.129509 -0.122378 -0.095457 200 165 115 14 5
0.133831 -0.124473 -0.101719 199 164 112 14 5
0.120475 -0.104340 -0.089230 196 198 185 14 5
0.103454 -0.115365 -0.091622 197 193 176 14 5
-0.439514 -0.106194 -0.087774 201 197 182 14 5
-0.118544 -0.121921 -0.086778 149 146 128 14 5
0.156032 -0.121560 -0.186323 110 94 77 14 5
0.148856 -0.113174 -0.189739 61 52 46 14 5
0.522354 -0.136713 -0.265967 157 120 82 14 5
-0.215086 -0.241483 0.001784 22 25 30 5 1
-0.210975 -0.229184 -0.001310 27 28 32 5 1
-0.235768 -0.231058 -0.004834 24 25 30 5 1
-0.200343 -0.221902 -0.003758 27 29 32 5 1
-0.350736 -0.067977 -0.088470 199 201 192 14 5
0.283854 0.014769 -0.309576 29 27 29 14 5
0.283443 -0.000272 -0.329089 41 33 29 14 5
0.283408 0.002062 -0.349092 16 19 22 14 5
0.142178 -0.040603 -0.142328 26 22 27 14 5
0.144901 -0.059493 -0.150253 26 25 29 14 5
-0.168483 -0.220402 -0.087659 43 45 46 5 1
0.009053 0.371885 -0.094394 178 177 164 14 5
0.056726 -0.200464 -0.243371 18 19 24 5 1
0.061573 -0.177192 -0.240525 22 23 28 5 1
0.067777 -0.196422 -0.238951 16 17 20 5 1
0.059894 -0.193087 -0.247461 22 24 28 5 1
0.054603 -0.182869 -0.248130 33 40 47 5 1
0.644272 0.000736 0.611798 136 131 125 15 4
0.282700 0.035875 -0.345592 62 48 42 14 5
-0.383189 -0.142031 -0.262447 10 12 16 5 1
-0.396586 -0.126115 -0.253557 11 13 17 5 1
-0.382476 -0.118763 -0.258622 10 14 17 5 1
-0.382736 -0.125871 -0.263332 10 14 17 5 1
-0.368195 -0.134576 -0.272845 11 14 17 5 1
0.127110 -0.014786 -0.167199 38 38 39 14 5
0.136130 -0.013331 -0.168350 49 50 51 14 5
0.149099 -0.007415 -0.157530 29 31 31 14 5
0.145331 -0.034282 -0.157382 31 31 33 14 5
0.142219 -0.004056 -0.166747 41 44 44 14 5
0.138075 -0.002714 -0.152740 21 21 24 14 5
-0.373379 -0.143483 -0.147318 18 18 23 5 1
-0.404251 -0.142089 -0.181124 11 12 17 5 1
-0.390828 -0.145028 -0.163873 13 12 15 5 1
-0.381828 -0.136630 -0.165565 23 22 22 5 1
-0.408237 -0.150709 -0.186601 10 11 15 5 1
-0.392878 -0.135497 -0.174261 11 11 15 5 1
-0.398469 -0.156246 -0.165016 10 11 14 5 1
-0.391343 -0.129762 -0.173593 16 16 20 5 1
-0.477407 -0.074422 -0.306792 95 66 41 14 5
-0.477173 -0.080189 -0.285522 75 50 28 14 5
-0.137055 -0.185301 -0.268092 30 33 39 5 1
-0.107971 -0.185409 -0.271592 31 33 39 5 1
-0.097569 -0.186577 -0.250092 30 34 38 5 1
-0.110079 -0.186817 -0.254092 32 35 39 5 1
-0.479150 -0.124754 -0.321166 166 130 91 14 5
-0.207964 -0.219651 -0.082824 47 48 50 5 1
0.115460 -0.117467 -0.117200 66 55 47 14 5
0.127777 -0.120480 -0.119483 58 44 25 14 5
0.136834 -0.120019 -0.138373 50 43 33 14 5
0.134790 -0.107664 -0.141818 44 43 44 14 5
0.114272 -0.102370 -0.125684 40 33 23 14 5
0.122303 -0.104056 -0.126125 93 78 63 14 5
0.133242 -0.107310 -0.131792 64 67 72 14 5
0.134411 -0.117037 -0.127772 35 32 31 14 5
-0.110865 0.272034 -0.093303 186 186 175 14 5
-0.333403 -0.169079 -0.220437 32 36 40 5 1
-0.310638 -0.171451 -0.238306 40 45 53 5 1
-0.326122 -0.173203 -0.233396 54 65 74 5 1
-0.153824 -0.009663 -0.089581 197 199 189 14 5
-0.154808 -0.052957 -0.089010 197 200 190 14 5
0.347151 -0.034232 -0.088929 180 177 164 14 5
0.445892 -0.136152 -0.250092 175 137 98 14 5
0.195300 0.012958 -0.089666 188 186 175 14 5
0.157834 -0.025158 -0.089411 187 187 175 14 5
-0.152080 -0.229669 -0.087797 36 38 41 5 1
-0.123273 -0.231088 -0.083494 40 40 41 5 1
-0.077147 0.125977 -0.091545 189 188 179 14 5
0.284709 -0.091975 -0.088562 189 189 176 14 5
0.279580 -0.044657 -0.088961 190 190 178 14 5
0.300409 -0.064286 -0.088374 188 187 175 14 5
0.268676 -0.084764 -0.088364 191 193 182 14 5
0.040060 -0.062515 -0.091766 169 170 158 14 5
0.066135 -0.088727 -0.093265 142 146 135 14 5
0.035040 -0.191705 -0.180981 13 14 19 5 1
0.074617 -0.184089 -0.209700 16 17 22 5 1
0.070941 -0.187131 -0.187240 17 18 22 5 1
0.059396 -0.198656 -0.177733 13 14 18 5 1
0.594194 -0.055191 -0.087325 127 123 104 14 5
0.638270 -0.049202 -0.086574 123 116 101 14 5
0.293570 -0.100108 -0.236584 68 46 27 14 5
0.299669 -0.127917 -0.267568 70 44 23 14 5
0.305346 -0.132165 -0.270000 92 63 37 14 5
0.498887 0.152649 -0.090924 144 139 124 14 5
0.430855 0.102440 -0.089893 143 137 120 14 5
0.155231 -0.121371 -0.136636 129 108 77 14 5
0.141159 -0.126831 -0.150465 83 65 44 14 5
0.141014 -0.120703 -0.128476 49 36 29 14 5
-0.475979 -0.119924 -0.195138 139 109 74 14 5
-0.473046 -0.121098 -0.182762 151 120 81 14 5
-0.459478 -0.105465 -0.207050 9 9 9 14 5
-0.316150 -0.170350 -0.215342 37 37 40 5 1
-0.348668 -0.172839 -0.192554 36 37 40 5 1
-0.342384 -0.169985 -0.202206 37 38 39 5 1
-0.316793 -0.175382 -0.187592 38 40 41 5 1
-0.305392 -0.188130 -0.048008 16 18 21 5 1
-0.323767 -0.198210 -0.048191 17 18 22 5 1
-0.296758 -0.203934 -0.033665 17 20 23 5 1
-0.000499 -0.137328 -0.092349 139 124 87 14 5
-0.293680 -0.192318 -0.301292 40 48 56 5 1
-0.284363 -0.200640 -0.311169 33 41 47 5 1
-0.293127 -0.197879 -0.295168 31 36 41 5 1
-0.303077 -0.195913 -0.286507 46 55 64 5 1
-0.308231 -0.187070 -0.286735 30 36 42 5 1
-0.294743 -0.194722 -0.283646 49 59 70 5 1
0.317414 0.121767 -0.090614 168 164 151 14 5
0.289071 0.078024 -0.280350 96 74 53 14 5
0.284646 0.077462 -0.293680 96 74 51 14 5
0.284281 0.049885 -0.295728 57 46 42 14 5
0.283587 0.066395 -0.306842 74 58 49 14 5
-0.041735 -0.133728 -0.089964 106 91 58 14 5
-0.023948 -0.125049 -0.087653 106 90 61 14 5
-0.024169 -0.137512 -0.091146 107 92 61 14 5
0.379700 -0.028706 -0.088278 174 170 154 14 5
-0.269337 -0.184573 -0.042861 68 69 66 5 1
-0.257042 -0.184252 -0.043896 66 65 62 5 1
-0.269052 -0.179313 -0.053053 50 52 53 5 1
-0.253873 -0.193535 -0.032257 35 38 38 5 1
0.403605 0.105031 -0.090261 153 148 133 14 5
0.386202 0.117763 -0.090130 153 149 134 14 5
0.421977 0.127289 -0.090337 155 149 135 14 5
-0.306522 -0.019994 -0.089390 198 203 191 14 5
-0.319752 0.005255 -0.089613 199 200 192 14 5
0.184499 0.221726 -0.092417 175 171 159 14 5
0.192269 0.206500 -0.091835 175 172 159 14 5
0.153226 0.195649 -0.091854 175 172 159 14 5
-0.220919 -0.190399 -0.173092 42 43 45 5 1
0.223577 -0.092859 -0.193440 101 95 84 14 5
0.236056 -0.098868 -0.194272 72 78 83 14 5
0.234719 -0.108784 -0.190129 88 88 86 14 5
0.244983 -0.114720 -0.189188 165 137 92 14 5
0.242227 -0.079829 -0.197284 99 101 99 14 5
0.248725 -0.096159 -0.196397 95 94 94 14 5
0.230271 -0.079600 -0.197120 76 75 73 14 5
-0.347293 -0.197692 -0.071066 13 13 17 5 1
-0.338172 -0.208861 -0.078356 16 17 21 5 1
-0.355112 -0.187716 -0.076607 15 16 20 5 1
-0.331974 -0.203833 -0.054854 13 15 19 5 1
-0.356467 -0.192453 -0.084242 14 15 18 5 1
-0.281677 -0.180446 -0.325781 17 19 23 5 1
-0.321830 0.161720 -0.091692 192 193 183 14 5
-0.112463 -0.222490 -0.088019 37 37 40 5 1
-0.105921 -0.231914 -0.079174 40 42 46 5 1
-0.094994 -0.218594 -0.088873 39 39 43 5 1
-0.280702 -0.177761 -0.053613 65 65 64 5 1
-0.298127 -0.171499 -0.066080 39 40 38 5 1
-0.255694 0.015867 -0.090108 197 201 190 14 5
-0.450395 -0.101701 -0.205017 34 28 23 14 5
-0.430671 -0.095428 -0.198343 25 21 22 14 5
-0.443908 -0.093352 -0.197156 89 70 56 14 5
-0.430546 -0.078022 -0.199030 74 56 38 14 5
0.470369 0.098668 -0.090014 144 138 122 14 5
0.286114 0.043320 -0.245773 54 40 31 14 5
0.279914 0.066107 -0.246017 55 41 34 14 5
-0.127046 -0.225616 -0.349810 60 69 85 5 1
-0.130690 -0.194537 -0.316818 57 68 83 5 1
0.054633 -0.178524 -0.147897 15 16 20 5 1
0.060398 -0.176365 -0.168846 14 15 19 5 1
0.064819 -0.194491 -0.173902 15 16 20 5 1
0.056145 -0.196793 -0.158556 17 18 22 5 1
0.340052 0.026230 -0.089388 172 169 155 14 5
0.325747 0.049516 -0.089562 171 168 154 14 5
-0.282126 0.091835 -0.091139 196 197 187 14 5
0.387844 -0.127509 -0.106009 187 159 119 14 5
0.385956 -0.126479 -0.100101 185 154 114 14 5
0.363592 -0.127519 -0.110092 175 146 103 14 5
0.392092 -0.124196 -0.095845 187 158 120 14 5
0.639130 0.023921 -0.087965 103 98 84 14 5
0.643305 0.005152 -0.087390 103 98 83 14 5
0.368378 0.014917 -0.089346 171 169 155 14 5
0.070575 -0.068224 -0.090573 193 195 186 14 5
-0.184122 -0.217914 -0.008568 136 133 123 5 1
-0.198522 -0.204544 -0.018242 148 151 137 5 1
0.554885 -0.065941 -0.087591 141 137 121 14 5
0.292168 0.108326 -0.090910 173 170 156 14 5
0.257591 0.115678 -0.091031 173 171 157 14 5
0.291679 0.130095 -0.090813 173 171 156 14 5
0.634167 0.002478 -0.086984 111 106 92 14 5
-0.114813 -0.188828 -0.230148 38 39 43 5 1
0.393114 -0.124084 -0.146092 173 139 94 14 5
0.395641 -0.127184 -0.126092 187 152 107 14 5
0.414913 -0.125777 -0.136092 187 154 109 14 5
-0.221474 -0.206072 -0.112262 45 46 51 5 1
0.481170 0.046983 -0.090088 145 141 126 14 5
0.656621 0.020010 0.015604 162 161 156 15 4
-0.085295 0.171757 -0.092197 186 186 174 14 5
-0.096527 0.204536 -0.092472 186 186 175 14 5
-0.068439 0.209420 -0.092299 189 186 177 14 5
0.372288 -0.129029 -0.166092 198 162 112 14 5
-0.280761 -0.195228 -0.118128 46 46 48 5 1
-0.265852 -0.196244 -0.127876 46 47 48 5 1
-0.289154 -0.192239 -0.133294 45 46 48 5 1
-0.166340 -0.202566 -0.329378 63 73 89 5 1
-0.038879 0.204322 -0.092651 183 183 171 14 5
0.277122 -0.125308 -0.181818 192 161 113 14 5
-0.370708 -0.185134 -0.214287 51 60 68 5 1
-0.383748 -0.191275 -0.193587 13 14 17 5 1
-0.384451 -0.187229 -0.211271 32 34 38 5 1
0.483264 -0.132447 -0.180436 173 140 96 14 5
0.465877 -0.129675 -0.162986 181 142 97 14 5
0.458614 -0.130805 -0.168092 176 140 95 14 5
0.165246 0.247562 -0.092603 174 171 158 14 5
0.171882 0.274831 -0.092692 172 169 156 14 5
0.147048 0.252815 -0.092456 174 171 158 14 5
-0.369824 -0.161497 -0.114394 13 13 16 5 1
-0.382957 -0.169442 -0.123743 12 13 16 5 1
-0.390975 -0.159112 -0.148085 10 11 15 5 1
-0.384145 -0.162422 -0.131716 13 13 16 5 1
-0.381514 -0.148618 -0.144727 12 13 18 5 1
-0.059171 -0.217393 -0.345591 43 50 60 5 1
-0.496036 -0.122611 -0.290092 171 127 85 14 5
-0.167265 -0.237912 -0.082603 40 43 45 5 1
-0.192268 -0.225191 -0.080367 50 50 52 5 1
-0.178245 -0.231100 -0.080697 45 43 47 5 1
-0.194315 -0.242134 -0.074001 49 48 50 5 1
-0.334405 0.127988 -0.091361 193 195 185 14 5
-0.339759 0.091211 -0.090748 195 196 186 14 5
0.289641 -0.093670 -0.286059 74 51 30 14 5
0.289286 -0.077525 -0.274289 73 50 32 14 5
0.291380 -0.106038 -0.276748 72 48 28 14 5
0.286484 -0.075769 -0.305943 72 50 30 14 5
0.048306 -0.202384 -0.160309 13 14 18 5 1
0.043984 -0.197670 -0.185699 13 14 18 5 1
0.027104 -0.196291 -0.158349 13 14 19 5 1
0.038738 -0.203555 -0.150285 13 14 18 5 1
0.046521 -0.200173 -0.173351 13 14 18 5 1
0.508961 -0.130579 -0.164092 165 127 86 14 5
0.503133 -0.131754 -0.170092 170 134 92 14 5
0.531142 -0.132810 -0.179717 170 134 93 14 5
-0.204130 -0.180608 -0.265092 31 33 38 5 1
-0.180233 -0.182458 -0.269467 33 35 40 5 1
-0.477842 -0.108276 -0.087963 201 196 180 14 5
0.182068 -0.115594 -0.188912 179 150 106 14 5
0.216342 -0.118043 -0.187648 179 148 105 14 5
0.193765 -0.106608 -0.192687 126 110 89 14 5
0.189874 -0.090454 -0.194345 59 44 32 14 5
0.139930 -0.039538 -0.089055 193 192 181 14 5
-0.010014 -0.203206 -0.064884 59 65 69 5 1
-0.021120 -0.201804 -0.057535 58 65 70 5 1
0.287241 0.084640 -0.090348 174 171 158 14 5
0.269288 0.045839 -0.090052 175 173 161 14 5
0.358019 -0.130861 -0.177592 197 164 117 14 5
0.338323 -0.131715 -0.198592 196 162 117 14 5
0.315798 -0.128580 -0.162994 200 166 119 14 5
0.362384 -0.125405 -0.156092 199 165 120 14 5
0.332084 -0.129917 -0.170092 198 163 117 14 5
0.301816 -0.125373 -0.199435 85 55 31 14 5
0.310066 -0.130103 -0.195217 98 65 38 14 5
0.281811 -0.119154 -0.191872 167 136 96 14 5
0.290832 -0.118097 -0.198031 87 60 35 14 5
0.297696 -0.116338 -0.210415 67 44 27 14 5
0.286318 -0.036322 -0.313493 69 47 30 14 5
0.286632 -0.046692 -0.323009 72 49 30 14 5
0.287871 -0.057684 -0.315608 72 49 28 14 5
-0.357936 0.064427 -0.090137 196 198 187 14 5
0.555843 -0.135575 -0.220217 153 117 80 14 5
-0.124579 -0.207893 -0.025158 48 50 52 5 1
0.373252 -0.135138 -0.326092 163 127 90 14 5
0.389723 -0.137772 -0.336092 180 145 105 14 5
-0.107226 -0.229539 -0.014109 35 40 46 5 1
-0.087652 -0.235321 -0.011300 35 40 46 5 1
-0.110220 -0.211419 -0.022456 89 93 88 5 1
-0.099596 -0.209037 -0.028144 82 86 84 5 1
-0.106875 -0.219062 -0.017242 66 70 68 5 1
0.177054 -0.093529 -0.088393 196 196 183 14 5
-0.009757 -0.217212 -0.073539 107 120 128 5 1
-0.051738 -0.220234 -0.083998 39 39 46 5 1
-0.028847 -0.235740 -0.073550 98 108 117 5 1
-0.015724 -0.208764 -0.061062 30 32 33 5 1
-0.029268 -0.235957 -0.065584 102 116 126 5 1
-0.022421 -0.227236 -0.062258 100 115 125 5 1
-0.039530 -0.218599 -0.085952 39 44 53 5 1
-0.025249 -0.234678 -0.057114 85 99 112 5 1
-0.019591 -0.224366 -0.083787 35 39 49 5 1
-0.176305 0.235733 -0.093016 189 189 179 14 5
0.490288 -0.136375 -0.280920 157 121 83 14 5
0.508731 -0.136329 -0.297092 149 115 78 14 5
-0.473204 -0.086356 -0.209754 131 98 64 14 5
-0.475353 -0.072427 -0.209307 105 77 45 14 5
-0.478379 -0.080738 -0.219624 120 87 53 14 5
-0.465761 -0.073849 -0.199103 166 127 79 14 5
-0.464966 -0.090652 -0.205610 130 101 69 14 5
-0.469581 -0.080418 -0.202576 137 106 67 14 5
-0.452941 -0.079771 -0.198661 104 78 49 14 5
-0.443629 -0.077844 -0.197481 109 86 61 14 5
-0.223083 0.365445 -0.094119 182 183 171 14 5
-0.235385 0.389593 -0.094568 181 182 170 14 5
0.265774 -0.035856 -0.088741 185 184 172 14 5
0.049301 0.291128 -0.092767 179 177 164 14 5
0.015289 0.274044 -0.092787 179 177 164 14 5
0.283466 0.224883 -0.305530 40 34 30 14 5
0.106409 -0.067199 -0.165161 63 57 53 14 5
0.112847 -0.070623 -0.164223 58 55 54 14 5
0.111897 -0.087202 -0.160156 55 52 48 14 5
0.120736 -0.073292 -0.163342 67 63 56 14 5
0.111274 -0.055380 -0.166239 41 39 36 14 5
0.156818 -0.125888 -0.101845 202 169 119 14 5
0.186143 -0.124174 -0.096346 197 164 115 14 5
-0.380565 -0.167474 -0.242819 13 14 17 5 1
-0.400925 -0.149926 -0.239691 11 12 16 5 1
-0.396093 -0.142232 -0.250926 8 9 13 5 1
0.664753 0.011632 -0.091415 105 100 85 14 5
0.328852 0.184656 -0.091381 162 158 143 14 5
-0.308064 -0.132212 -0.314828 10 13 17 5 1
-0.301657 -0.131058 -0.321285 12 13 17 5 1
-0.021748 -0.212416 -0.096868 28 31 37 5 1
-0.027018 -0.210510 -0.106944 27 28 31 5 1
0.655830 0.034518 0.608269 151 147 138 15 4
0.644417 0.022717 0.611853 149 143 134 15 4
0.654966 0.017071 0.608749 146 141 132 15 4
0.386911 0.013557 -0.089065 169 166 149 14 5
0.071005 -0.133036 -0.111777 121 107 81 14 5
0.057183 -0.132541 -0.098335 134 110 76 14 5
0.072429 -0.111131 -0.093408 69 72 71 14 5
0.085328 -0.131836 -0.101949 139 120 87 14 5
0.095636 -0.124356 -0.094283 146 135 118 14 5
0.070737 -0.127282 -0.094900 63 65 66 14 5
0.082006 -0.123780 -0.118607 39 40 43 14 5
0.070437 -0.120071 -0.116149 28 29 31 14 5
0.056581 0.269444 -0.092911 175 173 162 14 5
-0.503536 -0.118108 -0.112965 173 133 92 14 5
-0.467823 -0.117098 -0.123112 107 78 55 14 5
-0.464883 -0.119759 -0.096013 185 148 106 14 5
-0.467066 -0.120395 -0.102769 177 142 103 14 5
-0.470674 -0.116409 -0.090507 184 146 101 14 5
0.428417 0.000441 -0.088852 163 160 145 14 5
0.056758 -0.170274 -0.245240 34 37 42 5 1
0.041552 -0.193544 -0.258077 39 46 55 5 1
-0.212751 -0.076007 -0.089000 197 200 191 14 5
0.042248 -0.117036 -0.093967 119 103 79 14 5
0.045278 -0.131017 -0.095881 125 101 72 14 5
0.062760 -0.120519 -0.094513 75 71 68 14 5
-0.013993 0.167939 -0.091387 186 184 172 14 5
0.000092 0.161464 -0.091190 185 184 171 14 5
0.483843 -0.042649 -0.088335 162 157 143 14 5
0.128218 -0.085538 -0.190364 38 31 25 14 5
-0.050443 0.324093 -0.093389 180 180 169 14 5
-0.287273 -0.171389 -0.241097 35 38 41 5 1
-0.313102 -0.169522 -0.226892 36 38 40 5 1
-0.286675 -0.171741 -0.251683 36 41 47 5 1
-0.299217 -0.170396 -0.233499 39 40 42 5 1
-0.239719 -0.190624 -0.162592 42 43 46 5 1
-0.238627 -0.183972 -0.196092 43 43 47 5 1
-0.250570 0.292137 -0.093459 187 187 178 14 5
-0.227238 0.278481 -0.093147 187 188 177 14 5
-0.096819 -0.207092 -0.123130 41 43 46 5 1
0.233409 0.035947 -0.090066 179 176 163 14 5
-0.152457 -0.183912 -0.277092 31 33 38 5 1
-0.156115 -0.185193 -0.253842 35 35 40 5 1
0.244227 -0.126327 -0.111842 171 143 100 14 5
-0.013569 -0.167480 -0.299941 26 27 27 5 1
-0.004360 -0.160968 -0.284097 35 34 37 5 1
-0.002711 -0.172478 -0.290493 35 32 35 5 1
0.012737 -0.173698 -0.278049 36 36 40 5 1
-0.412862 -0.136119 -0.187630 11 9 12 5 1
-0.416092 -0.124270 -0.174710 68 51 38 14 5
-0.403075 -0.126274 -0.177260 44 31 21 5 1
0.409836 0.034475 -0.089101 162 156 143 14 5
0.281833 0.155531 -0.345589 25 25 28 14 5
0.286946 0.179821 -0.327602 38 35 37 14 5
0.286462 0.161626 -0.325275 26 25 29 14 5
0.141025 -0.065027 -0.158546 46 43 46 14 5
0.135994 -0.060862 -0.164657 74 69 61 14 5
0.122378 -0.089899 -0.159242 75 67 59 14 5
0.136503 -0.078155 -0.156898 62 57 50 14 5
0.121781 -0.103709 -0.155839 75 66 54 14 5
-0.071577 0.379010 -0.094333 177 177 165 14 5
