ply
format ascii 1.0
element vertex 1142
property float x
property float y
property float z
property uchar red
property uchar green
property uchar blue
property uchar semantic_label
property uchar instance_label
end_header
0.427622 0.619553 -0.473939 58 36 11 1 7
0.420370 0.616152 -0.461464 48 33 24 1 7
-0.293023 0.647064 -0.459788 89 53 30 1 7
-0.306225 0.645660 -0.466263 83 50 16 1 7
-0.278387 0.644097 -0.468746 99 46 17 1 7
-0.302420 0.643781 -0.487675 93 51 22 1 7
-0.256184 0.645351 -0.314508 101 44 10 1 7
-0.264875 0.644696 -0.288258 98 44 17 1 7
-0.281158 0.645386 -0.303340 98 50 20 1 7
0.143359 0.625567 -0.210355 83 50 24 0 0
0.114947 0.637848 -0.213259 76 45 20 1 7
0.130087 0.607887 -0.199558 78 47 24 0 0
0.141942 0.633391 -0.216175 81 48 30 1 7
0.121859 0.637487 -0.236870 76 43 20 1 7
0.076368 0.641648 -0.382446 80 37 10 1 7
0.089016 0.639737 -0.413258 83 37 8 1 7
0.102428 0.637796 -0.390814 67 35 16 1 7
-0.164378 0.642950 -0.467259 96 42 21 1 7
-0.307944 0.626747 -0.546901 72 44 23 1 7
-0.306058 0.633919 -0.575743 71 44 21 1 7
-0.305864 0.630305 -0.565931 70 44 18 1 7
-0.325629 0.640718 -0.328566 75 53 21 1 7
0.150193 0.634457 -0.488705 78 43 14 1 7
0.093501 0.590195 -0.565447 56 29 11 1 7
0.106264 0.609056 -0.583114 60 31 11 1 7
0.104570 0.594622 -0.592539 55 28 8 1 7
0.096605 0.585609 -0.586809 71 42 24 5 5
0.296511 0.626741 -0.536756 78 39 19 1 7
0.281178 0.618880 -0.543175 89 49 21 1 7
-0.305897 0.629702 -0.578991 74 43 20 1 7
-0.292643 0.628598 -0.580463 78 47 21 1 7
-0.281235 0.630117 -0.561588 96 51 28 1 7
-0.335097 0.639316 -0.253141 89 54 31 1 7
0.070777 0.584908 -0.628894 95 82 44 5 5
0.423660 0.631031 -0.540247 36 28 17 1 7
0.103876 0.640183 -0.314934 81 43 19 1 7
0.089423 0.641974 -0.310857 68 39 14 1 7
0.102427 0.639389 -0.281389 76 35 17 1 7
-0.130486 0.642912 -0.390508 59 23 16 1 7
-0.095192 0.643200 -0.349258 46 26 12 1 7
-0.168426 0.642392 -0.219258 66 28 11 1 7
-0.268549 0.644111 -0.213383 103 41 23 1 7
-0.231843 0.643580 -0.225452 98 44 16 1 7
-0.254471 0.644761 -0.245259 94 54 12 1 7
0.260127 0.634052 -0.476052 95 50 14 1 7
0.254882 0.633348 -0.451204 89 54 13 1 7
-0.241029 0.643458 -0.478259 113 94 25 1 7
-0.210428 0.643837 -0.497258 114 103 28 1 7
0.071746 0.625120 -0.620163 53 37 14 1 7
0.053105 0.624845 -0.625732 52 39 18 1 7
0.041413 0.621428 -0.632440 46 29 22 1 7
0.106570 0.636205 -0.463592 67 42 11 1 7
0.081516 0.640009 -0.476258 80 37 19 1 7
0.090021 0.639771 -0.451258 85 31 17 1 7
0.094038 0.639883 -0.361259 77 37 13 1 7
0.121058 0.639721 -0.365987 71 38 7 1 7
0.105703 0.639987 -0.342784 76 38 25 1 7
-0.153323 0.643339 -0.334258 54 32 5 1 7
-0.096708 0.643448 -0.275820 48 28 7 1 7
-0.113122 0.642999 -0.537358 58 29 13 1 7
-0.089220 0.642576 -0.509259 45 21 11 1 7
-0.326204 0.644133 -0.264210 101 75 22 1 7
-0.173250 0.643441 -0.540929 95 65 17 1 7
-0.178501 0.644160 -0.514664 88 49 23 1 7
-0.283483 0.645601 -0.247258 100 49 16 1 7
-0.285779 0.645001 -0.223759 95 45 21 1 7
-0.305647 0.644879 -0.242188 92 54 23 1 7
-0.276872 0.645330 -0.338072 123 110 41 1 7
-0.299862 0.644047 -0.330196 118 117 50 1 7
-0.016931 0.641908 -0.347134 48 23 18 1 7
-0.035842 0.641608 -0.403009 48 24 13 1 7
-0.204150 0.642924 -0.544375 123 114 38 1 7
-0.189621 0.645073 -0.539038 127 115 21 1 7
-0.187743 0.641912 -0.551573 116 102 31 1 7
-0.175052 0.639518 -0.552229 107 80 24 1 7
0.108645 0.603620 -0.566516 59 30 12 1 7
-0.334614 0.645815 -0.203546 104 88 34 1 7
-0.309888 0.644871 -0.211188 114 107 36 1 7
-0.324077 0.644758 -0.212328 105 85 28 1 7
-0.074861 0.641994 -0.541256 45 17 14 1 7
-0.057698 0.641789 -0.520758 46 20 5 1 7
-0.059613 0.641240 -0.540587 47 18 9 1 7
0.399881 0.615401 -0.405713 112 69 28 1 7
0.382977 0.628271 -0.409843 98 62 27 1 7
0.383098 0.625256 -0.400387 78 50 27 1 7
0.389741 0.619907 -0.396087 77 52 24 1 7
0.154155 0.634084 -0.360988 81 51 17 1 7
0.151904 0.636628 -0.352827 86 48 17 1 7
0.160367 0.637946 -0.380197 85 50 14 1 7
-0.220827 0.644043 -0.425821 101 65 27 1 7
0.055502 0.640720 -0.514258 68 28 11 1 7
0.074787 0.640544 -0.492258 71 38 15 1 7
0.104917 0.637769 -0.210759 74 38 26 1 7
-0.193457 0.633053 -0.563109 128 126 39 1 7
0.319075 0.636687 -0.485007 100 52 25 1 7
0.271746 0.634792 -0.490272 86 38 28 1 7
0.295748 0.638290 -0.491761 100 54 23 1 7
0.088079 0.638366 -0.527203 67 22 23 1 7
0.084419 0.639915 -0.510665 68 33 12 1 7
0.059338 0.640101 -0.532751 63 30 21 1 7
0.320930 0.628402 -0.535749 85 52 17 1 7
-0.197375 0.643244 -0.424195 101 46 24 1 7
-0.211297 0.643722 -0.387978 96 44 17 1 7
-0.125057 0.642587 -0.370009 64 24 17 1 7
0.360796 0.613183 -0.539387 61 39 23 1 7
0.355475 0.623582 -0.528645 81 45 21 1 7
0.345188 0.626782 -0.527541 80 45 14 1 7
0.148410 0.636094 -0.377057 83 47 19 1 7
-0.147343 0.643642 -0.498261 88 49 9 1 7
0.078383 0.641795 -0.261009 76 43 17 1 7
0.103873 0.638947 -0.249134 85 41 18 1 7
-0.139823 0.642878 -0.263758 74 33 11 1 7
0.134540 0.637322 -0.514412 77 34 13 1 7
0.114296 0.626664 -0.544493 55 24 8 1 7
0.132033 0.624488 -0.539589 58 30 10 1 7
0.106067 0.630218 -0.534349 60 24 8 1 7
0.146241 0.635937 -0.528400 70 34 8 1 7
0.119596 0.634761 -0.527770 58 28 8 1 7
0.142226 0.630383 -0.538096 59 26 15 1 7
-0.311056 0.642174 -0.476739 87 59 23 1 7
-0.234459 0.644224 -0.302258 96 44 25 1 7
-0.214969 0.643527 -0.271562 90 40 18 1 7
-0.107477 0.643125 -0.248259 54 28 7 1 7
-0.115300 0.642352 -0.231259 56 21 15 1 7
-0.061282 0.641160 -0.434172 45 28 13 1 7
-0.038170 0.641520 -0.367258 38 25 8 1 7
-0.063165 0.642461 -0.397259 52 19 8 1 7
-0.311107 0.644921 -0.260521 119 107 42 1 7
-0.292960 0.644423 -0.281020 89 36 18 1 7
-0.299702 0.645203 -0.258655 106 74 34 1 7
0.343371 0.631693 -0.398421 66 45 25 1 7
0.354453 0.630156 -0.402110 77 53 23 1 7
0.320797 0.636330 -0.503282 100 52 33 1 7
0.144552 0.635345 -0.464474 80 42 14 1 7
0.144340 0.630761 -0.313357 81 51 20 1 7
0.149942 0.622692 -0.295273 86 45 24 1 7
-0.300311 0.645087 -0.352158 102 79 24 1 7
-0.279667 0.644619 -0.384008 91 58 21 1 7
-0.306444 0.644726 -0.385040 104 72 35 1 7
0.068092 0.640356 -0.405904 81 42 9 1 7
0.051041 0.641423 -0.394759 64 37 18 1 7
0.123048 0.637157 -0.488445 76 39 14 1 7
0.125107 0.638359 -0.473198 78 42 13 1 7
0.392318 0.620989 -0.540051 48 38 13 1 7
0.377067 0.615499 -0.558610 38 27 20 1 7
-0.149673 0.630997 -0.619023 110 86 28 1 7
0.076442 0.640916 -0.441384 76 36 12 1 7
0.056979 0.640331 -0.465259 69 30 16 1 7
0.109485 0.588892 -0.192358 80 39 21 0 0
0.150251 0.618789 -0.281835 79 45 32 1 7
0.471268 0.628450 -0.495887 49 30 14 1 7
0.483220 0.632088 -0.496574 38 25 15 1 7
0.501312 0.631411 -0.498583 53 29 25 1 7
0.493808 0.638360 -0.493182 20 15 13 1 7
-0.152994 0.642672 -0.411259 78 40 17 1 7
-0.176365 0.643552 -0.401509 66 44 13 1 7
-0.168303 0.643061 -0.383259 80 35 26 1 7
0.063665 0.642763 -0.365758 76 39 18 1 7
0.295499 0.635311 -0.441830 93 54 22 1 7
-0.302722 0.641556 -0.581091 53 32 17 1 7
-0.122484 0.629405 -0.573896 95 47 25 1 7
-0.122157 0.632204 -0.562988 90 43 21 1 7
-0.143466 0.641136 -0.546331 82 39 33 1 7
-0.126493 0.636286 -0.556305 73 40 13 1 7
-0.188396 0.643528 -0.293759 81 39 16 1 7
0.306947 0.635880 -0.417981 76 48 25 1 7
-0.239536 0.643293 -0.181258 96 47 13 1 7
-0.058670 0.642232 -0.363634 38 25 9 1 7
0.343863 0.634401 -0.477531 92 52 16 1 7
0.359906 0.632416 -0.448865 93 55 18 1 7
0.350900 0.632843 -0.460645 96 53 25 1 7
0.331200 0.635717 -0.443752 93 55 19 1 7
0.286402 0.618288 -0.569094 79 42 26 1 7
0.276135 0.618767 -0.556282 90 48 23 1 7
0.295018 0.619456 -0.552383 97 51 28 1 7
0.280111 0.630297 -0.528019 79 41 17 1 7
0.279653 0.635527 -0.510361 85 37 30 1 7
0.303691 0.636515 -0.517489 76 34 16 1 7
0.143716 0.639058 -0.360825 82 45 18 1 7
0.119102 0.640803 -0.341394 71 42 9 1 7
0.207091 0.620782 -0.536804 61 41 19 1 7
0.516273 0.635491 -0.485437 27 18 11 1 7
0.501802 0.633511 -0.489260 36 26 16 1 7
-0.224137 0.626984 -0.600259 105 51 33 1 7
-0.231191 0.627346 -0.568321 103 57 31 1 7
0.061146 0.642578 -0.336758 62 35 16 1 7
-0.309570 0.645650 -0.408644 83 44 33 1 7
-0.319413 0.642232 -0.387558 79 57 20 1 7
0.361941 0.610258 -0.550590 55 36 14 1 7
0.362711 0.612678 -0.565015 60 42 21 1 7
0.334054 0.618205 -0.544583 101 55 28 1 7
0.347005 0.617872 -0.553646 61 39 16 1 7
0.344880 0.617921 -0.561832 70 43 26 1 7
0.334138 0.617305 -0.562002 94 56 20 1 7
-0.029897 0.641903 -0.317008 46 20 21 1 7
-0.011940 0.642118 -0.309009 53 20 15 1 7
0.319247 0.634459 -0.422049 87 49 28 1 7
0.336199 0.631674 -0.412517 80 52 31 1 7
-0.152848 0.642750 -0.366071 59 34 16 1 7
0.039650 0.641423 -0.240925 71 39 16 1 7
0.034344 0.630194 -0.555551 43 22 8 1 7
0.040056 0.637647 -0.540711 42 17 19 1 7
0.532806 0.639295 -0.478131 8 8 9 1 7
0.141711 0.620194 -0.314979 82 47 40 1 7
0.145786 0.636489 -0.338898 76 42 19 1 7
0.133049 0.639259 -0.322273 80 43 17 1 7
-0.036568 0.642923 -0.221259 54 24 13 1 7
0.090385 0.591406 -0.617093 79 62 28 5 5
0.105519 0.594913 -0.599953 56 36 19 5 5
0.106005 0.602549 -0.611334 47 35 12 1 7
0.106579 0.608687 -0.602680 58 35 7 1 7
0.086144 0.603770 -0.635215 85 59 30 5 5
0.103087 0.606210 -0.618822 52 34 8 1 7
0.098940 0.597308 -0.614590 68 51 27 5 5
0.096038 0.590988 -0.601993 67 51 17 5 5
0.134081 0.639899 -0.415011 81 42 12 1 7
0.135408 0.638091 -0.379436 87 43 22 1 7
0.124872 0.640493 -0.393205 73 38 8 1 7
0.121471 0.639751 -0.420368 70 34 16 1 7
0.143170 0.636602 -0.407896 83 49 19 1 7
0.131935 0.638171 -0.393117 85 41 21 1 7
0.310155 0.632815 -0.525677 78 39 12 1 7
0.135432 0.636080 -0.475494 78 41 20 1 7
0.116906 0.637775 -0.464567 68 40 10 1 7
0.146907 0.630385 -0.444657 84 42 19 1 7
0.121444 0.640118 -0.448005 81 37 15 1 7
-0.403201 0.632148 -0.538575 40 23 10 5 3
0.014785 0.640827 -0.529249 39 24 13 1 7
0.035952 0.640337 -0.525343 49 25 15 1 7
-0.083030 0.629482 -0.612884 77 30 19 1 7
-0.069716 0.629023 -0.627955 70 22 14 1 7
-0.095560 0.629928 -0.626273 79 27 27 1 7
-0.255433 0.645344 -0.397509 110 96 30 1 7
-0.243489 0.644115 -0.417383 112 93 29 1 7
-0.238070 0.644441 -0.382008 105 87 28 1 7
0.097493 0.617597 -0.628761 55 27 12 1 7
0.101133 0.619782 -0.609129 39 26 19 1 7
0.092508 0.620906 -0.627350 48 24 20 1 7
-0.078712 0.642336 -0.402008 53 25 15 1 7
-0.110039 0.642318 -0.422258 49 18 12 1 7
-0.094537 0.642753 -0.403250 51 18 21 1 7
-0.098730 0.642778 -0.371258 50 21 15 1 7
0.129762 0.608487 -0.247934 77 45 22 0 0
-0.171724 0.644730 -0.493637 93 46 20 1 7
-0.153355 0.642881 -0.522258 88 38 11 1 7
0.305967 0.631482 -0.402232 79 46 32 1 7
-0.143103 0.642544 -0.328759 60 29 9 1 7
-0.125259 0.643289 -0.329259 51 23 18 1 7
-0.088920 0.643295 -0.332509 53 25 14 1 7
0.040965 0.640697 -0.491258 72 29 11 1 7
0.303663 0.637231 -0.470387 92 53 24 1 7
0.281946 0.635144 -0.471407 90 57 24 1 7
-0.312223 0.644776 -0.392659 83 46 15 1 7
-0.322110 0.644160 -0.370452 83 46 15 1 7
-0.322622 0.642802 -0.347287 88 64 32 1 7
-0.133040 0.643112 -0.198946 53 25 11 1 7
-0.066841 0.643653 -0.265258 51 22 12 1 7
-0.334328 0.637534 -0.279167 92 65 25 1 7
-0.332498 0.633629 -0.304426 87 50 22 1 7
-0.326028 0.641402 -0.306256 99 71 30 1 7
-0.326176 0.643055 -0.292818 96 66 30 1 7
-0.315797 0.643971 -0.297164 104 68 29 1 7
-0.310871 0.643935 -0.280531 97 67 30 1 7
-0.302178 0.645762 -0.309793 103 80 42 1 7
-0.047145 0.627859 -0.614258 50 22 16 1 7
0.003332 0.638529 -0.540881 29 19 11 1 7
0.017688 0.629229 -0.554594 42 17 24 1 7
-0.013370 0.629857 -0.558078 40 20 17 1 7
0.015712 0.626511 -0.563914 47 20 8 1 7
-0.249973 0.627592 -0.591983 96 51 18 1 7
0.391391 0.623156 -0.500135 46 32 19 1 7
0.384765 0.623478 -0.487994 69 41 14 1 7
0.400211 0.619319 -0.487572 46 29 16 1 7
0.257697 0.628060 -0.431343 82 41 10 1 7
0.248723 0.637608 -0.419288 71 37 32 1 7
0.249102 0.639628 -0.430242 86 42 25 1 7
0.266392 0.638223 -0.431024 67 33 11 1 7
0.257272 0.638601 -0.422324 72 33 15 1 7
0.273876 0.647576 -0.426631 27 18 10 1 7
0.390227 0.619783 -0.457578 112 62 31 1 7
0.391940 0.614677 -0.468198 73 46 20 1 7
-0.257454 0.645106 -0.339258 97 50 23 1 7
-0.244483 0.644231 -0.334258 97 52 24 1 7
-0.234576 0.644604 -0.329884 96 43 31 1 7
-0.203767 0.643656 -0.356571 100 43 25 1 7
-0.336129 0.639018 -0.227529 94 83 21 1 7
0.290133 0.620398 -0.588962 76 46 23 1 7
0.295286 0.620759 -0.573304 87 48 22 1 7
0.276419 0.620083 -0.587120 77 44 21 1 7
0.299888 0.622539 -0.585120 79 46 18 1 7
-0.058077 0.643548 -0.210759 52 23 8 1 7
-0.030943 0.642724 -0.197384 48 25 14 1 7
-0.226145 0.644231 -0.239758 97 46 13 1 7
-0.240382 0.643746 -0.451758 102 72 33 1 7
-0.259427 0.643772 -0.458384 95 51 14 1 7
-0.252968 0.644913 -0.429177 120 99 54 1 7
0.242948 0.617031 -0.566204 55 38 30 1 7
0.262999 0.622135 -0.556441 70 48 32 1 7
0.254418 0.620715 -0.575003 60 40 19 1 7
0.245093 0.620347 -0.549367 69 49 30 1 7
0.271645 0.623164 -0.542599 96 52 13 1 7
0.259846 0.621237 -0.542466 91 43 18 1 7
0.140620 0.635777 -0.260117 74 50 28 0 0
0.143465 0.627193 -0.251064 87 49 30 0 0
0.135657 0.634069 -0.235672 79 49 31 0 0
0.134138 0.614968 -0.229053 82 46 28 0 0
0.141773 0.630902 -0.246175 82 48 24 0 0
0.141380 0.627749 -0.229297 82 48 24 0 0
-0.240001 0.643822 -0.209009 100 41 23 1 7
-0.179421 0.642854 -0.244258 72 33 14 1 7
0.121670 0.638626 -0.503331 52 31 6 1 7
0.092539 0.634549 -0.536442 63 30 12 1 7
0.106664 0.634548 -0.519686 64 28 16 1 7
-0.330155 0.643476 -0.232647 101 83 35 1 7
-0.080298 0.629342 -0.573726 62 30 18 1 7
-0.174374 0.643341 -0.342758 89 27 22 1 7
0.047580 0.642090 -0.352259 53 34 14 1 7
-0.052919 0.642053 -0.480634 46 16 17 1 7
0.143703 0.636270 -0.506059 75 35 10 1 7
0.375487 0.626380 -0.500807 102 54 32 1 7
0.362343 0.630697 -0.476674 97 50 20 1 7
-0.022145 0.641310 -0.423009 57 15 24 1 7
0.310250 0.619711 -0.568944 97 51 19 1 7
0.323688 0.618276 -0.579169 66 39 23 1 7
0.418397 0.634405 -0.520680 59 41 27 1 7
0.409701 0.626913 -0.537932 44 37 19 1 7
0.088282 0.640003 -0.434133 82 42 16 1 7
0.100874 0.637287 -0.427259 83 34 11 1 7
0.110259 0.637421 -0.418384 90 42 20 1 7
0.100852 0.636691 -0.457200 78 34 13 1 7
0.397918 0.608625 -0.436418 123 73 27 1 7
0.033345 0.642506 -0.266437 50 32 10 1 7
0.003160 0.641671 -0.356978 43 23 20 1 7
0.002938 0.641623 -0.381259 49 21 11 1 7
-0.171003 0.643632 -0.303095 74 30 21 1 7
-0.147284 0.642920 -0.293508 63 31 4 1 7
-0.099392 0.629221 -0.578914 82 36 17 1 7
-0.116369 0.641118 -0.546881 60 25 9 1 7
-0.096138 0.640979 -0.540883 57 21 13 1 7
-0.083202 0.630788 -0.564539 64 29 22 1 7
-0.107345 0.632362 -0.557337 62 34 20 1 7
-0.086789 0.633789 -0.556428 58 28 10 1 7
0.220940 0.633627 -0.438984 66 43 26 1 7
0.225242 0.633800 -0.428358 58 38 25 1 7
-0.278262 0.628992 -0.590879 93 52 33 1 7
0.244086 0.680513 0.045316 140 111 62 1 7
0.225901 0.681663 0.047750 136 107 44 1 7
-0.038500 0.642763 -0.158754 52 23 13 1 7
-0.012843 0.641744 -0.176633 53 22 11 1 7
-0.397334 0.680376 0.392242 150 131 109 1 7
-0.375142 0.688749 0.406825 134 108 71 1 7
-0.394641 0.679524 0.408215 148 135 96 1 7
-0.390491 0.681891 0.398447 95 85 49 1 7
-0.161728 0.685200 0.587462 163 140 111 1 7
-0.137770 0.676295 0.598785 175 147 114 1 7
-0.162506 0.674848 0.600597 178 155 115 1 7
-0.072086 0.691908 0.014417 103 77 39 1 7
0.394993 0.680656 0.337102 155 104 39 1 7
0.366393 0.682116 0.347289 168 120 49 1 7
0.370422 0.679033 0.328562 148 108 50 1 7
0.386059 0.678887 0.321994 148 109 47 1 7
0.451841 0.659686 0.008633 148 133 86 1 7
0.445849 0.663690 0.018040 118 100 69 1 7
0.457616 0.658354 0.021254 119 99 59 1 7
-0.387892 0.686205 0.050556 94 79 48 1 7
-0.368066 0.693767 0.058349 107 85 59 1 7
0.214253 0.660279 -0.056527 100 56 25 5 5
0.229558 0.654533 -0.044761 103 53 16 0 0
0.214594 0.640014 -0.056544 98 70 46 5 5
0.228207 0.647015 -0.046723 106 72 39 0 0
0.212655 0.647567 -0.048653 97 68 50 0 0
0.237300 0.640608 -0.042556 50 38 22 0 0
0.246703 0.645395 -0.039347 107 72 47 0 0
-0.209967 0.684351 -0.062090 63 42 23 1 7
-0.213323 0.674486 -0.065952 65 31 20 1 7
-0.238664 0.689259 -0.058720 66 38 20 1 7
-0.087657 0.688888 0.111860 83 51 25 1 7
0.118699 0.683359 0.072226 106 77 43 1 7
-0.104962 0.675834 0.379016 155 111 59 7 4
-0.102549 0.683766 0.382405 160 119 44 1 7
-0.102846 0.686384 0.390168 160 126 43 1 7
0.090890 0.683237 0.083933 98 70 24 1 7
-0.073351 0.626496 -0.107895 45 31 14 1 7
-0.080261 0.638289 -0.132517 50 27 11 1 7
0.421806 0.676637 0.537517 174 122 71 1 7
0.508272 0.652959 0.061867 94 69 34 1 7
0.511883 0.645505 0.046827 97 68 38 1 7
-0.195167 0.631192 0.377044 122 82 55 7 4
0.487854 0.643203 0.019161 133 105 59 1 7
0.472052 0.647246 0.030468 131 112 75 1 7
0.487238 0.643916 0.006230 146 122 77 1 7
0.468845 0.649965 0.012653 120 97 65 1 7
0.484079 0.646593 0.036717 118 102 63 1 7
0.495877 0.643735 0.030905 134 103 57 1 7
0.174635 0.570320 0.381802 97 67 38 7 4
-0.148077 0.689695 0.094742 89 62 21 1 7
-0.160852 0.691313 0.081565 98 62 27 1 7
-0.150069 0.691076 0.057452 83 62 36 1 7
-0.034719 0.686162 0.134450 109 77 39 1 7
-0.006818 0.683096 0.154458 88 61 15 1 7
-0.049567 0.683086 0.163301 109 78 36 1 7
0.379975 0.680749 0.403392 166 119 59 1 7
0.439038 0.677346 0.433253 164 119 71 1 7
0.437044 0.677768 0.446405 156 120 60 1 7
-0.216833 0.686670 0.209162 92 63 22 1 7
-0.247637 0.690439 0.097403 125 90 59 1 7
-0.245999 0.692317 0.078624 94 67 25 1 7
-0.266198 0.692094 0.069741 117 96 30 1 7
-0.075717 0.689584 0.104409 100 66 35 1 7
-0.271905 0.689323 0.400241 174 134 67 1 7
-0.287678 0.689659 0.395454 170 130 70 1 7
-0.295049 0.689063 0.420039 179 136 67 1 7
-0.255081 0.688799 0.427782 177 137 61 1 7
0.187392 0.685188 0.038472 112 84 37 1 7
0.163395 0.684186 0.055910 123 93 38 1 7
0.104957 0.637773 -0.182060 73 40 22 1 7
0.437749 0.663569 0.506221 129 96 56 1 7
0.436728 0.662532 0.512963 135 105 58 1 7
0.428803 0.673221 0.504147 152 107 47 1 7
0.424482 0.676504 0.492510 164 124 41 1 7
0.415327 0.678064 0.499456 165 121 55 1 7
-0.101669 0.683684 0.181264 50 40 7 1 7
-0.088228 0.683846 0.192635 78 55 22 1 7
-0.377580 0.688453 0.545029 144 123 103 1 7
-0.087473 0.670023 -0.064384 40 20 10 1 7
-0.102667 0.677460 -0.063776 35 17 7 1 7
0.570079 0.675165 0.485058 132 100 60 1 7
0.338625 0.679955 0.548662 188 141 65 1 7
0.323038 0.680194 0.558350 175 136 74 1 7
0.328571 0.680119 0.580769 177 136 89 1 7
0.330328 0.679376 0.569061 182 137 70 1 7
-0.226615 0.686035 0.547558 149 115 61 1 7
-0.200882 0.685672 0.547916 107 80 42 1 7
-0.234337 0.687497 0.516704 157 117 61 1 7
0.264259 0.673653 0.003599 85 59 38 1 7
0.251383 0.673094 0.016472 95 78 36 1 7
0.258252 0.673373 0.029126 104 78 51 1 7
0.249223 0.677204 0.032679 127 107 55 1 7
0.274488 0.672783 0.014951 88 59 28 1 7
0.264624 0.679848 0.498314 183 138 65 1 7
0.294279 0.681226 0.502946 179 138 59 1 7
-0.264610 0.694400 0.010446 113 91 61 1 7
-0.230401 0.692777 0.034590 102 80 33 1 7
-0.248703 0.695018 0.009026 123 101 41 1 7
0.242287 0.683844 0.432967 193 175 126 1 7
0.270369 0.682149 0.437558 172 140 76 1 7
0.258162 0.682175 0.418449 194 167 107 1 7
0.042064 0.691621 -0.001688 210 206 161 1 7
0.046271 0.685129 -0.036876 46 35 17 1 7
-0.228585 0.687875 0.428299 157 118 68 1 7
0.036813 0.689887 -0.011872 217 211 171 1 7
-0.029299 0.687008 0.554632 164 132 49 1 7
-0.321346 0.690553 0.291255 140 111 42 1 7
-0.324475 0.691815 0.304373 146 114 43 1 7
-0.280997 0.691263 0.304905 129 98 46 1 7
-0.306369 0.690630 0.316881 145 108 44 1 7
-0.317160 0.690598 0.324210 130 100 46 1 7
-0.122799 0.686372 0.576757 171 156 105 1 7
-0.132123 0.687304 0.585553 178 152 120 1 7
-0.123060 0.675392 0.600699 175 154 103 1 7
-0.139506 0.686713 0.587092 172 151 123 1 7
-0.175516 0.683691 0.334624 108 73 35 1 7
-0.166394 0.679383 0.345852 126 88 30 1 7
-0.161481 0.685584 0.330396 96 70 35 1 7
-0.180145 0.683713 0.351386 141 101 53 1 7
0.135375 0.682057 0.099361 85 63 22 1 7
0.149663 0.678574 0.127935 95 67 42 1 7
0.111152 0.680814 0.113739 102 81 36 1 7
0.205662 0.668959 -0.054758 95 51 26 1 7
0.200177 0.643363 -0.053452 102 60 28 5 5
0.204676 0.656668 -0.062892 104 57 19 5 5
0.150275 0.677597 0.381528 146 108 46 7 4
0.130713 0.672115 0.382701 163 121 51 7 4
0.138872 0.679881 0.387307 142 105 36 1 7
0.323694 0.681635 0.353429 171 120 66 1 7
-0.318784 0.680237 0.597956 173 153 122 1 7
-0.314559 0.690373 0.584508 174 155 115 1 7
-0.299831 0.682172 0.596914 177 155 126 1 7
0.119590 0.598289 -0.111934 52 31 16 5 5
0.123281 0.616211 -0.100856 50 29 11 5 5
0.115238 0.585396 -0.117841 56 29 14 5 5
0.124496 0.586987 -0.122218 50 26 11 5 5
0.122496 0.591671 -0.123003 57 30 10 5 5
-0.390750 0.680827 0.462302 150 130 102 1 7
-0.364452 0.678304 0.485779 245 240 212 1 7
-0.381853 0.681115 0.475274 222 207 148 1 7
-0.357592 0.687708 0.463626 232 217 171 1 7
-0.083948 0.681010 0.228575 76 57 12 1 7
-0.104902 0.681064 0.250080 76 51 32 1 7
-0.030584 0.685748 0.537996 175 132 60 1 7
0.555588 0.678222 0.327799 158 129 50 1 7
-0.191127 0.679351 -0.065895 60 32 21 1 7
0.024943 0.634011 -0.125709 49 30 6 1 7
0.502277 0.668949 0.305960 155 132 65 1 7
0.504283 0.671132 0.315023 165 128 61 1 7
0.550309 0.677782 0.311441 166 129 67 1 7
0.536147 0.676428 0.300595 163 127 72 1 7
0.148844 0.675454 0.144992 51 33 12 1 7
0.178309 0.659546 0.156603 66 38 27 0 0
0.180522 0.668169 0.147144 73 53 30 0 0
0.165515 0.660652 0.159514 76 46 37 0 0
0.017652 0.681165 0.162066 92 61 38 1 7
-0.016983 0.681779 0.178205 96 64 35 1 7
-0.342446 0.640235 -0.139104 109 78 24 1 7
-0.140596 0.689160 0.140741 67 41 12 1 7
-0.160173 0.688752 0.140741 101 70 32 1 7
-0.334426 0.689483 0.524568 169 128 64 1 7
-0.362160 0.687459 0.525575 191 150 77 1 7
-0.337671 0.687746 0.540775 166 134 50 1 7
-0.209020 0.683740 0.304480 120 90 37 1 7
-0.240466 0.686887 0.315818 125 97 41 1 7
-0.205143 0.686544 0.321636 134 103 48 1 7
-0.141584 0.686756 0.472127 163 127 70 1 7
-0.127389 0.644197 -0.164281 66 26 12 1 7
-0.145309 0.643274 -0.173258 67 33 9 1 7
-0.071494 0.654109 0.383298 123 90 48 7 4
-0.067816 0.608033 0.381805 95 63 46 7 4
-0.048358 0.628647 0.382287 95 65 30 7 4
0.085251 0.679145 0.135028 104 82 39 1 7
0.101270 0.677248 0.155533 101 78 31 1 7
-0.201150 0.685411 0.532175 159 122 62 1 7
-0.207465 0.686990 0.501705 168 134 61 1 7
-0.192152 0.684962 0.518215 160 128 70 1 7
-0.175761 0.685989 0.523220 169 132 55 1 7
-0.177931 0.684770 0.551207 147 115 67 1 7
0.152149 0.676678 -0.052729 38 22 14 1 7
0.160436 0.682034 -0.034069 46 34 17 1 7
0.131854 0.683453 0.553964 182 144 68 1 7
-0.233501 0.690538 -0.028175 138 134 106 1 7
-0.156255 0.687436 0.480741 180 137 64 1 7
0.324997 0.664597 0.084880 103 72 39 0 0
0.274374 0.674843 0.000317 93 71 35 1 7
0.302529 0.678720 -0.012519 110 84 43 1 7
0.281614 0.675922 -0.011082 99 73 35 1 7
0.302421 0.674015 -0.024740 106 78 39 1 7
0.230771 0.682727 -0.010787 191 179 127 1 7
0.242787 0.679292 0.007366 166 152 106 1 7
0.225412 0.684024 0.007695 167 146 92 1 7
0.233191 0.684153 0.023955 143 115 65 1 7
0.180871 0.678820 0.464166 163 130 65 1 7
0.188584 0.671216 0.464011 175 137 73 1 7
0.184008 0.682372 0.454720 177 142 74 1 7
0.210947 0.681631 0.455375 176 150 77 1 7
0.197633 0.678736 0.468751 171 129 65 1 7
0.056978 0.684761 0.427345 157 123 52 1 7
-0.209274 0.676854 0.590954 132 107 80 1 7
-0.230221 0.685805 0.585170 85 71 59 1 7
-0.212619 0.676730 0.606474 183 154 124 1 7
-0.222112 0.680082 0.594053 178 153 114 1 7
-0.027672 0.621462 -0.093206 47 22 15 1 7
0.017661 0.623447 -0.101498 45 22 16 1 7
-0.048826 0.665316 -0.066374 39 22 9 1 7
-0.054058 0.677604 -0.062806 41 25 9 1 7
0.110112 0.671748 0.616110 159 135 95 1 7
-0.057493 0.685302 0.588669 114 91 54 1 7
-0.055615 0.686823 0.580623 142 113 98 1 7
-0.056693 0.673673 0.602158 175 155 110 1 7
-0.041681 0.672576 0.602655 173 151 126 1 7
-0.077794 0.687531 0.586755 169 149 112 1 7
0.229693 0.680966 0.577171 182 140 76 1 7
0.200673 0.674427 0.610436 106 92 57 1 7
0.245770 0.684199 0.598882 143 117 83 1 7
0.212604 0.685964 0.592055 174 137 76 1 7
0.235418 0.683239 0.587192 182 142 71 1 7
0.230337 0.678003 0.603754 108 90 55 1 7
0.528474 0.629934 0.015083 164 151 97 1 7
0.528938 0.640605 0.030313 147 114 56 1 7
0.540593 0.639122 0.008286 185 163 122 1 7
0.534087 0.637828 0.015126 165 138 92 1 7
0.533261 0.630589 0.035460 147 114 56 1 7
0.138319 0.687734 -0.002470 187 175 131 1 7
0.142093 0.683670 -0.019347 56 40 22 1 7
0.128943 0.686236 -0.010601 197 193 146 1 7
0.189819 0.676112 0.125467 67 43 30 1 7
0.077662 0.621316 -0.087819 55 30 17 1 7
0.117621 0.628023 -0.069109 71 38 26 1 7
0.116888 0.616473 -0.079383 62 32 23 1 7
0.097168 0.621256 -0.078425 59 34 18 1 7
-0.036810 0.683357 -0.059339 44 29 18 1 7
-0.018157 0.684696 -0.055601 43 36 18 1 7
-0.344518 0.690236 0.398992 164 122 32 1 7
-0.362596 0.689496 0.408732 134 92 50 1 7
0.434050 0.679470 0.391162 168 124 51 1 7
0.262181 0.671862 0.582131 151 130 85 1 7
0.264944 0.674015 0.599816 88 70 47 1 7
0.254476 0.683816 0.603079 79 59 39 1 7
0.278871 0.672287 0.600750 121 97 65 1 7
0.213506 0.682396 0.473702 184 132 45 1 7
0.233623 0.680723 0.470509 178 134 38 1 7
0.221260 0.682777 0.456456 184 145 83 1 7
0.471736 0.678968 0.315911 147 111 75 1 7
0.489346 0.669468 0.297840 138 117 81 1 7
0.484615 0.669684 0.309164 146 115 91 1 7
0.482502 0.667394 0.287136 129 108 75 1 7
-0.156341 0.684355 0.227291 85 57 19 1 7
-0.163710 0.683642 0.244878 78 48 30 1 7
0.241863 0.676297 0.071473 134 104 36 1 7
0.262326 0.675791 0.065296 137 98 39 1 7
0.240361 0.675463 0.097241 126 91 42 1 7
0.270045 0.673548 0.094710 117 91 36 1 7
-0.305282 0.690108 0.160105 130 95 54 1 7
-0.282943 0.689795 0.183460 133 101 50 1 7
0.057021 0.683923 0.481433 162 118 58 1 7
-0.189378 0.675754 0.608923 176 154 114 1 7
-0.179912 0.672554 0.599026 171 150 117 1 7
-0.188655 0.676868 0.584063 161 138 102 1 7
-0.286078 0.686802 0.240712 132 107 52 1 7
-0.165075 0.674501 0.627359 172 154 121 1 7
-0.172316 0.674470 0.610334 174 156 127 1 7
-0.148107 0.674019 0.603658 177 150 119 1 7
-0.161358 0.675501 0.638189 178 153 118 1 7
-0.112127 0.641329 -0.139585 64 26 24 1 7
-0.140176 0.637573 -0.130135 67 26 22 1 7
-0.120949 0.632830 -0.121122 68 27 9 1 7
0.151574 0.684180 0.398946 158 107 46 1 7
0.159273 0.683571 0.387868 153 109 38 1 7
0.180591 0.680270 0.389316 162 121 61 1 7
0.216184 0.681622 0.491870 177 130 66 1 7
0.215769 0.682680 0.509042 174 134 62 1 7
0.233714 0.681041 0.504939 179 134 52 1 7
0.223734 0.681025 0.525758 174 134 62 1 7
-0.391100 0.681454 0.280288 149 131 68 1 7
-0.372500 0.691756 0.291385 156 120 60 1 7
-0.376805 0.690616 0.287242 171 153 92 1 7
-0.394310 0.679526 0.299375 123 109 64 1 7
-0.394401 0.678372 0.525292 166 154 113 1 7
-0.110411 0.623668 -0.098462 62 29 13 1 7
-0.124117 0.685396 0.379517 162 117 37 1 7
-0.123977 0.674891 0.376021 117 85 48 7 4
-0.127489 0.663384 0.378434 141 100 36 7 4
-0.122121 0.682270 0.376404 151 111 63 1 7
0.572788 0.678043 0.254427 147 116 61 1 7
-0.204396 0.643983 -0.152825 79 36 20 1 7
-0.235771 0.644017 -0.154903 85 47 22 1 7
-0.220552 0.643703 -0.197634 78 42 14 1 7
-0.093742 0.690200 0.054983 68 48 15 1 7
-0.088148 0.689135 0.082470 73 55 17 1 7
0.036532 0.684254 0.585551 114 93 60 1 7
-0.165365 0.691544 0.063991 111 82 36 1 7
-0.185310 0.691024 0.075965 101 83 35 1 7
-0.029547 0.685452 0.569331 165 135 60 1 7
-0.166073 0.690382 0.100742 86 62 28 1 7
0.126531 0.655587 0.176238 62 45 18 0 0
0.119012 0.658638 0.178603 74 57 19 1 7
0.152966 0.660980 0.163085 55 38 9 0 0
0.141014 0.654096 0.172064 44 36 12 0 0
0.012286 0.676092 -0.061302 32 23 15 1 7
-0.132846 0.675105 0.639726 181 170 147 1 7
-0.129089 0.680923 0.652239 176 167 128 1 7
-0.116017 0.677798 0.649712 189 180 146 1 7
-0.141075 0.677439 0.654697 139 132 96 1 7
-0.023337 0.676629 0.215684 97 73 25 1 7
-0.028617 0.676313 0.223801 85 57 23 1 7
0.012248 0.641011 -0.175575 61 29 12 1 7
-0.273176 0.688889 0.465807 165 128 74 1 7
-0.278073 0.687712 0.483362 171 137 68 1 7
-0.226927 0.642829 -0.142946 78 38 15 1 7
-0.376236 0.689120 0.422980 73 62 35 1 7
-0.395836 0.679577 0.436874 125 119 72 1 7
-0.376312 0.689231 0.457362 96 79 34 1 7
-0.369369 0.689124 0.441212 128 100 55 1 7
-0.379373 0.687536 0.436868 79 63 31 1 7
0.300236 0.667201 -0.037968 108 71 33 1 7
0.285007 0.669967 -0.035268 103 71 37 1 7
-0.285740 0.689791 0.162116 125 103 45 1 7
-0.303632 0.691916 0.131108 112 78 43 1 7
0.487540 0.668592 0.435165 148 127 83 1 7
0.488614 0.670582 0.420149 146 127 87 1 7
0.472022 0.677504 0.438628 156 121 69 1 7
0.474277 0.676691 0.465612 146 114 98 1 7
-0.314112 0.689936 0.421575 165 124 48 1 7
-0.366482 0.696800 0.041412 121 96 58 1 7
-0.388301 0.687113 0.021725 101 78 56 1 7
-0.400718 0.689328 0.023741 98 79 46 1 7
-0.374597 0.694710 0.048455 99 72 49 1 7
-0.371726 0.698274 0.009252 103 78 68 1 7
-0.393448 0.689260 0.005322 117 90 74 1 7
-0.265593 0.689989 0.127241 129 92 50 1 7
-0.289951 0.691113 0.125556 105 74 33 1 7
-0.274087 0.690817 0.103965 119 90 45 1 7
0.076590 0.685569 0.060392 96 69 27 1 7
0.063152 0.684755 0.056015 121 91 41 1 7
0.069230 0.688028 0.028924 119 86 32 1 7
-0.141092 0.624509 -0.079305 84 38 29 1 7
-0.107066 0.622797 -0.088355 64 32 16 1 7
-0.240790 0.689860 0.371491 153 114 46 1 7
-0.201227 0.689397 0.368241 152 120 52 1 7
0.233483 0.684733 0.387075 200 176 138 1 7
0.222708 0.674162 0.356847 192 164 121 1 7
0.222810 0.683004 0.364258 202 180 142 1 7
0.237425 0.678207 0.354480 191 165 117 1 7
0.215227 0.678772 0.366628 207 190 153 1 7
0.237112 0.684585 0.363224 206 179 129 1 7
-0.119188 0.677071 0.637677 180 166 137 1 7
-0.147085 0.675922 0.619639 178 153 118 1 7
-0.107441 0.675427 0.610081 173 150 134 1 7
-0.121158 0.674808 0.623535 175 152 128 1 7
-0.264847 0.626650 -0.076914 119 68 46 1 7
-0.248798 0.639207 -0.068498 137 83 64 1 7
-0.257779 0.624778 -0.082488 97 52 34 1 7
-0.269009 0.630181 -0.072787 154 95 62 1 7
-0.305255 0.633942 -0.072182 156 98 62 1 7
0.192144 0.627951 -0.057211 93 62 47 5 5
0.186969 0.634819 -0.055241 90 63 40 5 5
0.290111 0.679449 0.572488 97 57 28 1 7
0.289935 0.680471 0.564552 109 73 33 1 7
0.314451 0.682596 0.570203 128 92 48 1 7
0.289238 0.682041 0.578206 94 60 35 1 7
0.304098 0.681506 0.556349 174 135 76 1 7
0.304290 0.680835 0.536663 170 130 73 1 7
0.303911 0.684388 0.579783 93 61 33 1 7
0.153729 0.626128 -0.063843 102 56 22 5 5
0.098639 0.578942 -0.176751 69 40 8 0 0
0.096568 0.577142 -0.156251 62 33 7 0 0
-0.063837 0.685468 0.463929 168 124 73 1 7
-0.219259 0.688907 0.339276 135 102 54 1 7
-0.222768 0.689575 0.355491 152 113 48 1 7
-0.209780 0.685675 0.335476 139 107 46 1 7
-0.351285 0.693819 0.197742 127 103 50 1 7
-0.008001 0.684059 0.477048 147 109 41 1 7
0.498508 0.665734 0.279269 150 130 86 1 7
0.504958 0.668826 0.293562 136 114 79 1 7
-0.358887 0.692606 0.244241 138 102 51 1 7
-0.337227 0.692684 0.266057 131 101 45 1 7
0.390689 0.657416 0.073444 135 113 40 0 0
0.172647 0.602238 0.382969 94 74 24 7 4
0.134719 0.576120 0.387410 177 156 120 7 4
0.147198 0.589254 0.384690 140 115 82 7 4
0.157531 0.606028 0.386203 186 171 121 7 4
0.425803 0.653298 -0.051021 94 68 27 1 7
0.420847 0.649667 -0.052212 84 64 34 1 7
-0.093172 0.687361 -0.050888 40 29 34 1 7
-0.094947 0.688087 -0.036328 42 28 18 1 7
-0.081364 0.680901 -0.060678 42 21 19 1 7
-0.093091 0.685781 -0.056522 34 29 10 1 7
-0.290745 0.690671 0.622171 180 158 113 1 7
-0.302892 0.690480 0.619921 176 154 113 1 7
-0.270097 0.686982 0.639074 192 172 138 1 7
-0.297037 0.696906 0.644788 224 207 167 1 7
-0.286293 0.691152 0.640788 233 231 184 1 7
0.449639 0.678662 0.559967 153 117 69 1 7
0.448160 0.682308 0.582005 148 113 60 1 7
0.463655 0.679823 0.577143 141 121 76 1 7
-0.263446 0.683137 0.616944 173 156 115 1 7
-0.243243 0.681631 0.642680 230 219 186 1 7
-0.248999 0.681494 0.628370 180 162 119 1 7
-0.258599 0.685273 0.632009 181 151 118 1 7
-0.271340 0.684041 0.612809 179 158 118 1 7
-0.343459 0.689590 0.485692 189 154 93 1 7
-0.307768 0.688061 0.496465 175 141 71 1 7
-0.313702 0.688317 0.480534 178 144 77 1 7
0.282552 0.684208 0.390021 171 128 64 1 7
0.292989 0.683519 0.405094 169 124 64 1 7
0.274970 0.678619 0.040715 112 84 47 1 7
0.279376 0.675410 0.055910 134 102 51 1 7
0.292370 0.673303 0.062010 121 90 47 1 7
0.194887 0.670364 0.614104 120 104 75 1 7
-0.223508 0.685160 0.244959 101 78 31 1 7
0.255230 0.562507 0.379078 147 110 40 7 4
-0.177373 0.648173 -0.068219 91 47 27 1 7
-0.190029 0.666795 -0.068206 76 43 20 1 7
-0.190888 0.638870 -0.069512 102 62 35 1 7
-0.199953 0.659734 -0.068295 77 50 25 1 7
-0.370149 0.676793 0.607912 175 154 110 1 7
-0.402413 0.681264 0.601382 177 155 123 1 7
-0.379483 0.677967 0.598326 178 156 123 1 7
-0.394756 0.682443 -0.036422 99 89 34 1 7
-0.369054 0.693031 -0.026661 99 89 68 1 7
-0.381843 0.686372 -0.038947 106 84 79 1 7
-0.401875 0.688965 -0.032453 97 80 57 1 7
0.073866 0.680866 0.115066 116 92 47 1 7
0.120400 0.678503 0.125538 108 74 31 1 7
0.125116 0.682400 0.088349 93 64 40 1 7
0.065021 0.640654 -0.183259 61 38 15 1 7
0.079529 0.640244 -0.173759 71 36 15 1 7
0.039167 0.640067 -0.157759 63 38 21 1 7
0.062806 0.640551 -0.153850 65 37 21 1 7
0.100773 0.685136 0.474194 176 129 30 1 7
0.101717 0.684660 0.444771 171 117 67 1 7
0.165123 0.673062 0.615341 142 123 90 1 7
-0.100185 0.686473 0.499741 131 102 62 1 7
-0.089475 0.685514 0.497742 149 107 50 1 7
-0.074322 0.685939 0.508439 168 128 74 1 7
-0.078404 0.684904 0.481502 162 129 68 1 7
0.144653 0.671427 0.153289 85 56 36 0 0
0.127665 0.667864 0.166461 123 91 60 0 0
-0.151312 0.686538 0.518424 175 137 67 1 7
-0.161001 0.686748 0.497680 167 133 59 1 7
0.102748 0.588916 -0.072021 50 30 7 5 5
0.260248 0.680099 0.540742 179 133 78 1 7
0.251769 0.680167 0.524581 191 144 83 1 7
0.264534 0.680916 0.518974 187 143 77 1 7
0.146958 0.602782 -0.053980 117 59 47 5 5
-0.311498 0.625390 -0.100137 113 55 22 1 7
-0.276725 0.624758 -0.097174 116 54 29 1 7
-0.281948 0.630609 -0.116782 110 56 19 1 7
0.127579 0.626080 0.389028 125 88 57 7 4
0.143044 0.632546 0.390163 129 96 59 7 4
0.119561 0.616280 0.390112 100 79 46 7 4
-0.020956 0.651586 0.382513 130 88 43 7 4
0.014218 0.670657 0.382665 149 114 55 7 4
0.003667 0.682044 0.385542 153 114 48 1 7
-0.347995 0.640378 -0.150020 101 79 30 1 7
-0.267112 0.693356 0.035991 121 96 51 1 7
-0.302140 0.697034 0.008640 149 123 87 1 7
-0.295454 0.691312 0.337787 151 115 60 1 7
-0.324797 0.691264 0.336011 134 94 44 1 7
0.341079 0.674145 -0.021470 107 81 55 1 7
0.349926 0.675762 -0.014593 113 90 54 1 7
0.361910 0.672083 -0.026084 104 85 56 1 7
0.373512 0.676492 0.002159 192 183 143 1 7
0.368873 0.673531 -0.006782 139 119 83 1 7
-0.398164 0.677867 0.476952 163 153 124 1 7
-0.300183 0.690144 -0.055595 113 90 53 1 7
-0.339327 0.689103 -0.067306 115 78 60 1 7
-0.315524 0.688991 -0.066606 115 82 47 1 7
0.591220 0.678091 0.248336 154 119 53 1 7
0.022620 0.630481 0.381710 97 55 28 7 4
-0.380728 0.677714 0.498429 235 221 176 1 7
-0.377234 0.687933 0.519267 188 161 111 1 7
-0.389971 0.678431 0.505616 192 175 138 1 7
0.374909 0.669450 0.041394 152 118 70 1 7
0.358170 0.671866 0.036074 151 118 71 1 7
0.352955 0.671123 0.059000 149 118 52 0 0
-0.143129 0.643089 -0.149719 58 31 11 1 7
-0.209369 0.689943 0.657245 128 113 96 1 7
-0.194602 0.683044 0.655111 103 94 70 1 7
-0.181244 0.688336 0.656426 83 71 52 1 7
-0.171714 0.689170 0.658887 88 84 56 1 7
0.185861 0.685322 0.597320 108 91 56 1 7
0.230309 0.680675 0.601384 146 128 91 1 7
0.198458 0.684822 0.596091 137 116 90 1 7
0.140798 0.681519 0.421508 166 124 35 1 7
0.118962 0.680429 0.429692 162 120 49 1 7
0.135094 0.682256 0.515742 163 119 62 1 7
0.145309 0.682275 0.486378 161 123 47 1 7
0.138004 0.681298 -0.045803 38 22 21 1 7
0.127682 0.680751 -0.051160 40 22 16 1 7
0.383757 0.681285 0.372241 179 126 58 1 7
-0.105913 0.686400 0.535858 169 131 66 1 7
-0.102505 0.686843 0.581596 180 147 77 1 7
-0.064852 0.685904 0.567910 181 142 85 1 7
-0.085799 0.685971 0.574733 172 136 89 1 7
0.062399 0.674458 0.189792 68 46 10 1 7
0.084988 0.670408 0.177496 90 60 38 1 7
0.059436 0.675151 0.182783 89 68 34 1 7
0.076924 0.665403 0.190464 81 54 22 1 7
-0.006376 0.683749 0.588317 174 133 87 1 7
0.038246 0.681266 0.151832 98 72 26 1 7
-0.374676 0.688695 0.072677 100 85 57 1 7
-0.406337 0.687817 0.066741 102 92 72 1 7
-0.386355 0.686980 0.079554 108 97 55 1 7
-0.248285 0.685665 0.550708 168 130 75 1 7
0.282081 0.680580 0.480393 178 137 73 1 7
0.570252 0.677678 0.512786 145 108 48 1 7
-0.015271 0.686952 0.105045 75 56 19 1 7
-0.015997 0.686866 0.124838 85 61 22 1 7
0.107850 0.580769 -0.147920 52 29 10 0 0
-0.346815 0.648463 -0.071810 138 91 37 1 7
-0.347192 0.682899 -0.069076 124 114 35 1 7
-0.138456 0.687494 0.170241 73 51 11 1 7
-0.156651 0.686964 0.199628 75 53 13 1 7
0.486007 0.671882 0.404574 146 130 73 1 7
0.473769 0.679445 0.419395 153 126 87 1 7
0.472299 0.677439 0.377919 153 126 87 1 7
0.464217 0.679636 0.431681 157 120 87 1 7
0.102374 0.683689 0.556320 186 134 52 1 7
0.118269 0.683339 0.565522 187 134 66 1 7
0.018378 0.650986 -0.065068 55 22 14 1 7
0.409392 0.642615 0.090061 91 69 53 0 0
0.425098 0.644458 0.088884 68 53 39 0 0
0.399922 0.648329 0.082425 81 63 31 0 0
0.438512 0.644190 0.065913 68 52 33 1 7
0.033542 0.662761 0.211631 63 41 33 1 7
0.042760 0.673566 0.200036 80 59 20 1 7
0.023577 0.671704 0.205805 69 45 25 1 7
-0.062805 0.690703 0.038354 104 78 26 1 7
-0.054107 0.691063 0.013385 104 76 28 1 7
0.114239 0.604560 -0.086240 60 31 22 5 5
0.116094 0.614966 -0.089464 58 33 21 5 5
0.118804 0.606998 -0.071416 54 27 13 5 5
0.109485 0.591548 -0.056409 63 36 12 5 5
-0.212594 0.606687 0.384288 115 89 45 7 4
-0.272154 0.690222 0.313814 120 90 66 1 7
0.383641 0.670489 0.314795 141 105 44 1 7
-0.227842 0.678002 0.615565 180 156 124 1 7
-0.231781 0.680017 0.628238 171 155 121 1 7
0.056166 0.675282 -0.057607 35 19 12 1 7
0.298085 0.683629 0.433659 160 127 39 1 7
0.286067 0.682984 0.444848 169 126 57 1 7
0.324535 0.683163 0.593435 136 118 75 1 7
0.342462 0.679280 0.594706 141 117 77 1 7
0.110924 0.637488 -0.150573 67 38 18 1 7
0.138926 0.630656 -0.134552 73 41 21 1 7
0.117742 0.635826 -0.139980 61 36 12 1 7
0.130305 0.631133 -0.132447 61 38 9 1 7
-0.055925 0.686531 0.408596 159 120 55 1 7
-0.037867 0.685158 0.423724 159 123 52 1 7
-0.068148 0.685020 0.388099 165 128 47 1 7
0.261350 0.571658 0.374883 140 106 51 7 4
0.266727 0.573451 0.370223 95 72 29 7 4
0.246907 0.592062 0.373555 154 121 54 7 4
0.255836 0.588990 0.370017 134 98 48 7 4
0.384581 0.680474 0.579469 168 129 79 1 7
0.423531 0.684540 0.585810 144 113 56 1 7
0.393415 0.680366 0.586924 130 99 70 1 7
0.380268 0.681942 0.587210 145 118 66 1 7
0.195434 0.592547 0.382775 152 114 48 7 4
-0.400364 0.684572 0.184422 108 93 69 1 7
0.102530 0.606855 0.387281 74 58 35 7 4
0.180955 0.671021 0.378689 153 113 57 1 7
0.163779 0.668007 0.377973 162 126 64 7 4
0.152143 0.653562 0.380747 156 117 74 7 4
-0.313259 0.691273 0.198012 118 94 54 1 7
-0.299090 0.690199 0.197285 126 94 48 1 7
-0.328327 0.692408 0.226741 126 96 49 1 7
-0.310083 0.691674 0.234991 115 89 50 1 7
-0.298154 0.689671 0.240219 117 89 33 1 7
0.308285 0.654441 0.119853 99 70 28 0 0
0.331113 0.651371 0.110125 116 87 33 0 0
0.302613 0.658777 0.113779 115 84 41 0 0
0.330993 0.656622 0.098415 142 108 41 0 0
0.323796 0.651154 0.118765 78 52 31 0 0
0.350519 0.677219 0.010305 202 193 149 1 7
0.338443 0.675535 0.017408 186 161 119 1 7
0.370537 0.673067 0.020115 189 165 120 1 7
0.361932 0.671690 0.029208 153 123 62 1 7
0.023687 0.683896 0.530742 173 131 52 1 7
0.038990 0.684130 0.525742 171 131 39 1 7
0.090413 0.665335 0.188052 91 71 38 1 7
0.108825 0.668493 0.170681 92 67 27 1 7
0.099167 0.664539 0.178739 61 36 22 1 7
0.104791 0.664028 0.184353 92 75 23 1 7
0.464467 0.671737 0.502081 114 87 48 1 7
0.464056 0.670919 0.513357 135 103 67 1 7
0.449197 0.675398 0.484283 124 88 59 1 7
0.462110 0.675155 0.489976 112 78 58 1 7
0.436183 0.675666 0.484253 138 94 59 1 7
-0.174352 0.692603 0.037484 150 139 96 1 7
-0.175748 0.695216 -0.000740 140 131 92 1 7
-0.197143 0.686029 0.018752 135 124 92 1 7
-0.160533 0.687926 -0.055876 58 45 18 1 7
-0.139417 0.688583 -0.050290 56 43 25 1 7
-0.170806 0.688862 -0.027404 103 99 68 1 7
-0.138209 0.688688 -0.032997 78 68 44 1 7
0.358020 0.653821 0.094333 135 101 47 0 0
0.376581 0.651998 0.084727 132 98 46 0 0
0.076160 0.621616 -0.079485 56 28 16 1 7
0.063101 0.634529 -0.068310 73 38 21 1 7
0.055218 0.626139 -0.073065 73 46 20 1 7
0.321364 0.681594 0.385398 174 125 51 1 7
-0.155848 0.641968 -0.142269 71 36 13 1 7
-0.181715 0.641053 -0.139123 76 33 13 1 7
-0.123812 0.685500 0.182956 77 58 29 1 7
-0.121449 0.687470 0.153866 65 48 18 1 7
0.275295 0.640904 -0.037697 97 73 36 0 0
0.292870 0.656716 -0.040995 109 83 40 0 0
0.298252 0.645930 -0.040757 112 76 38 0 0
0.063020 0.584939 0.387780 130 105 73 7 4
-0.334946 0.675500 0.616559 168 148 105 1 7
-0.203347 0.624769 -0.079636 87 40 31 1 7
-0.190300 0.623060 -0.090106 89 44 23 1 7
-0.219562 0.630668 -0.072125 103 64 38 1 7
-0.400950 0.686013 0.148741 109 96 68 1 7
-0.301969 0.689389 0.459640 143 126 67 1 7
-0.310838 0.690730 0.444660 154 124 66 1 7
-0.300998 0.689932 0.475133 164 136 68 1 7
-0.316250 0.687499 0.464683 176 140 80 1 7
-0.049343 0.604975 0.383758 70 57 18 7 4
-0.029564 0.607130 0.385024 76 59 28 7 4
-0.024784 0.627537 0.381640 86 62 24 7 4
-0.356636 0.645267 -0.065426 139 106 48 1 7
-0.350364 0.633354 -0.072945 158 100 65 1 7
-0.360651 0.630222 -0.064802 132 116 56 1 7
-0.349910 0.626170 -0.079675 118 115 42 1 7
0.403120 0.659159 0.064089 110 75 43 0 0
0.417336 0.663625 0.049909 118 89 48 0 0
0.430958 0.653658 0.051063 104 81 49 0 0
0.394370 0.669775 0.043281 137 103 60 0 0
0.428623 0.662891 0.043990 101 82 39 0 0
-0.359898 0.616967 -0.073592 118 114 37 1 7
-0.286162 0.688884 0.200393 132 103 47 1 7
-0.270894 0.689259 0.191930 126 98 43 1 7
-0.293432 0.688167 0.215833 126 93 43 1 7
-0.276996 0.688172 0.233012 112 89 44 1 7
0.193439 0.682411 0.051250 122 93 39 1 7
0.210311 0.680278 0.058286 123 93 53 1 7
0.087346 0.637648 -0.141447 54 42 7 1 7
0.055143 0.634091 -0.124976 55 36 8 1 7
-0.176955 0.686197 0.206304 79 54 10 1 7
0.566431 0.633079 -0.047433 119 86 52 1 7
0.576117 0.634807 -0.027234 62 48 36 1 7
0.570750 0.638180 -0.054114 68 44 31 1 7
0.033542 0.682872 0.592287 147 125 93 1 7
0.027907 0.672584 0.605835 168 149 114 1 7
-0.347663 0.697867 0.006100 141 108 70 1 7
-0.370154 0.697275 0.020994 118 99 68 1 7
-0.333878 0.695438 0.024799 146 118 80 1 7
-0.357674 0.695699 0.028966 137 103 66 1 7
0.444821 0.678846 0.308206 141 111 67 1 7
0.471529 0.678431 0.301717 139 116 68 1 7
0.463912 0.679543 0.331238 147 115 66 1 7
0.440777 0.672199 0.299568 143 110 50 1 7
0.430006 0.659133 -0.039533 93 63 30 1 7
0.405582 0.656925 -0.042576 77 46 31 1 7
0.094377 0.672452 0.380768 157 117 57 7 4
0.112186 0.668901 0.382785 158 120 38 7 4
-0.145323 0.685443 0.569423 160 121 48 1 7
0.483957 0.668883 0.534854 153 130 91 1 7
0.486113 0.666964 0.522059 152 122 83 1 7
0.472945 0.676500 0.536130 156 126 80 1 7
0.464370 0.677042 0.537530 139 111 64 1 7
0.471570 0.671037 0.514126 154 126 82 1 7
0.164194 0.678382 0.381252 164 122 54 7 4
0.145921 0.591918 -0.134754 32 9 17 5 5
0.145715 0.583900 -0.143928 21 18 15 5 5
0.161922 0.594940 -0.153540 19 18 14 5 5
0.152282 0.596638 -0.142228 19 18 14 5 5
0.150404 0.600266 -0.164617 39 20 11 5 5
0.186104 0.615480 0.379250 196 172 142 7 4
0.194730 0.624067 0.375158 167 128 77 7 4
0.193102 0.629836 0.370881 193 167 133 7 4
0.202984 0.621692 0.370537 140 104 55 7 4
-0.297319 0.689069 0.543235 170 127 91 1 7
-0.310118 0.690158 0.562090 125 85 54 1 7
-0.330339 0.688693 0.561935 154 117 49 1 7
-0.324112 0.690186 0.549123 173 129 60 1 7
-0.299543 0.691714 0.584698 145 120 78 1 7
0.158594 0.678945 0.099200 91 67 37 1 7
0.185085 0.677468 0.104312 90 70 17 1 7
0.146159 0.679216 0.109815 85 65 29 1 7
-0.048109 0.622426 -0.092097 53 24 11 1 7
-0.047688 0.623973 -0.077522 60 25 13 1 7
-0.064368 0.622235 -0.084926 55 25 10 1 7
-0.320222 0.693637 0.142742 121 92 42 1 7
0.129913 0.606544 -0.187914 71 39 20 0 0
0.400012 0.672395 0.021601 186 175 130 1 7
-0.158422 0.646505 0.378748 125 87 48 7 4
-0.159568 0.659565 0.370403 134 104 47 7 4
-0.172673 0.630354 0.382997 91 77 30 7 4
-0.187628 0.641809 0.370889 143 106 41 7 4
-0.178269 0.641770 0.376370 119 85 32 7 4
-0.147761 0.658983 0.374832 117 82 40 7 4
-0.163918 0.686781 0.535158 155 124 65 1 7
0.327394 0.681017 0.534084 167 126 58 1 7
0.057389 0.683883 0.385922 162 124 43 1 7
0.080858 0.683622 0.386211 155 105 54 1 7
-0.143798 0.693548 0.034742 84 54 16 1 7
0.257906 0.672844 0.102359 130 97 51 0 0
-0.121682 0.662596 -0.067244 51 25 10 1 7
-0.135052 0.630155 -0.072127 79 48 21 1 7
-0.133714 0.638793 -0.068929 70 42 10 1 7
0.524109 0.672895 0.389379 167 120 83 1 7
0.513863 0.670624 0.406838 162 130 78 1 7
-0.182854 0.676120 0.627083 173 153 118 1 7
-0.181802 0.675959 0.640385 176 152 121 1 7
-0.206150 0.677794 0.627235 177 158 108 1 7
-0.198870 0.677111 0.645287 176 158 112 1 7
-0.191848 0.674845 0.636558 172 155 117 1 7
0.018319 0.689567 0.053742 107 80 31 1 7
-0.224436 0.687215 0.190741 90 64 21 1 7
-0.209870 0.686775 0.186961 94 68 28 1 7
-0.233633 0.688301 0.166492 77 55 23 1 7
0.078905 0.689267 0.007672 130 104 73 1 7
0.534345 0.630569 -0.032631 117 85 61 1 7
0.519856 0.629754 -0.044149 116 87 48 1 7
0.498940 0.631245 -0.045566 124 95 52 1 7
0.511925 0.633731 -0.035519 136 105 53 1 7
0.047689 0.663835 0.205656 79 62 25 1 7
0.062486 0.663865 0.198174 87 64 31 1 7
0.461066 0.678883 0.374767 148 122 45 1 7
0.446016 0.679433 0.384419 166 124 41 1 7
-0.328433 0.690896 0.395241 148 108 49 1 7
-0.353024 0.690878 0.371638 157 119 58 1 7
-0.034278 0.636429 -0.069085 71 40 9 1 7
-0.075528 0.653752 -0.067263 57 41 12 1 7
-0.065312 0.627800 -0.073430 73 37 20 1 7
-0.073887 0.635041 -0.070032 75 36 25 1 7
0.174335 0.632559 -0.062688 115 62 22 5 5
0.173166 0.624633 -0.059346 119 64 26 5 5
0.164141 0.612855 -0.057316 105 60 40 5 5
0.344597 0.680603 0.590496 176 134 84 1 7
-0.075928 0.684188 0.170838 91 62 24 1 7
-0.050900 0.678816 0.218548 91 66 20 1 7
-0.063458 0.671208 0.259245 60 40 14 1 7
-0.058221 0.670062 0.247878 63 47 18 1 7
-0.052435 0.676246 0.235056 65 43 28 1 7
-0.080392 0.679053 0.248775 68 48 22 1 7
-0.338877 0.644660 -0.187693 94 71 23 1 7
-0.156849 0.622885 -0.092875 85 42 18 1 7
-0.188620 0.630098 -0.072262 90 52 26 1 7
-0.163942 0.625842 -0.078474 87 49 29 1 7
-0.201205 0.625543 -0.102341 89 45 23 1 7
0.178744 0.678034 0.606569 149 131 86 1 7
0.166139 0.680768 0.600197 155 131 97 1 7
0.179247 0.683922 0.588033 172 137 69 1 7
0.153182 0.683439 0.600700 74 56 43 1 7
0.165284 0.685700 0.590586 121 98 64 1 7
-0.036514 0.662898 0.382726 119 87 37 7 4
-0.018162 0.674873 0.383769 152 108 58 7 4
-0.012969 0.681611 0.386460 150 119 41 1 7
-0.159622 0.687925 0.441464 134 97 50 1 7
-0.172570 0.686621 0.452759 149 116 65 1 7
-0.105696 0.686155 0.444526 172 128 55 1 7
-0.094242 0.685460 0.468741 169 122 51 1 7
-0.104186 0.686602 0.484742 167 125 47 1 7
0.249314 0.670516 0.349482 146 115 63 1 7
0.356443 0.681269 0.367313 165 128 46 1 7
0.018839 0.682806 0.142274 90 62 29 1 7
0.057721 0.680842 0.155415 100 73 42 1 7
0.554385 0.678017 0.410837 160 124 70 1 7
0.074715 0.686096 0.427991 170 124 50 1 7
0.106665 0.684762 0.425098 162 127 47 1 7
0.428225 0.650305 0.061743 94 71 39 0 0
0.017785 0.687785 0.071545 92 69 26 1 7
0.040140 0.686081 0.065844 96 72 32 1 7
0.047776 0.685169 0.085172 95 70 28 1 7
0.507531 0.667359 0.441050 161 131 89 1 7
0.517719 0.667617 0.475252 162 134 86 1 7
0.494874 0.667403 0.475216 156 129 100 1 7
0.535863 0.675706 0.333116 162 129 67 1 7
0.550763 0.677296 0.340298 171 125 80 1 7
-0.253919 0.685876 0.301683 134 101 56 1 7
-0.250104 0.685999 0.294842 125 99 37 1 7
-0.262390 0.689247 0.305656 132 103 44 1 7
-0.296109 0.694390 0.074991 117 96 50 1 7
-0.303229 0.694198 0.101376 120 99 50 1 7
-0.282685 0.693099 0.082251 125 96 44 1 7
-0.109726 0.588040 0.382734 88 62 33 7 4
0.117699 0.635424 -0.066894 78 37 23 1 7
0.145953 0.631836 -0.063762 79 46 19 1 7
0.123282 0.619072 -0.070863 61 35 11 5 5
0.108630 0.623242 -0.072600 66 34 24 1 7
0.135253 0.618502 -0.064353 73 41 25 5 5
-0.389673 0.680488 0.538303 163 143 103 1 7
-0.359589 0.687499 0.548811 175 141 90 1 7
-0.375357 0.688653 0.571044 138 129 85 1 7
-0.192264 0.688562 0.130741 92 68 35 1 7
-0.190599 0.689230 0.107264 93 72 26 1 7
0.045942 0.679330 0.176560 89 70 39 1 7
0.022402 0.680592 0.180345 84 58 28 1 7
0.002370 0.609227 0.383395 85 70 35 7 4
