ply
format ascii 1.0
element vertex 1122
property float x
property float y
property float z
property uchar red
property uchar green
property uchar blue
property uchar semantic_label
property uchar instance_label
end_header
-0.491234 0.251385 0.745927 195 180 155 1 1
-0.485248 0.552663 0.630212 191 177 160 1 1
-0.484721 0.559484 0.655185 194 176 157 1 1
-0.484533 0.536488 0.640282 191 177 159 1 1
-0.488308 0.347043 0.760296 195 178 163 1 1
-0.489916 0.331132 0.780237 198 179 148 1 1
-0.489464 0.324963 0.756836 193 183 156 1 1
-0.342173 0.598472 0.671283 197 182 160 1 12
-0.487084 0.453891 0.725811 196 175 158 1 1
-0.487600 0.422849 0.729400 191 178 147 1 1
-0.488280 0.436145 0.708564 194 177 154 1 1
-0.488947 0.418575 0.687095 192 175 158 1 1
-0.400119 0.594332 0.695470 199 179 168 1 12
-0.383334 0.594200 0.696493 200 180 160 1 12
-0.363103 0.596577 0.682806 196 180 148 1 12
-0.055642 0.600025 0.711527 198 183 161 1 12
-0.088584 0.603125 0.728324 195 185 147 1 12
-0.492274 0.254209 0.730072 196 181 151 1 1
-0.491633 0.230720 0.738578 197 182 156 1 1
-0.204736 0.605252 0.695567 202 183 162 1 12
-0.224819 0.602939 0.677869 198 182 162 1 12
-0.211242 0.605068 0.663279 198 182 151 1 12
-0.486403 0.512606 0.703522 198 177 156 1 1
-0.484088 0.527178 0.689074 192 177 160 1 1
-0.484719 0.486704 0.719701 193 176 159 1 1
-0.485022 0.458176 0.685933 193 176 163 1 1
-0.486090 0.457733 0.707141 192 178 157 1 1
-0.485645 0.485642 0.707289 195 177 151 1 1
-0.251929 0.604599 0.635327 196 182 157 1 12
-0.269394 0.604230 0.617741 199 179 160 1 12
-0.487379 0.478644 0.632609 191 175 158 1 1
-0.487094 0.464074 0.647000 190 176 157 1 1
-0.486941 0.499462 0.632959 193 174 155 1 1
-0.486213 0.501891 0.648895 193 175 157 1 1
-0.487179 0.435039 0.778035 195 178 157 1 1
-0.484582 0.456453 0.776533 191 180 158 1 1
-0.490501 0.365830 0.695291 192 176 156 1 1
-0.489669 0.366163 0.716287 195 178 156 1 1
-0.083536 0.602364 0.667635 234 223 203 1 12
-0.053310 0.599551 0.681898 243 231 217 1 12
-0.065208 0.600615 0.664214 244 232 212 1 12
-0.492413 0.324478 0.664155 191 177 155 1 1
-0.490583 0.327917 0.681277 193 177 163 1 1
-0.489039 0.319952 0.706973 194 175 158 1 1
-0.494402 0.198076 0.631767 196 179 150 1 1
-0.492906 0.211566 0.644992 195 181 150 1 1
-0.493915 0.241849 0.684215 197 181 153 1 1
-0.494401 0.191719 0.731881 199 182 159 1 1
-0.491816 0.272870 0.758561 195 180 158 1 1
-0.492546 0.261631 0.771380 193 183 152 1 1
-0.492148 0.248472 0.773399 200 181 155 1 1
-0.112042 0.607004 0.719808 199 182 161 1 12
-0.125863 0.605031 0.733282 200 184 162 1 12
-0.154780 0.605864 0.733742 203 184 161 1 12
-0.431503 0.591348 0.676302 196 179 168 1 12
-0.394831 0.595846 0.676790 197 181 156 1 12
-0.387911 0.594314 0.736922 196 177 159 1 12
-0.334446 0.597380 0.693264 201 181 162 1 12
-0.312265 0.598643 0.671012 199 181 158 1 12
-0.318916 0.599093 0.646713 196 183 156 1 12
-0.490305 0.362484 0.773534 196 179 152 1 1
-0.488367 0.345569 0.788593 194 179 162 1 1
-0.132986 0.610251 0.641816 198 178 167 1 12
-0.133569 0.611228 0.629936 199 181 151 1 12
-0.119672 0.610237 0.669691 198 179 167 1 12
-0.120022 0.609485 0.633183 197 179 155 1 12
-0.426475 0.594658 0.660259 198 178 165 1 12
-0.424346 0.594881 0.644515 194 180 156 1 12
-0.405572 0.596131 0.639546 201 180 165 1 12
-0.372675 0.593814 0.726291 200 180 165 1 12
-0.387217 0.595012 0.710339 197 180 164 1 12
-0.245133 0.602563 0.682809 199 182 163 1 12
-0.488745 0.368755 0.788700 194 179 154 1 1
-0.145775 0.606645 0.661119 197 182 149 1 12
-0.116659 0.608808 0.679368 198 180 159 1 12
-0.136273 0.605841 0.677181 198 182 156 1 12
-0.484541 0.552062 0.716292 191 179 156 1 1
-0.483211 0.550395 0.734582 193 177 160 1 1
-0.480383 0.534524 0.747158 193 175 164 1 1
-0.408184 0.594515 0.660812 199 178 164 1 12
-0.390909 0.596803 0.640493 200 178 157 1 12
-0.378563 0.596453 0.658781 197 181 152 1 12
-0.375451 0.599195 0.624122 196 178 163 1 12
-0.490272 0.298771 0.798799 199 182 155 1 1
-0.491275 0.285117 0.801979 193 179 159 1 1
-0.211545 0.602511 0.750349 201 184 160 1 12
-0.164995 0.605716 0.692994 199 182 171 1 12
-0.456454 0.587151 0.696204 198 181 159 1 12
-0.441202 0.588940 0.703277 198 178 163 1 12
-0.436637 0.588137 0.721963 198 180 159 1 12
-0.489051 0.273890 0.689979 193 178 164 1 1
-0.491452 0.308453 0.686432 194 179 152 1 1
-0.490807 0.289607 0.691626 191 181 145 1 1
-0.492060 0.300865 0.670874 191 179 157 1 1
-0.431045 0.592763 0.706152 193 184 156 1 12
-0.416405 0.592219 0.684987 193 182 161 1 12
-0.421933 0.592897 0.723538 196 179 159 1 12
-0.411518 0.594607 0.724442 197 182 156 1 12
-0.492767 0.174145 0.756995 198 180 162 1 1
-0.295510 0.601225 0.679283 200 181 164 1 12
-0.493529 0.249896 0.694393 196 180 158 1 1
-0.490586 0.226022 0.720806 194 179 154 1 1
-0.491668 0.224314 0.708511 196 180 156 1 1
-0.495066 0.189213 0.662965 198 178 161 1 1
-0.492984 0.202565 0.691319 199 177 167 1 1
-0.490400 0.215324 0.683608 196 179 158 1 1
-0.226608 0.602165 0.750606 203 183 165 1 12
-0.217745 0.603718 0.732882 197 187 162 1 12
-0.489914 0.383251 0.775311 194 177 166 1 1
-0.486321 0.398706 0.760602 194 177 158 1 1
-0.486461 0.407312 0.771351 195 181 153 1 1
-0.488269 0.239220 0.790119 196 181 158 1 1
-0.494746 0.186950 0.641707 195 182 158 1 1
-0.495256 0.292690 0.631936 194 177 150 1 1
-0.493504 0.308747 0.656964 192 178 149 1 1
-0.495485 0.308733 0.624869 194 177 153 1 1
-0.492878 0.288961 0.653759 194 174 160 1 1
-0.482987 0.570046 0.661324 194 178 152 1 1
-0.475784 0.581956 0.687288 195 180 160 1 1
-0.479502 0.578923 0.661607 198 179 162 1 1
-0.342737 0.596842 0.726236 198 183 159 1 12
-0.355328 0.596256 0.732052 201 180 166 1 12
-0.335866 0.596729 0.745088 200 182 163 1 12
-0.373290 0.594672 0.745592 197 182 165 1 12
-0.338772 0.597222 0.712154 198 181 161 1 12
-0.325677 0.597450 0.684471 200 180 160 1 12
-0.309051 0.597192 0.685649 201 183 156 1 12
-0.491890 0.402925 0.628033 191 174 160 1 1
-0.489582 0.384777 0.655060 189 178 161 1 1
-0.490876 0.386389 0.633618 193 176 157 1 1
-0.289509 0.603141 0.639564 198 181 155 1 12
-0.270989 0.605153 0.637492 200 179 163 1 12
-0.480055 0.573319 0.679186 191 180 160 1 1
-0.483979 0.553089 0.669982 192 177 158 1 1
-0.170482 0.603790 0.746300 202 182 165 1 12
-0.173124 0.605604 0.728288 200 183 163 1 12
-0.483754 0.527043 0.667682 191 177 158 1 1
-0.486178 0.510159 0.667372 195 176 149 1 1
-0.494199 0.341194 0.614815 189 179 149 1 1
-0.492693 0.330546 0.636949 189 180 148 1 1
-0.492484 0.317663 0.634304 193 178 147 1 1
-0.491681 0.349197 0.655769 192 175 169 1 1
-0.324938 0.599989 0.634644 198 180 155 1 12
-0.490446 0.392746 0.709589 192 177 155 1 1
-0.488247 0.411349 0.711709 191 177 152 1 1
-0.491216 0.190658 0.810841 197 183 161 1 1
-0.494147 0.172858 0.792708 197 182 163 1 1
-0.493573 0.170604 0.811029 198 183 158 1 1
-0.102717 0.603708 0.677308 196 181 157 1 12
-0.080365 0.601952 0.677142 177 160 145 1 12
-0.263086 0.601898 0.668737 197 182 165 1 12
-0.257401 0.601231 0.695627 199 184 152 1 12
-0.482753 0.515880 0.749372 194 178 158 1 1
-0.491494 0.346790 0.689466 193 176 162 1 1
-0.488126 0.336585 0.716238 189 179 156 1 1
-0.252714 0.600370 0.721015 202 184 162 1 12
-0.437993 0.593365 0.636727 197 179 156 1 12
-0.453450 0.587794 0.661914 198 180 157 1 12
-0.453535 0.587414 0.647856 196 184 143 1 12
-0.129334 0.606975 0.707633 202 182 158 1 12
-0.115004 0.609174 0.703230 199 182 158 1 12
-0.137255 0.606641 0.701646 199 182 159 1 12
-0.129205 0.605225 0.724032 200 182 162 1 12
-0.276877 0.602451 0.682037 202 181 164 1 12
-0.488800 0.320034 0.802591 198 180 154 1 1
-0.497716 0.156789 0.679998 193 184 159 1 1
-0.198044 0.604475 0.683694 196 183 157 1 12
-0.198669 0.606276 0.668035 198 182 157 1 12
-0.159993 0.608168 0.677285 200 183 162 1 12
-0.483543 0.531031 0.717745 196 176 165 1 1
-0.484798 0.517474 0.719596 194 176 163 1 1
-0.185612 0.602304 0.747674 203 184 161 1 12
-0.484942 0.525104 0.626609 192 178 152 1 1
-0.485485 0.523760 0.650105 189 176 154 1 1
-0.487709 0.445171 0.673946 192 178 164 1 1
-0.486823 0.470394 0.666398 192 177 158 1 1
-0.486525 0.404490 0.742806 194 174 163 1 1
-0.487001 0.421825 0.751784 194 174 163 1 1
-0.304638 0.599414 0.710800 200 184 150 1 12
-0.285934 0.599916 0.699770 201 183 155 1 12
-0.291864 0.600552 0.722640 197 184 161 1 12
-0.492397 0.273801 0.789924 194 180 151 1 1
-0.489572 0.262911 0.803890 200 180 160 1 1
-0.490618 0.245339 0.811505 201 178 157 1 1
-0.160803 0.605406 0.710448 200 184 158 1 12
-0.494980 0.232455 0.626256 194 176 170 1 1
-0.494792 0.237069 0.640045 193 176 153 1 1
-0.494129 0.232911 0.647625 193 179 152 1 1
-0.493140 0.253714 0.650042 194 178 158 1 1
-0.494515 0.233143 0.666327 195 178 155 1 1
-0.494100 0.207248 0.660130 193 179 157 1 1
-0.067277 0.601094 0.648398 196 179 171 1 12
-0.239918 0.604000 0.663813 199 179 169 1 12
-0.280585 0.602930 0.657324 202 178 162 1 12
-0.261743 0.603149 0.653355 202 179 165 1 12
-0.492729 0.249488 0.709994 195 180 153 1 1
-0.490447 0.277911 0.708577 197 181 157 1 1
-0.327753 0.596470 0.726400 197 183 159 1 12
-0.305082 0.598188 0.739360 199 183 155 1 12
-0.312517 0.598801 0.751550 199 184 158 1 12
-0.221315 0.603221 0.718831 197 184 166 1 12
0.327708 0.405175 -0.634826 41 15 18 40 4
0.325831 0.408672 -0.621396 42 15 17 40 4
0.317809 0.399163 -0.621068 43 20 10 40 4
0.308370 0.391080 -0.650210 39 17 10 40 4
0.303065 0.390119 -0.635387 39 15 15 40 4
0.113971 0.200375 -0.799703 146 116 93 2 6
0.215432 0.376026 -0.554055 53 42 39 40 4
0.202330 0.400488 -0.753269 78 55 46 40 4
0.179852 0.394012 -0.769735 104 80 50 40 4
0.186261 0.395023 -0.753462 70 57 43 40 4
0.189474 0.389219 -0.756448 123 103 84 40 4
0.183874 0.407319 -0.752998 64 51 44 40 4
0.191445 0.384904 -0.743979 66 53 41 40 4
0.275532 0.440683 -0.620156 38 17 16 40 4
0.300610 0.437293 -0.620206 36 12 12 40 4
0.087079 0.227762 -0.732407 68 59 37 0 0
0.086380 0.231095 -0.746126 75 57 46 40 7
0.095919 0.228644 -0.715040 71 62 32 40 7
0.091565 0.230375 -0.735021 71 58 33 40 7
0.097915 0.225213 -0.735443 79 56 37 40 7
0.312555 0.499584 -0.573612 57 48 31 16 3
0.306415 0.494301 -0.542051 61 60 24 16 3
0.267680 0.385820 -0.499407 38 28 20 40 4
0.259517 0.401936 -0.521256 29 30 16 40 4
0.259310 0.399106 -0.500284 43 35 12 40 4
0.247166 0.401090 -0.501483 45 17 22 40 4
0.247068 0.403485 -0.515280 34 30 20 40 4
0.268272 0.391691 -0.531083 38 28 20 40 4
0.231416 0.485375 -0.419176 41 32 20 16 3
0.240436 0.496257 -0.413176 21 20 14 16 3
-0.013384 0.484993 -0.788843 116 100 75 2 6
-0.058875 0.504504 -0.786191 107 90 75 2 6
0.056578 0.435116 -0.791253 112 92 58 2 6
-0.006899 0.556931 -0.551505 85 70 57 40 13
-0.010432 0.555160 -0.520788 77 67 51 40 13
-0.002901 0.568046 -0.526676 95 84 87 40 13
0.425618 0.514855 -0.385551 33 30 20 16 3
0.415573 0.530046 -0.414676 35 27 27 16 3
0.238034 0.450701 -0.470563 77 52 43 16 3
0.234753 0.460125 -0.475145 75 47 45 16 3
0.231109 0.473568 -0.484176 65 51 23 16 3
0.103173 0.209009 -0.789100 92 78 53 40 7
0.069058 0.623420 -0.517148 92 78 57 1 12
0.073605 0.619981 -0.493924 83 73 61 1 12
0.257531 0.507050 -0.386301 20 8 5 16 3
0.087777 0.228967 -0.708774 65 54 36 0 0
0.091244 0.235445 -0.699574 64 52 30 40 7
0.097268 0.229871 -0.689879 68 56 37 40 7
0.103772 0.215752 -0.709810 70 55 39 40 7
0.114434 0.470123 -0.772672 96 83 50 2 6
0.124812 0.471463 -0.751670 56 38 31 2 6
0.113069 0.465230 -0.754785 69 53 31 2 6
0.114235 0.452213 -0.747059 74 56 29 2 6
0.103213 0.187546 -0.547676 62 46 42 40 7
0.103423 0.178083 -0.550676 58 49 29 40 7
0.081936 0.222334 -0.474028 42 31 20 0 0
0.079228 0.220207 -0.484910 39 29 13 0 0
0.074525 0.223670 -0.466050 31 22 23 0 0
0.071653 0.212200 -0.672937 49 38 21 40 7
0.073923 0.211482 -0.651484 58 45 26 40 7
0.231013 0.353353 -0.517428 47 39 30 40 4
0.220945 0.367084 -0.534941 42 34 23 40 4
0.229160 0.361982 -0.544350 42 28 28 40 4
-0.039584 0.553834 -0.513676 75 59 42 40 13
-0.049210 0.551573 -0.488176 57 50 50 40 13
-0.009826 0.602497 -0.423025 73 63 66 40 13
-0.004861 0.578318 -0.409620 103 101 106 40 13
-0.002995 0.567811 -0.428125 104 105 100 40 13
0.001462 0.603928 -0.376173 76 66 65 1 12
0.015055 0.611679 -0.381106 35 28 38 1 12
-0.015585 0.463046 -0.789688 118 95 73 2 6
0.003402 0.479342 -0.788727 111 97 65 2 6
0.243163 0.413178 -0.506853 36 23 19 16 3
0.240071 0.441994 -0.508098 44 35 29 16 3
0.243047 0.427499 -0.497014 33 22 14 16 3
0.090333 0.626997 -0.579719 80 72 56 1 12
0.106984 0.624346 -0.607833 74 65 61 1 12
0.097158 0.627011 -0.609779 83 70 59 1 12
0.075200 0.628291 -0.594586 80 72 51 1 12
0.315977 0.504698 -0.442978 57 37 31 16 3
0.325862 0.515457 -0.467551 47 42 23 16 3
0.330009 0.521814 -0.445801 34 33 27 16 3
0.322281 0.511296 -0.419473 52 33 33 16 3
0.104187 0.181915 -0.788038 104 77 66 40 7
0.108200 0.188398 -0.797235 125 103 70 40 7
0.104652 0.154213 -0.800435 127 107 87 2 6
0.097386 0.163827 -0.795431 101 85 60 2 6
0.106283 0.174542 -0.797922 94 78 56 40 7
0.408096 0.539492 -0.444801 40 28 22 16 3
0.102389 0.194046 -0.426676 42 30 27 40 7
0.099109 0.219825 -0.462141 39 29 19 40 7
0.100017 0.213105 -0.413801 39 25 27 40 7
0.070767 0.212628 -0.623322 30 26 21 40 7
0.233940 0.391594 -0.724411 63 51 34 40 4
0.238042 0.395357 -0.728609 44 22 18 40 4
0.237778 0.389620 -0.727831 59 40 33 40 4
0.216020 0.367942 -0.728385 71 54 34 40 4
0.220962 0.399323 -0.738767 76 53 50 40 4
0.222023 0.386594 -0.730714 75 53 47 40 4
0.002769 0.541368 -0.781209 28 21 16 2 6
-0.003228 0.521812 -0.781823 28 16 23 2 6
0.011104 0.504792 -0.775290 56 40 28 2 6
-0.004441 0.504532 -0.783953 91 74 52 2 6
-0.051060 0.407172 -0.767900 57 47 23 2 6
0.207900 0.343416 -0.721897 60 51 36 40 4
0.201562 0.376409 -0.739823 65 51 39 40 4
0.195673 0.371817 -0.739147 98 82 59 40 4
0.199124 0.364986 -0.733402 67 50 49 40 4
0.202282 0.356501 -0.728740 64 52 34 40 4
0.097184 0.234375 -0.789363 95 79 61 40 7
0.094931 0.248519 -0.795280 133 112 93 40 7
0.105125 0.221123 -0.795108 112 95 66 40 7
0.103840 0.252473 -0.798780 136 116 73 2 6
0.051335 0.526358 -0.777832 38 26 25 2 6
-0.012030 0.604546 -0.631176 77 69 64 40 13
0.349415 0.557517 -0.503801 45 38 22 16 3
0.355415 0.564102 -0.503676 50 46 26 16 3
0.359444 0.566002 -0.497926 61 52 37 16 3
0.336852 0.533248 -0.485176 43 28 28 16 3
0.343327 0.547399 -0.499676 38 28 23 16 3
0.110658 0.473946 -0.767796 89 73 40 2 6
0.106380 0.464761 -0.770711 104 81 62 2 6
0.087865 0.464391 -0.772967 111 88 69 2 6
0.110473 0.461522 -0.759881 82 65 31 2 6
0.096362 0.459746 -0.761300 95 74 48 2 6
0.077776 0.460620 -0.749360 84 65 52 2 6
0.102775 0.208225 -0.455830 44 29 28 40 7
0.101869 0.208442 -0.480485 43 34 24 40 7
0.099486 0.216633 -0.482630 45 29 32 40 7
0.102389 0.199546 -0.468676 43 33 24 40 7
0.123675 0.334429 -0.795558 84 60 51 2 6
0.117036 0.312141 -0.796862 96 76 49 2 6
0.455416 0.501491 -0.436676 53 47 30 16 3
0.439416 0.498606 -0.429676 84 78 45 16 3
0.259710 0.263580 -0.671191 56 32 21 40 4
0.255130 0.261605 -0.662143 56 22 25 40 4
0.242328 0.259698 -0.661589 71 37 44 40 4
0.247824 0.263786 -0.652339 59 33 23 40 4
-0.017588 0.401645 -0.789226 86 80 47 2 6
-0.001621 0.371496 -0.785503 58 48 43 2 6
-0.004153 0.382705 -0.789896 58 48 43 2 6
0.000739 0.410906 -0.791462 99 93 57 2 6
0.078295 0.214432 -0.598812 56 43 23 40 7
0.079214 0.214606 -0.612646 44 35 25 40 7
0.070742 0.215554 -0.580772 39 38 22 40 7
0.102129 0.172046 -0.554676 59 48 40 40 7
0.102256 0.176046 -0.516176 60 47 38 40 7
0.100555 0.168046 -0.507426 58 49 28 40 7
0.275415 0.492250 -0.476676 60 43 32 16 3
0.281336 0.489150 -0.501676 55 46 37 16 3
0.293415 0.488320 -0.460801 75 66 40 16 3
0.303415 0.492227 -0.456676 65 54 27 16 3
0.287416 0.487568 -0.477176 70 58 45 16 3
0.281296 0.489370 -0.465676 53 49 34 16 3
0.084785 0.233173 -0.528961 50 38 23 0 0
0.093967 0.231024 -0.554022 51 37 28 40 7
0.099549 0.217941 -0.503676 57 47 23 40 7
0.087268 0.236139 -0.537842 53 43 16 40 7
0.083115 0.226928 -0.562574 58 41 33 0 0
0.081253 0.224761 -0.542126 51 46 31 0 0
0.086829 0.237750 -0.553105 52 39 31 0 0
0.233929 0.289584 -0.636251 57 29 15 40 4
0.239136 0.296238 -0.614895 50 30 25 40 4
0.227879 0.309302 -0.630148 55 34 25 40 4
0.106376 0.172046 -0.699676 66 56 36 40 7
0.101896 0.158046 -0.714676 59 49 38 40 7
0.102349 0.162046 -0.680676 66 52 42 40 7
0.124982 0.452471 -0.690871 39 25 19 40 4
0.109082 0.462263 -0.709052 42 31 24 40 4
0.124667 0.462122 -0.702820 34 25 20 40 4
0.112610 0.451162 -0.700143 38 25 18 40 4
0.115600 0.468179 -0.715942 47 37 21 40 4
0.147070 0.176616 -0.800819 126 110 75 2 6
0.121792 0.177806 -0.801415 138 120 90 2 6
0.074108 0.463327 -0.739506 61 47 25 2 6
0.064182 0.472931 -0.740415 42 32 27 2 6
0.051467 0.361493 -0.793258 131 102 80 2 6
0.093041 0.362754 -0.795224 124 106 80 2 6
0.254755 0.401122 -0.438802 37 16 18 40 4
0.267690 0.390845 -0.462328 63 54 27 40 4
0.271701 0.378176 -0.436426 55 43 26 40 4
0.263452 0.396348 -0.444414 59 38 23 40 4
0.211439 0.379076 -0.605816 40 18 26 40 4
0.102327 0.614596 -0.673553 73 63 54 1 12
0.080554 0.618463 -0.660403 94 79 68 1 12
0.106506 0.612396 -0.686817 73 63 41 1 12
0.079468 0.622840 -0.647659 83 81 71 1 12
0.098181 0.449901 -0.738170 65 47 32 2 6
0.093693 0.450424 -0.728964 54 37 24 2 6
0.081367 0.462921 -0.728303 36 24 12 2 6
0.095711 0.458048 -0.715236 36 23 27 2 6
0.091904 0.465700 -0.719736 30 21 29 2 6
0.101870 0.473141 -0.724532 44 31 27 40 4
0.257374 0.225878 -0.724768 57 39 36 40 4
0.255087 0.204781 -0.732697 85 48 48 40 4
0.236520 0.218205 -0.720216 89 57 47 40 4
0.242622 0.194615 -0.730773 102 68 60 40 4
0.247465 0.207251 -0.715738 93 55 43 40 4
0.059511 0.505869 -0.761400 43 27 24 2 6
0.073137 0.497073 -0.763337 53 37 28 2 6
0.050200 0.474681 -0.762858 62 48 30 2 6
0.045312 0.486310 -0.752854 38 26 22 2 6
0.041462 0.482216 -0.759447 41 30 25 2 6
0.071086 0.495581 -0.751281 33 25 26 40 4
0.235247 0.489306 -0.433202 37 34 26 16 3
0.234318 0.488046 -0.451676 50 33 21 16 3
0.230420 0.480046 -0.435301 42 39 16 16 3
-0.017090 0.552582 -0.763917 74 64 39 40 13
-0.032986 0.552887 -0.762229 71 59 32 40 13
-0.024932 0.550901 -0.772990 72 64 42 40 13
-0.015121 0.545200 -0.406744 63 53 51 40 13
-0.046917 0.544760 -0.410386 47 45 27 40 13
-0.049793 0.545340 -0.426929 53 46 29 40 13
0.201306 0.382234 -0.657764 45 37 28 40 4
0.184350 0.398141 -0.663555 33 27 27 40 4
0.193941 0.394183 -0.673453 45 39 23 40 4
0.080306 0.220309 -0.525552 41 34 25 0 0
0.068657 0.222884 -0.544078 27 33 11 40 7
0.074890 0.211857 -0.528798 26 20 16 0 0
-0.016876 0.620015 -0.624602 73 62 60 40 13
-0.017029 0.622046 -0.568176 82 64 49 40 13
-0.017150 0.626152 -0.635005 75 62 62 40 13
0.151790 0.415547 -0.686748 35 30 16 2 6
0.150158 0.416733 -0.661870 31 22 16 40 4
0.307693 0.496076 -0.415115 70 57 32 16 3
0.144589 0.298006 -0.799178 136 114 84 2 6
0.142749 0.335489 -0.796647 135 113 73 2 6
0.233380 0.273458 -0.663845 63 36 24 40 4
0.012936 0.495308 -0.777463 97 76 68 2 6
0.285209 0.379834 -0.627100 45 20 17 40 4
0.244250 0.419442 -0.703379 35 25 23 40 4
0.233719 0.435862 -0.723066 35 25 23 40 4
0.087362 0.233896 -0.472194 39 31 24 0 0
0.091760 0.231754 -0.470152 38 33 27 40 7
0.145085 0.465959 -0.736924 55 46 21 2 6
0.155345 0.455443 -0.726590 62 41 19 2 6
0.158503 0.440372 -0.714554 54 37 33 2 6
0.235660 0.490524 -0.387154 34 31 19 16 3
0.231416 0.486157 -0.388676 33 30 18 16 3
0.229587 0.482046 -0.376676 33 30 18 16 3
-0.005340 0.611837 -0.396325 52 42 39 1 12
0.004537 0.616638 -0.396601 70 63 61 1 12
-0.008224 0.613442 -0.413062 69 60 63 1 12
-0.002204 0.618338 -0.413004 65 65 49 1 12
0.431260 0.505780 -0.458676 68 50 35 16 3
0.262034 0.356058 -0.683142 38 16 18 40 4
0.265009 0.350492 -0.654908 35 19 12 40 4
0.244467 0.425767 -0.373683 32 23 14 16 3
0.249120 0.412639 -0.405888 30 17 21 16 3
0.240357 0.441318 -0.426201 35 25 20 16 3
0.251741 0.175915 -0.746832 92 57 40 40 4
0.243528 0.172402 -0.746938 101 67 54 2 6
0.251387 0.511747 -0.429604 9 7 7 16 3
0.251415 0.510762 -0.399176 9 7 10 16 3
0.268736 0.356319 -0.618676 38 14 19 40 4
0.276118 0.368062 -0.627426 42 17 13 40 4
-0.012585 0.555310 -0.680676 75 66 47 40 13
-0.016585 0.554367 -0.680676 75 66 47 40 13
-0.008584 0.557562 -0.708676 87 71 56 40 13
0.090753 0.235627 -0.670162 70 50 37 40 7
0.103872 0.217207 -0.674905 70 54 41 40 7
0.087169 0.237719 -0.663520 69 49 37 0 0
0.095690 0.230468 -0.670438 55 50 31 40 7
0.086980 0.225900 -0.685706 60 55 24 0 0
0.442648 0.498054 -0.470795 63 55 33 16 3
0.439416 0.499119 -0.488676 59 52 37 16 3
0.435246 0.501893 -0.433676 65 51 46 16 3
0.313448 0.499651 -0.590853 55 50 28 16 3
0.210827 0.327645 -0.708317 81 60 44 40 4
0.217677 0.315602 -0.709451 59 47 29 40 4
0.221635 0.322902 -0.705131 59 47 29 40 4
0.228575 0.330173 -0.705416 63 38 31 40 4
0.243505 0.340399 -0.697050 48 32 30 40 4
0.215196 0.326331 -0.687949 85 59 47 40 4
0.247415 0.510879 -0.504176 13 14 11 16 3
0.255536 0.510203 -0.502051 24 24 23 16 3
0.240714 0.498996 -0.508446 15 14 11 16 3
0.251415 0.512061 -0.499176 13 12 12 16 3
0.105235 0.619946 -0.570008 71 74 56 1 12
0.082794 0.624589 -0.564815 83 73 66 1 12
0.106008 0.623039 -0.593294 70 61 46 1 12
-0.014584 0.555199 -0.594176 78 66 56 40 13
0.227834 0.349386 -0.609061 42 29 17 40 4
0.226752 0.323713 -0.617123 43 31 19 40 4
0.231475 0.315239 -0.608745 50 28 23 40 4
0.230242 0.350692 -0.599409 64 38 25 40 4
0.246812 0.509405 -0.686025 32 18 15 16 3
0.207345 0.387235 -0.568907 32 20 24 40 4
0.079331 0.622366 -0.540268 78 75 56 1 12
0.100650 0.620448 -0.552590 70 58 60 1 12
0.094647 0.621437 -0.540464 74 73 47 1 12
0.240412 0.496202 -0.445310 21 11 12 16 3
0.225049 0.354642 -0.389364 93 82 88 40 4
0.232341 0.345233 -0.407564 48 34 30 40 4
0.215379 0.375517 -0.406966 70 60 48 40 4
0.227677 0.350731 -0.414976 102 92 95 40 4
0.359415 0.565864 -0.454676 65 52 38 16 3
0.342551 0.545887 -0.446426 37 28 22 16 3
0.365416 0.567750 -0.449176 67 47 47 16 3
0.347416 0.554603 -0.450676 40 32 29 16 3
-0.012585 0.632536 -0.628676 92 80 85 1 12
-0.011447 0.631416 -0.646857 93 87 93 1 12
0.064837 0.461892 -0.788096 126 98 78 2 6
0.032443 0.463208 -0.789013 123 102 75 2 6
0.048977 0.449583 -0.790589 125 104 80 2 6
0.054347 0.471145 -0.780341 114 94 78 2 6
0.017533 0.386045 -0.791638 124 100 75 2 6
0.038496 0.370806 -0.793471 124 105 85 2 6
0.277371 0.490944 -0.411676 35 31 16 16 3
0.277416 0.490371 -0.383176 38 33 16 16 3
0.285415 0.487934 -0.400176 54 46 24 16 3
0.297108 0.489863 -0.427035 70 56 39 16 3
0.253298 0.355582 -0.497314 58 30 21 40 4
0.261432 0.357586 -0.500426 55 27 17 40 4
0.244271 0.355200 -0.498982 29 9 24 40 4
0.254623 0.351698 -0.525046 46 16 16 40 4
0.231925 0.486482 -0.649757 45 27 21 16 3
0.256155 0.257158 -0.727957 66 42 24 40 4
0.240232 0.279410 -0.717420 56 30 22 40 4
0.252771 0.277341 -0.719193 75 51 36 40 4
0.246505 0.259373 -0.744815 73 50 33 40 4
0.240214 0.268498 -0.729260 54 40 21 40 4
0.247683 0.280510 -0.721739 82 59 43 40 4
0.102466 0.202546 -0.490426 47 43 25 40 7
0.102588 0.189046 -0.509551 53 43 26 40 7
-0.013094 0.622077 -0.469978 58 52 46 1 12
0.006337 0.627225 -0.469957 48 44 28 1 12
-0.008359 0.627436 -0.481564 75 72 55 1 12
-0.008790 0.598046 -0.462676 57 53 54 40 13
0.234010 0.461046 -0.453676 45 30 34 16 3
0.231241 0.470546 -0.416426 38 30 28 16 3
0.052446 0.301653 -0.790716 90 72 58 40 7
0.037650 0.305030 -0.777243 74 62 45 40 7
0.175156 0.427417 -0.766399 86 59 55 40 4
0.076189 0.256081 -0.777039 99 83 56 40 7
0.072343 0.271332 -0.787508 115 98 63 40 7
0.033951 0.620348 -0.403200 91 85 77 1 12
0.024173 0.616394 -0.421471 88 83 79 1 12
0.010266 0.618940 -0.411266 85 75 64 1 12
0.034992 0.618167 -0.424437 85 82 70 1 12
-0.004584 0.578869 -0.634676 82 72 63 40 13
-0.008619 0.592903 -0.605676 76 64 65 40 13
-0.004449 0.578559 -0.600676 80 76 56 40 13
0.096977 0.621982 -0.458892 90 81 86 1 12
0.084212 0.615675 -0.444676 87 76 76 1 12
0.104659 0.617999 -0.449317 93 85 83 1 12
0.096485 0.617949 -0.441432 95 87 79 1 12
0.386095 0.559121 -0.516015 37 29 19 16 3
0.377172 0.565097 -0.503676 41 29 16 16 3
0.390346 0.557772 -0.492347 36 32 21 16 3
0.098646 0.223180 -0.775753 74 59 46 40 7
0.086535 0.241176 -0.768619 71 59 37 40 7
0.092535 0.230877 -0.759079 71 59 38 40 7
0.079830 0.222392 -0.763085 66 50 52 40 7
0.086287 0.236969 -0.759992 79 58 32 40 7
0.241660 0.507254 -0.672150 26 16 19 16 3
0.241516 0.496612 -0.671197 31 17 28 16 3
0.265547 0.497073 -0.671422 40 25 17 16 3
0.234468 0.488504 -0.655342 35 19 16 16 3
-0.004117 0.561765 -0.528529 101 84 82 40 13
-0.016232 0.553385 -0.495595 79 64 56 40 13
-0.004198 0.559839 -0.508212 104 90 74 40 13
-0.002702 0.566046 -0.501676 103 90 93 40 13
0.038870 0.622779 -0.476304 95 83 78 1 12
0.034894 0.618817 -0.452241 62 52 53 1 12
0.021724 0.627576 -0.476682 93 80 76 1 12
0.040772 0.617954 -0.458613 87 80 72 1 12
0.023416 0.634080 -0.610676 91 86 58 1 12
0.010790 0.632889 -0.635051 103 91 91 1 12
0.024879 0.633518 -0.639624 101 93 86 1 12
0.270225 0.361335 -0.556384 45 19 9 40 4
0.262352 0.354255 -0.524542 44 12 19 40 4
0.270411 0.360231 -0.525035 41 18 9 40 4
0.241068 0.352984 -0.528910 37 16 12 40 4
0.296475 0.403534 -0.676637 40 21 23 40 4
0.285060 0.380553 -0.652539 46 25 24 40 4
0.278147 0.380643 -0.663794 46 37 8 40 4
0.285677 0.392142 -0.667397 52 29 28 40 4
0.275293 0.388491 -0.672754 51 40 13 40 4
0.280185 0.397146 -0.671992 58 30 30 40 4
0.285437 0.410843 -0.680527 43 20 19 40 4
0.303850 0.392430 -0.660763 41 22 17 40 4
0.147518 0.272172 -0.798731 142 119 78 2 6
-0.009610 0.611716 -0.678542 80 63 45 40 13
-0.009016 0.603206 -0.675154 70 58 40 40 13
-0.006826 0.618742 -0.679454 81 67 50 40 13
0.116798 0.617047 -0.668316 70 66 37 1 12
0.121760 0.631136 -0.658208 84 76 86 1 12
0.130520 0.628462 -0.638263 84 79 76 1 12
0.133505 0.624211 -0.659713 77 75 81 1 12
0.130252 0.630613 -0.655534 108 107 113 1 12
0.118914 0.620483 -0.679035 74 68 50 1 12
0.124261 0.626729 -0.682026 83 71 75 1 12
0.124364 0.630013 -0.672345 78 70 80 1 12
0.114936 0.627877 -0.652251 83 73 70 1 12
0.153345 0.431251 -0.644288 32 19 10 40 4
0.150721 0.423287 -0.648758 29 18 20 40 4
0.164271 0.438899 -0.643988 34 24 14 40 4
0.175323 0.435452 -0.629523 34 22 18 40 4
0.272951 0.372046 -0.444676 47 24 26 40 4
0.271827 0.361254 -0.409426 29 17 12 40 4
0.219103 0.370712 -0.486177 79 61 43 40 4
0.217699 0.371308 -0.474594 79 68 58 40 4
0.230388 0.355358 -0.496908 78 61 46 40 4
0.223348 0.360825 -0.475493 85 65 52 40 4
0.107924 0.181033 -0.694176 68 51 43 40 7
0.103831 0.167046 -0.651176 59 51 37 40 7
0.323590 0.512215 -0.494176 45 34 38 16 3
0.238490 0.343161 -0.587564 86 56 49 40 4
0.243721 0.316889 -0.591078 92 62 42 40 4
0.261315 0.319773 -0.604562 34 16 12 40 4
0.257692 0.339711 -0.583451 41 16 11 40 4
0.262235 0.343603 -0.592389 35 17 10 40 4
0.258099 0.321408 -0.592981 35 17 10 40 4
0.451780 0.498059 -0.408362 60 56 39 16 3
0.439416 0.500192 -0.372676 79 56 48 16 3
0.451479 0.499234 -0.380087 79 63 36 16 3
0.445334 0.498170 -0.377619 73 59 53 16 3
0.229232 0.257759 -0.762788 83 58 40 40 4
0.229118 0.258928 -0.750806 90 65 52 40 4
0.221884 0.272744 -0.745108 78 48 43 40 4
0.215679 0.265716 -0.745941 110 75 64 40 4
0.211863 0.272780 -0.760845 83 55 35 40 4
0.212016 0.252649 -0.767014 96 68 51 40 4
0.216035 0.279491 -0.755212 91 61 50 40 4
0.291416 0.487429 -0.570176 72 64 47 16 3
0.301235 0.491425 -0.568985 68 53 48 16 3
0.283415 0.488063 -0.533676 65 62 34 16 3
0.275415 0.492540 -0.526926 31 31 26 16 3
0.297415 0.489085 -0.545676 71 58 25 16 3
0.299415 0.490292 -0.529676 78 63 33 16 3
0.279009 0.490046 -0.533676 42 40 31 16 3
0.045227 0.475294 -0.776077 116 96 80 2 6
0.027124 0.483739 -0.777383 110 91 74 2 6
0.240591 0.429959 -0.576004 36 25 14 16 3
0.243890 0.412369 -0.574109 37 21 16 16 3
0.243334 0.430561 -0.588531 42 26 19 16 3
0.247845 0.405580 -0.576651 41 27 14 40 4
0.244020 0.430842 -0.552513 45 24 18 16 3
0.242848 0.416849 -0.561636 37 22 20 16 3
0.237368 0.446022 -0.536376 40 29 28 16 3
0.251415 0.512450 -0.581676 14 14 12 16 3
0.255597 0.510158 -0.595176 32 24 32 16 3
0.026703 0.416596 -0.791768 109 88 64 2 6
0.052099 0.412716 -0.791200 107 86 55 2 6
0.137406 0.423802 -0.678027 32 24 16 40 4
0.138328 0.439609 -0.667745 37 20 18 40 4
0.258061 0.307321 -0.603418 46 22 19 40 4
0.243782 0.291519 -0.614504 53 25 27 40 4
0.249246 0.296950 -0.607744 64 34 19 40 4
0.247342 0.281574 -0.625635 62 33 26 40 4
0.248173 0.314061 -0.589919 61 37 22 40 4
0.240398 0.304336 -0.599171 51 30 28 40 4
-0.025680 0.367058 -0.772182 75 69 28 2 6
-0.015610 0.359246 -0.767308 86 78 37 2 6
-0.027484 0.377398 -0.769180 64 46 29 2 6
0.009319 0.361701 -0.788848 117 98 86 2 6
0.010391 0.346369 -0.779158 78 56 40 2 6
0.467416 0.519098 -0.363676 35 32 21 16 3
0.470794 0.529804 -0.371613 41 28 27 16 3
-0.030335 0.553742 -0.535676 74 63 45 40 13
-0.034210 0.553977 -0.521698 72 61 44 40 13
0.311415 0.498833 -0.458676 54 47 26 16 3
0.060863 0.383607 -0.792251 125 105 82 2 6
0.242064 0.499752 -0.382453 18 16 8 16 3
0.259416 0.506509 -0.417676 32 27 17 16 3
0.279395 0.490157 -0.585426 60 41 31 16 3
0.295415 0.488301 -0.591176 69 56 35 16 3
0.287416 0.487287 -0.537801 70 61 46 16 3
0.237795 0.253157 -0.748980 79 61 50 40 4
0.229798 0.272366 -0.729685 62 31 31 40 4
0.224907 0.245115 -0.731087 87 59 42 40 4
0.218664 0.272935 -0.725262 77 52 30 40 4
0.214970 0.276452 -0.744347 105 74 65 40 4
-0.003417 0.568046 -0.664676 86 73 69 40 13
-0.005580 0.562046 -0.696676 84 72 59 40 13
-0.008584 0.556867 -0.664676 81 68 51 40 13
0.055863 0.625858 -0.507433 91 73 80 1 12
0.053330 0.621150 -0.475331 90 80 65 1 12
0.066624 0.617139 -0.463742 91 85 63 1 12
0.091814 0.236258 -0.611981 57 44 37 40 7
0.080364 0.215572 -0.588397 61 55 21 0 0
0.083434 0.233794 -0.595815 63 48 34 0 0
0.096714 0.228758 -0.599434 58 45 33 40 7
0.083161 0.222386 -0.611823 61 47 42 0 0
0.228496 0.364741 -0.574626 33 21 21 40 4
0.238041 0.356745 -0.551732 38 15 27 40 4
0.211873 0.380685 -0.571415 38 17 20 40 4
0.236313 0.352944 -0.584304 64 29 23 40 4
0.235842 0.357857 -0.573824 42 21 7 40 4
0.067307 0.221502 -0.441117 33 23 24 0 0
0.235740 0.241005 -0.700700 70 38 26 40 4
0.230219 0.470789 -0.546127 44 40 36 16 3
0.234425 0.460329 -0.519634 43 39 36 16 3
0.230476 0.477837 -0.529682 55 48 31 16 3
-0.000062 0.567254 -0.764691 86 65 53 40 13
0.005594 0.567727 -0.776924 85 69 50 40 13
-0.002999 0.559889 -0.762551 83 69 63 40 13
-0.000436 0.557900 -0.774474 86 69 45 40 13
-0.009804 0.553986 -0.764781 81 70 50 40 13
-0.006410 0.549167 -0.777922 81 64 53 40 13
-0.044359 0.398845 -0.770353 58 45 31 2 6
-0.041468 0.406742 -0.774378 58 46 30 2 6
-0.035596 0.393611 -0.772261 59 45 36 2 6
0.252283 0.432704 -0.605646 53 23 24 16 3
0.263251 0.432264 -0.618478 38 14 24 40 4
0.263164 0.427696 -0.608529 45 19 21 40 4
0.265022 0.418154 -0.598480 41 15 21 40 4
0.095425 0.620993 -0.521631 81 74 55 1 12
0.107799 0.628949 -0.505370 87 76 73 1 12
0.115222 0.630389 -0.508575 88 74 78 1 12
0.101892 0.619011 -0.497333 86 77 71 1 12
0.103384 0.621419 -0.508247 79 73 66 1 12
0.241205 0.349851 -0.458530 31 12 12 40 4
0.257415 0.351346 -0.448676 44 17 13 40 4
0.267460 0.356968 -0.436699 45 15 19 40 4
0.245432 0.506046 -0.460676 12 15 9 16 3
0.252788 0.254754 -0.737825 76 49 36 40 4
0.079008 0.219109 -0.557265 57 40 44 0 0
0.091199 0.234770 -0.558241 55 48 25 40 7
0.096687 0.225806 -0.572934 61 46 41 40 7
0.085293 0.233694 -0.576574 60 46 32 0 0
0.087138 0.237348 -0.589118 62 47 38 40 7
0.091267 0.234396 -0.584717 61 44 41 40 7
0.079605 0.220026 -0.571922 54 53 42 0 0
0.065849 0.225902 -0.616825 35 32 27 40 7
0.070691 0.218525 -0.606786 37 32 18 40 7
0.078259 0.211949 -0.697094 62 49 39 40 7
0.082536 0.212535 -0.682777 64 46 42 40 7
0.075402 0.221143 -0.543071 39 21 19 0 0
0.067257 0.221294 -0.528320 28 24 12 40 7
0.188947 0.395556 -0.606060 33 18 21 40 4
0.195704 0.394530 -0.588776 30 15 17 40 4
0.171151 0.410494 -0.622331 32 18 11 40 4
0.192080 0.407182 -0.589843 30 14 21 40 4
0.217982 0.325121 -0.676619 79 73 41 40 4
0.220285 0.328143 -0.645492 72 52 40 40 4
0.217120 0.345796 -0.660708 59 35 28 40 4
0.223146 0.310441 -0.648991 67 41 30 40 4
0.217514 0.339831 -0.674352 56 40 38 40 4
0.218955 0.315634 -0.669314 76 54 35 40 4
0.325415 0.515886 -0.394676 44 34 23 16 3
-0.030456 0.515751 -0.786843 95 74 64 2 6
-0.013294 0.536217 -0.783955 64 49 38 2 6
-0.049835 0.522421 -0.785841 96 77 57 2 6
0.145276 0.432617 -0.719473 56 43 27 2 6
0.123088 0.625822 -0.567852 77 68 68 1 12
0.125125 0.627758 -0.583994 71 69 53 1 12
0.113385 0.622358 -0.572099 75 67 66 1 12
0.117930 0.623634 -0.586107 75 65 64 1 12
0.129368 0.625106 -0.565677 77 71 71 1 12
0.132231 0.619137 -0.551990 79 67 66 1 12
0.091440 0.229039 -0.444661 41 31 16 40 7
0.083911 0.228337 -0.453649 39 32 19 0 0
0.079356 0.218656 -0.450316 44 30 24 0 0
0.086738 0.231987 -0.436369 41 28 26 0 0
-0.004448 0.620069 -0.746262 70 58 51 1 12
0.019291 0.620100 -0.726051 78 67 53 1 12
-0.009633 0.614046 -0.746676 66 55 43 40 13
-0.005292 0.618413 -0.713834 69 61 47 1 12
0.012915 0.619596 -0.708363 77 69 55 1 12
-0.008847 0.614799 -0.708813 69 56 59 40 13
-0.003776 0.578046 -0.560676 70 60 58 40 13
0.099544 0.210075 -0.375426 39 37 19 40 7
0.102266 0.177171 -0.387301 39 36 24 40 7
0.101961 0.176046 -0.360676 41 35 19 40 7
0.100291 0.206046 -0.360676 36 35 28 40 7
0.010965 0.331410 -0.766761 67 58 39 2 6
0.004224 0.328756 -0.762831 78 67 44 2 6
0.001009 0.341463 -0.765728 101 90 65 2 6
-0.025868 0.546794 -0.779022 72 57 48 40 13
-0.030577 0.538101 -0.783980 83 67 51 2 6
-0.046210 0.549131 -0.452426 40 40 29 40 13
-0.049470 0.547023 -0.438315 47 40 35 40 13
-0.015980 0.549661 -0.437279 45 39 31 40 13
-0.032106 0.546536 -0.422545 40 36 24 40 13
0.124721 0.628687 -0.694612 73 58 53 1 12
0.117073 0.613200 -0.690963 72 60 29 1 12
0.117218 0.614591 -0.710455 62 48 44 1 12
0.221693 0.297436 -0.673054 88 66 44 40 4
0.220289 0.299192 -0.690838 68 45 33 40 4
0.228114 0.291862 -0.653602 79 57 36 40 4
0.243116 0.504066 -0.648742 18 18 8 16 3
0.275427 0.492506 -0.632697 33 26 31 16 3
0.315316 0.502513 -0.492176 50 38 20 16 3
0.303415 0.492061 -0.494176 61 52 37 16 3
0.307415 0.494998 -0.490426 63 49 34 16 3
0.315416 0.501662 -0.522676 69 49 40 16 3
0.035775 0.619128 -0.384025 84 77 85 1 12
0.045855 0.610255 -0.371676 53 50 47 1 12
0.055721 0.613218 -0.374428 52 49 50 1 12
0.023767 0.605554 -0.371001 67 59 56 1 12
0.018247 0.618344 -0.386558 82 77 78 1 12
0.211896 0.389484 -0.399008 80 71 72 40 4
0.255592 0.287937 -0.623023 50 26 29 40 4
0.259878 0.279061 -0.647009 53 31 25 40 4
0.242447 0.278977 -0.631764 56 31 20 40 4
0.227305 0.217425 -0.740627 100 81 63 40 4
0.227380 0.234973 -0.727321 93 67 47 40 4
0.097215 0.619699 -0.429436 90 87 82 1 12
0.088629 0.617259 -0.428430 89 80 78 1 12
0.107345 0.607897 -0.427253 89 86 89 1 12
0.097179 0.615552 -0.409890 88 87 84 1 12
0.106642 0.608584 -0.394879 96 86 75 1 12
0.086731 0.617763 -0.406326 94 86 91 1 12
0.102360 0.616366 -0.418753 97 91 87 1 12
0.078775 0.617137 -0.390360 93 89 81 1 12
0.464796 0.515297 -0.425676 37 26 33 16 3
0.022566 0.557154 -0.784354 102 87 59 2 6
0.100589 0.221046 -0.645176 59 50 39 40 7
0.100523 0.222046 -0.622676 69 48 27 40 7
0.079225 0.212805 -0.653925 62 48 31 0 0
0.079502 0.214623 -0.638913 55 47 42 0 0
0.060414 0.621141 -0.675903 81 71 41 1 12
0.061207 0.624808 -0.661677 95 85 66 1 12
0.070800 0.620007 -0.673144 79 69 65 1 12
0.102802 0.204046 -0.426676 43 34 15 40 7
0.102535 0.206046 -0.406676 40 32 27 40 7
0.103097 0.202046 -0.404676 42 37 14 40 7
0.055551 0.489652 -0.747083 32 26 16 2 6
0.073361 0.474538 -0.732729 34 21 24 2 6
0.084051 0.482986 -0.738307 32 21 23 40 4
0.137408 0.209940 -0.799493 145 122 104 2 6
0.170102 0.182991 -0.801742 155 122 99 2 6
0.070334 0.215567 -0.633989 42 31 25 40 7
0.078187 0.617258 -0.422277 83 80 78 1 12
0.049945 0.618556 -0.418324 93 86 72 1 12
0.068982 0.618634 -0.407171 87 85 75 1 12
-0.009948 0.608989 -0.749860 54 43 41 40 13
-0.008577 0.617720 -0.745997 63 50 48 40 13
-0.004283 0.620090 -0.758507 60 49 30 1 12
-0.007955 0.613769 -0.764657 63 40 45 40 13
0.272258 0.366357 -0.674821 41 36 13 40 4
0.153587 0.445488 -0.659913 35 22 13 40 4
0.229371 0.341731 -0.366890 83 72 64 40 4
0.160381 0.235367 -0.800181 148 126 76 2 6
0.259620 0.396671 -0.694588 64 48 36 40 4
0.243643 0.396389 -0.693503 48 31 26 40 4
0.244000 0.391600 -0.700899 33 20 24 40 4
0.236583 0.391573 -0.718778 38 23 17 40 4
0.255926 0.393946 -0.717963 43 31 20 40 4
0.266226 0.376293 -0.705689 64 42 31 40 4
0.260306 0.401557 -0.691268 37 30 24 40 4
0.271940 0.382689 -0.680593 50 37 16 40 4
0.270790 0.411078 -0.683436 38 29 32 40 4
0.269462 0.379469 -0.695201 54 45 25 40 4
0.132962 0.435470 -0.722504 63 46 28 2 6
0.116426 0.629132 -0.636442 68 60 63 1 12
0.124891 0.631772 -0.635485 75 67 55 1 12
0.124480 0.628759 -0.621358 77 71 58 1 12
0.108814 0.624161 -0.631287 66 56 61 1 12
0.109547 0.620703 -0.653559 84 78 70 1 12
0.101950 0.210339 -0.774432 77 62 40 40 7
0.104801 0.190491 -0.776151 79 59 46 40 7
0.083681 0.216210 -0.753068 72 56 38 40 7
0.107257 0.185317 -0.753961 61 57 44 40 7
0.103387 0.212963 -0.753503 74 54 48 40 7
0.225114 0.365184 -0.594838 57 30 25 40 4
-0.024585 0.553279 -0.648676 71 65 36 40 13
-0.041085 0.553313 -0.655426 72 59 43 40 13
0.405033 0.540098 -0.504864 39 25 19 16 3
0.312079 0.434569 -0.623549 33 21 14 40 4
0.314497 0.427382 -0.617927 34 16 18 40 4
0.328840 0.418693 -0.625751 37 23 15 40 4
0.067652 0.229446 -0.565382 31 25 26 40 7
0.249071 0.394452 -0.725828 59 41 29 40 4
0.254659 0.381563 -0.721320 65 47 31 40 4
0.253332 0.397137 -0.715429 31 22 13 40 4
0.191233 0.385703 -0.759345 73 56 39 40 4
0.190556 0.357571 -0.762853 96 73 51 40 4
0.186527 0.375755 -0.761944 99 72 51 40 4
0.195938 0.339301 -0.762155 92 59 63 40 4
0.193200 0.368351 -0.759123 76 53 44 40 4
0.185470 0.354349 -0.778905 109 74 67 40 4
0.196380 0.347191 -0.753404 83 56 43 40 4
0.100103 0.164309 -0.470426 46 43 29 40 7
0.102789 0.176046 -0.461676 51 44 30 40 7
0.101651 0.170046 -0.478676 47 44 36 40 7
-0.043084 0.553557 -0.727676 66 59 35 40 13
0.140136 0.241683 -0.799665 140 117 78 2 6
0.108070 0.239151 -0.798398 129 104 83 2 6
0.116125 0.217483 -0.798920 127 101 77 2 6
0.334565 0.529385 -0.468676 36 30 22 16 3
0.100396 0.166315 -0.416676 48 43 23 40 7
0.102174 0.179046 -0.432176 46 40 23 40 7
0.102702 0.180046 -0.406676 47 37 25 40 7
0.256142 0.230092 -0.737332 62 39 25 40 4
0.256453 0.228104 -0.707493 57 35 16 40 4
0.206369 0.276890 -0.770378 110 83 61 40 4
0.400643 0.549597 -0.430409 28 30 16 16 3
0.231569 0.486559 -0.501945 56 53 30 16 3
0.230693 0.480046 -0.483551 70 54 40 16 3
0.077155 0.209352 -0.721766 64 58 25 40 7
0.072747 0.211571 -0.715035 72 55 38 40 7
0.376956 0.566606 -0.446676 51 38 20 16 3
0.399577 0.549191 -0.481656 32 30 15 16 3
0.170205 0.436591 -0.706762 58 44 16 2 6
0.170021 0.411868 -0.695055 64 47 40 2 6
0.169771 0.418221 -0.700953 57 47 38 2 6
0.158136 0.424504 -0.709815 61 46 38 2 6
0.139664 0.423862 -0.701760 53 40 22 2 6
0.262087 0.295294 -0.663363 65 45 36 40 4
0.184399 0.433358 -0.618106 34 17 6 40 4
0.214911 0.377477 -0.462799 73 57 49 40 4
0.212730 0.388063 -0.488831 77 69 42 40 4
0.210625 0.392395 -0.480733 60 48 35 40 4
0.305750 0.405188 -0.589985 36 14 12 40 4
0.302763 0.395633 -0.587556 47 15 8 40 4
0.314348 0.403212 -0.603175 36 16 13 40 4
0.237749 0.175418 -0.751452 115 83 80 2 6
0.224791 0.182261 -0.768148 129 106 73 2 6
0.259525 0.506464 -0.457683 18 13 11 16 3
0.255206 0.509789 -0.437883 19 14 16 16 3
0.247405 0.509923 -0.423425 14 6 7 16 3
0.101924 0.387232 -0.793528 132 107 65 2 6
0.111165 0.412046 -0.791799 127 108 70 2 6
0.211805 0.330546 -0.714905 64 55 32 40 4
0.212227 0.346365 -0.718908 63 50 29 40 4
0.231120 0.258267 -0.691627 111 82 64 40 4
0.224034 0.283240 -0.683608 125 102 71 40 4
0.227028 0.257263 -0.706203 95 64 50 40 4
0.018403 0.368405 -0.792239 122 98 87 2 6
0.223338 0.331844 -0.627777 55 41 28 40 4
0.214054 0.358350 -0.639101 44 32 13 40 4
0.214604 0.347524 -0.644108 54 39 28 40 4
0.084870 0.212201 -0.705135 67 49 43 0 0
0.054850 0.631683 -0.599404 75 61 61 1 12
0.053613 0.632645 -0.625442 95 78 74 1 12
0.066769 0.629487 -0.607016 86 78 49 1 12
0.247652 0.509594 -0.363116 12 7 9 16 3
-0.011712 0.612929 -0.428003 73 70 59 40 13
0.008685 0.623954 -0.443535 78 74 63 1 12
-0.008965 0.621252 -0.431315 64 58 48 1 12
-0.012240 0.617651 -0.450773 71 71 52 1 12
-0.013026 0.611374 -0.460990 73 71 52 40 13
-0.007129 0.622826 -0.449759 73 72 60 1 12
-0.007892 0.549156 -0.411399 60 56 44 40 13
-0.004124 0.556073 -0.418206 72 66 57 40 13
-0.004578 0.565046 -0.401117 107 109 97 40 13
0.255372 0.204037 -0.748448 66 40 29 40 4
0.341956 0.544019 -0.471926 36 27 17 16 3
0.348992 0.556204 -0.468671 34 33 30 16 3
0.355469 0.562937 -0.472780 56 43 37 16 3
0.365416 0.567430 -0.482551 61 52 35 16 3
0.207263 0.337231 -0.713954 98 73 60 40 4
-0.027834 0.553908 -0.592801 77 61 46 40 13
-0.043585 0.554010 -0.557145 69 62 51 40 13
-0.038771 0.553577 -0.574801 79 64 55 40 13
-0.012585 0.554799 -0.560676 79 64 61 40 13
-0.015539 0.554258 -0.549426 79 66 50 40 13
0.305251 0.494575 -0.438549 59 47 41 16 3
0.063465 0.218951 -0.376601 41 35 35 0 0
0.066965 0.224886 -0.380114 32 27 16 0 0
0.067562 0.226486 -0.369321 33 27 14 0 0
0.079329 0.217868 -0.367830 27 26 17 0 0
0.071554 0.223080 -0.390885 26 30 24 0 0
0.335415 0.530133 -0.428676 40 30 15 16 3
0.100720 0.464671 -0.781188 120 91 88 2 6
0.082399 0.464499 -0.782068 122 97 66 2 6
0.085882 0.453015 -0.788058 125 100 77 2 6
0.106674 0.461650 -0.786792 124 99 74 2 6
0.101021 0.218046 -0.583676 61 48 35 40 7
0.235565 0.352786 -0.493771 42 27 24 40 4
0.220069 0.372067 -0.503184 82 69 41 40 4
0.222932 0.364642 -0.491109 79 63 40 40 4
0.073110 0.221193 -0.508442 31 23 19 0 0
0.080851 0.218782 -0.506866 31 23 16 0 0
0.067773 0.227156 -0.491350 34 22 19 0 0
0.078914 0.216978 -0.491568 33 23 13 0 0
0.075005 0.218033 -0.520116 29 28 16 0 0
-0.004229 0.577667 -0.737898 53 44 32 40 13
-0.003959 0.568674 -0.726579 76 65 45 40 13
0.271415 0.495947 -0.542176 54 47 38 16 3
0.293415 0.487912 -0.516676 62 57 41 16 3
0.124550 0.282297 -0.797746 116 99 74 2 6
0.247288 0.406474 -0.542993 40 19 14 40 4
0.250650 0.409059 -0.540994 29 15 19 40 4
0.254394 0.404516 -0.558337 31 20 18 40 4
0.252611 0.406840 -0.528154 44 27 24 40 4
0.263541 0.399123 -0.550494 52 37 33 40 4
0.263218 0.400602 -0.534125 48 38 30 40 4
0.176962 0.414652 -0.767282 115 89 59 40 4
0.049594 0.512153 -0.765245 37 24 21 2 6
0.055304 0.513830 -0.774059 48 30 26 2 6
0.065618 0.504406 -0.770839 43 27 25 2 6
-0.003801 0.568046 -0.629676 84 79 56 40 13
-0.012585 0.555476 -0.620676 77 65 57 40 13
-0.004816 0.562411 -0.630066 90 78 52 40 13
-0.016585 0.553803 -0.656676 71 62 46 40 13
-0.008363 0.557473 -0.635337 85 75 57 40 13
0.098081 0.160046 -0.571676 62 52 37 40 7
0.102278 0.170046 -0.577676 59 45 30 40 7
0.103512 0.172174 -0.608628 54 45 34 40 7
0.103795 0.175562 -0.582676 63 52 32 40 7
0.104735 0.187546 -0.610676 61 51 25 40 7
0.314763 0.502052 -0.612813 51 44 40 16 3
0.306915 0.494920 -0.632051 37 41 25 16 3
-0.019199 0.383257 -0.775761 56 48 29 2 6
0.263438 0.396011 -0.480200 42 32 34 40 4
0.263388 0.395497 -0.501714 35 25 26 40 4
0.252887 0.401981 -0.487370 32 21 12 40 4
0.270818 0.379319 -0.471676 35 25 23 40 4
0.255372 0.400695 -0.466153 32 15 9 40 4
0.334886 0.530492 -0.537801 35 31 24 16 3
0.329467 0.520477 -0.504426 42 39 24 16 3
0.321042 0.508780 -0.549926 40 36 25 16 3
-0.009723 0.352920 -0.766346 57 50 37 2 6
-0.019305 0.361178 -0.773390 65 58 33 2 6
-0.007758 0.362508 -0.772941 58 47 30 2 6
0.106584 0.174182 -0.749515 62 48 47 40 7
0.101348 0.157680 -0.745095 57 45 38 40 7
0.106743 0.172307 -0.725676 63 49 46 40 7
0.107853 0.178046 -0.734676 72 57 56 40 7
0.245205 0.427263 -0.444434 41 36 21 16 3
0.248621 0.412134 -0.435501 30 19 10 16 3
0.248806 0.411490 -0.459151 34 18 12 16 3
0.078689 0.217909 -0.418552 29 32 11 0 0
0.064631 0.226414 -0.402290 26 16 19 0 0
0.067309 0.224169 -0.419188 32 27 20 0 0
0.061727 0.234778 -0.396147 26 31 25 0 0
0.326937 0.517651 -0.575738 44 32 22 16 3
0.320372 0.508038 -0.589676 40 31 24 16 3
0.318496 0.414904 -0.613431 37 17 16 40 4
0.301706 0.422295 -0.600236 35 13 12 40 4
0.083611 0.620265 -0.521626 84 75 68 1 12
0.064687 0.624164 -0.533918 88 76 73 1 12
0.045941 0.629926 -0.538049 93 80 72 1 12
0.054882 0.628350 -0.549005 89 75 79 1 12
0.008552 0.491748 -0.782873 113 93 77 2 6
0.015323 0.484100 -0.785318 124 96 80 2 6
-0.015621 0.504175 -0.786950 120 93 71 2 6
0.055331 0.626870 -0.523312 87 73 71 1 12
0.069331 0.627915 -0.558922 91 76 59 1 12
0.255415 0.511237 -0.545676 21 19 21 16 3
0.244698 0.508046 -0.563676 15 14 12 16 3
0.260415 0.506536 -0.522176 26 19 14 16 3
0.247415 0.511911 -0.560676 13 16 19 16 3
0.274193 0.362883 -0.654526 41 19 25 40 4
0.279584 0.373560 -0.653078 42 34 21 40 4
0.283185 0.376363 -0.643275 43 29 19 40 4
0.083376 0.488957 -0.748665 42 32 17 40 4
0.251437 0.512026 -0.614519 18 15 16 16 3
0.247203 0.511281 -0.620753 17 13 22 16 3
0.256734 0.509390 -0.640169 25 18 12 16 3
0.251431 0.511544 -0.643766 17 14 17 16 3
0.259942 0.505380 -0.648060 18 16 16 16 3
0.247515 0.509234 -0.473800 14 9 9 16 3
0.251415 0.511183 -0.464926 12 9 10 16 3
0.110638 0.439811 -0.716009 43 25 22 2 6
-0.007392 0.592046 -0.649676 65 58 53 40 13
-0.003475 0.574046 -0.662676 69 55 49 40 13
-0.004647 0.582046 -0.662676 72 58 48 40 13
0.275415 0.492890 -0.589676 41 35 26 16 3
0.285545 0.487241 -0.633043 66 52 31 16 3
0.294990 0.487469 -0.640493 72 51 36 16 3
0.289854 0.480507 -0.640889 60 50 44 16 3
0.281422 0.482629 -0.641510 48 38 30 16 3
0.301733 0.490380 -0.650986 63 46 46 16 3
0.057375 0.620159 -0.389312 91 87 88 1 12
0.064431 0.619277 -0.376815 47 42 37 1 12
0.069934 0.619344 -0.382589 66 57 52 1 12
0.059842 0.621974 -0.365675 51 43 41 1 12
0.080872 0.613717 -0.370087 81 76 71 1 12
0.010646 0.316002 -0.762213 67 57 41 2 6
0.042020 0.470423 -0.786106 118 100 62 2 6
0.362915 0.568712 -0.432581 61 53 45 16 3
0.343415 0.546740 -0.426676 35 30 25 16 3
0.354046 0.562650 -0.425005 52 45 40 16 3
0.361327 0.567702 -0.418582 56 48 40 16 3
0.110514 0.618849 -0.521737 79 72 78 1 12
0.116373 0.622672 -0.492566 86 77 68 1 12
0.119923 0.630311 -0.520761 84 75 68 1 12
0.122708 0.626065 -0.506129 85 74 78 1 12
0.119875 0.445172 -0.736557 68 49 29 2 6
0.125501 0.456318 -0.740653 57 42 31 2 6
0.137205 0.471877 -0.741831 52 41 26 2 6
0.133148 0.444989 -0.730614 50 37 28 2 6
0.138803 0.457947 -0.733177 57 43 35 2 6
0.273086 0.366046 -0.430176 48 36 27 40 4
0.273525 0.368541 -0.399225 50 47 42 40 4
0.223494 0.212095 -0.759566 129 98 67 40 4
0.239132 0.497416 -0.635608 34 22 17 16 3
0.231820 0.484231 -0.618308 49 37 25 16 3
0.239965 0.498882 -0.591051 35 28 13 16 3
0.240721 0.439509 -0.407003 39 29 31 16 3
0.134916 0.359352 -0.795436 142 101 78 2 6
0.113687 0.363342 -0.794510 97 75 65 2 6
0.077677 0.276235 -0.795955 116 99 75 2 6
0.045415 0.619711 -0.711676 79 73 58 1 12
-0.012585 0.553518 -0.480676 59 47 40 40 13
-0.004385 0.561499 -0.488013 69 65 54 40 13
-0.017377 0.552569 -0.486322 52 41 36 40 13
-0.007910 0.556907 -0.492204 52 46 37 40 13
-0.004945 0.557885 -0.454201 59 54 44 40 13
0.245483 0.353107 -0.698951 68 50 40 40 4
0.257403 0.368321 -0.710578 52 39 18 40 4
0.245668 0.363370 -0.706352 47 36 15 40 4
0.266539 0.366773 -0.696047 47 28 23 40 4
0.256498 0.354583 -0.694451 38 27 16 40 4
0.099313 0.155256 -0.754826 64 43 40 40 7
0.103166 0.177216 -0.777841 72 54 34 40 7
0.417677 0.526008 -0.439176 43 34 21 16 3
0.239455 0.437217 -0.528993 45 32 30 16 3
0.272129 0.380258 -0.522953 39 24 19 40 4
0.274368 0.366854 -0.526862 31 13 9 40 4
0.247234 0.407262 -0.482328 31 24 8 16 3
0.245672 0.424014 -0.464089 48 34 22 16 3
0.243392 0.430015 -0.483207 44 33 22 16 3
0.243457 0.420897 -0.487782 37 26 12 16 3
0.275391 0.482349 -0.662928 37 19 16 16 3
0.278464 0.486085 -0.651775 54 26 39 16 3
0.116767 0.454928 -0.789236 120 98 73 2 6
-0.004696 0.562486 -0.588876 90 82 74 40 13
-0.002531 0.570046 -0.558676 89 82 84 40 13
-0.004053 0.560169 -0.559833 91 84 89 40 13
-0.008457 0.557731 -0.581964 94 78 71 40 13
-0.003546 0.566046 -0.588676 93 85 72 40 13
-0.003389 0.572046 -0.589176 93 85 72 40 13
0.245043 0.377902 -0.720691 47 31 18 40 4
0.071432 0.216623 -0.435241 33 29 17 0 0
0.071528 0.214564 -0.451119 37 30 20 0 0
