ply
format ascii 1.0
element vertex 1111
property float x
property float y
property float z
property uchar red
property uchar green
property uchar blue
property uchar semantic_label
property uchar instance_label
end_header
0.488965 0.001862 -0.312726 135 95 67 5 4
0.476221 -0.021242 -0.312109 97 77 64 5 4
0.090052 0.108072 -0.014233 131 122 112 7 7
0.602218 0.544749 0.484414 156 156 146 1 6
0.020296 0.250201 -0.011868 148 138 126 7 7
0.391153 0.532305 -0.099229 174 167 162 1 6
0.394047 0.525872 -0.106525 169 163 156 1 6
0.373293 0.532380 -0.100536 167 161 154 1 6
0.021591 0.193467 -0.319146 135 119 118 5 5
0.017215 0.178947 -0.302860 133 118 114 5 5
0.005020 0.172140 -0.312424 137 120 119 5 5
0.013281 0.180409 -0.309607 115 100 98 5 5
0.024194 0.190372 -0.306403 110 98 99 0 0
0.025418 0.166392 -0.303684 117 108 106 5 5
0.004892 0.178386 -0.302954 112 101 100 5 5
0.010868 0.158153 -0.298139 134 122 121 5 5
0.606245 0.529869 -0.113435 172 163 161 1 6
0.615188 0.526316 -0.108106 173 164 162 1 6
0.598522 0.529675 -0.098549 170 162 160 1 6
0.595553 0.528980 -0.108073 171 163 161 1 6
0.620943 0.530471 -0.100885 172 164 162 1 6
0.415569 0.541978 0.301364 180 178 169 1 6
0.409955 0.541008 0.312209 182 177 168 1 6
0.402287 0.545256 0.324924 183 177 169 1 6
0.268501 0.542161 0.059426 163 120 92 1 6
0.295637 0.544568 0.043774 165 130 101 1 6
0.267648 0.541266 0.045258 164 126 98 1 6
0.628409 0.528843 0.032145 185 179 175 1 6
-0.212117 0.503256 0.107787 122 99 87 1 6
-0.199582 0.493329 0.110422 141 120 108 1 6
-0.188327 0.486953 0.103638 137 104 83 5 5
-0.202887 0.515950 0.112375 131 113 105 1 6
0.090657 0.109480 -0.302958 97 71 54 5 5
0.084217 0.102250 -0.304668 79 54 39 5 5
0.103891 0.102801 -0.300894 95 68 51 5 5
0.171333 -0.024275 -0.014749 116 107 97 7 7
0.434396 -0.042309 -0.337796 71 51 35 5 4
0.442820 -0.022421 -0.355746 71 51 38 5 4
0.530458 0.530791 -0.021367 184 180 177 1 6
0.520501 0.531657 0.012385 184 180 178 1 6
-0.097249 0.507436 -0.069910 113 98 87 5 5
-0.089744 0.524353 -0.072251 96 78 69 5 5
0.421234 0.538591 0.353700 182 177 170 1 6
0.411520 0.542817 0.372522 179 176 167 1 6
0.427079 0.541114 0.369773 180 176 168 1 6
0.404554 0.540546 0.355485 181 176 169 1 6
0.430324 0.543052 0.362236 181 178 170 1 6
0.403816 0.550070 0.365758 180 175 167 1 6
0.427046 0.551758 0.384111 181 177 169 1 6
0.402731 0.543115 0.361638 181 176 169 1 6
0.147635 0.443046 0.038628 108 88 74 5 5
0.135845 0.445334 0.047941 98 75 59 5 5
0.166642 0.449144 0.060949 115 99 82 1 6
0.044430 0.548186 0.313890 198 192 182 1 6
0.550747 0.530918 -0.070692 183 176 175 1 6
0.541544 0.531954 -0.040877 181 174 172 1 6
0.562357 0.295852 -0.016161 147 138 130 7 7
0.558590 0.283465 -0.013002 147 138 130 7 7
0.560384 0.318595 -0.026099 156 147 138 7 7
-0.020825 0.566915 0.377944 213 209 201 1 6
-0.022240 0.564132 0.363903 208 205 195 1 6
0.318590 -0.056988 -0.015607 102 93 83 7 7
0.341712 -0.069255 -0.015802 102 92 82 7 7
-0.255672 0.563231 0.475692 204 200 193 1 6
0.259374 0.548390 0.051483 181 147 124 1 6
0.264319 0.545684 0.037011 205 178 159 1 6
0.050166 0.559655 0.552710 232 231 221 1 6
0.890671 0.082584 -0.049799 89 77 73 5 4
0.887652 0.087593 -0.039476 83 72 66 5 4
0.884913 0.085461 -0.062214 83 72 68 5 4
0.098626 -0.080364 -0.343134 81 49 30 5 2
0.095026 -0.057242 -0.333591 58 39 24 5 2
0.090717 -0.053912 -0.328776 40 27 17 5 2
0.097995 -0.070687 -0.327609 62 41 27 5 2
0.011866 0.021248 -0.309920 74 52 39 5 5
-0.157610 0.474021 0.043451 130 97 73 5 5
-0.154297 0.475811 0.053843 131 98 74 5 5
-0.000327 0.514706 0.003390 90 74 73 5 5
-0.039300 0.517552 -0.062606 105 90 82 5 5
0.656211 0.004625 -0.015594 98 87 78 7 7
0.498506 0.307105 -0.017284 143 132 126 7 7
0.437829 0.301275 -0.014852 142 134 126 7 7
0.616192 0.306932 -0.022282 254 251 245 7 7
0.605431 0.320737 -0.029690 250 246 241 7 7
0.422924 0.543635 0.344235 182 178 168 1 6
0.409001 0.543172 0.333073 184 179 170 1 6
0.661897 0.069757 -0.017029 100 90 78 7 7
0.643174 0.044157 -0.014942 102 90 79 7 7
0.674843 0.056071 -0.032490 106 93 83 7 7
-0.240673 0.550062 0.108057 130 122 113 1 6
-0.248598 0.550179 0.125693 178 178 173 1 6
0.241268 0.010496 -0.015157 119 108 98 7 7
0.786138 0.522136 0.064705 182 175 172 1 6
0.619828 0.086780 -0.015723 103 93 83 7 7
0.646922 0.085770 -0.014544 103 91 80 7 7
0.621303 0.110107 -0.016689 107 95 86 7 7
0.670642 0.518504 0.464013 171 166 156 1 6
0.649271 0.516219 0.462548 171 167 156 1 6
0.661409 0.516736 0.456145 172 165 156 1 6
0.621092 0.524772 0.470505 169 163 154 1 6
0.626370 0.518848 0.454814 171 164 155 1 6
0.650610 0.516480 0.451916 169 163 156 1 6
0.658201 0.516307 0.478788 169 163 154 1 6
0.474924 0.528859 0.185347 191 184 179 1 6
0.127856 0.503502 -0.076091 133 115 103 5 5
0.113958 0.491177 -0.072108 161 142 131 5 5
0.133708 0.513653 -0.070168 151 136 128 5 5
0.782283 0.517972 0.196320 179 174 167 1 6
0.124411 0.496843 -0.067565 135 123 118 5 5
0.122404 0.502396 -0.063089 149 133 126 5 5
0.121534 0.517174 -0.064386 174 156 151 5 5
0.174615 0.510370 -0.080175 110 100 94 5 5
0.172940 0.517520 -0.067636 120 109 102 5 5
0.178248 0.515850 -0.074585 121 110 103 5 5
0.197599 0.517488 -0.069945 188 170 160 5 5
0.168460 0.531428 -0.085632 181 159 147 5 5
0.175096 0.523229 -0.082451 157 143 133 5 5
0.182822 0.536472 -0.090279 164 148 137 5 5
0.182289 0.522968 -0.090724 137 126 117 5 5
0.101125 0.027356 -0.013879 127 117 109 7 7
-0.224749 0.568328 0.522866 218 214 206 1 6
-0.224593 0.570798 0.508857 237 232 220 1 6
-0.206211 0.568218 0.522745 236 233 223 1 6
0.093516 0.545442 0.129989 166 164 154 1 6
0.088837 0.545721 0.166355 176 175 161 1 6
0.042904 0.545645 0.133740 180 178 165 1 6
0.068044 0.544463 0.160230 178 176 165 1 6
0.406664 0.564651 0.407714 211 206 195 1 6
0.415940 0.549751 0.397439 181 176 167 1 6
0.418265 0.563246 0.406570 211 206 196 1 6
0.860656 0.118388 -0.097121 238 229 231 5 4
0.413085 0.544377 0.390305 181 176 167 1 6
0.401850 0.553570 0.382725 182 178 170 1 6
0.422811 0.554210 0.393715 196 192 180 1 6
0.404322 0.551920 0.394011 184 180 170 1 6
0.403991 0.560180 0.396283 184 180 170 1 6
-0.007332 0.029576 -0.383509 47 33 29 5 5
0.550912 0.229037 -0.014117 144 133 125 7 7
0.606902 0.275623 -0.012318 151 140 131 7 7
0.606646 0.245040 -0.012096 149 139 131 7 7
0.071334 0.490710 0.001027 102 88 80 5 5
0.589017 0.007335 -0.329397 114 85 66 5 4
0.572750 -0.011523 -0.324144 119 94 78 5 4
0.395626 0.574976 0.512735 243 236 228 1 6
0.411711 0.567468 0.527685 243 236 227 1 6
0.391999 0.572551 0.535524 242 236 229 1 6
-0.064425 0.520400 0.589015 206 200 194 1 6
-0.062319 0.516859 0.601113 207 200 194 1 6
-0.055570 0.511965 0.603126 209 201 195 1 6
-0.081680 0.522356 0.597005 206 198 194 1 6
-0.062719 0.521405 0.596102 207 200 194 1 6
-0.070021 0.521100 0.578819 206 200 193 1 6
-0.043404 0.528337 0.584339 206 200 194 1 6
0.769272 0.519574 0.147569 183 176 171 1 6
0.772834 0.521048 0.177134 182 176 169 1 6
0.031440 0.365639 -0.019518 138 124 112 7 7
0.027969 0.340795 -0.012389 120 105 93 7 7
-0.020101 -0.011396 -0.328662 65 48 40 5 5
-0.004600 -0.006798 -0.347926 49 37 30 5 5
0.004384 -0.018544 -0.339912 67 49 43 5 5
0.000616 -0.025987 -0.329427 67 49 43 5 5
-0.005719 -0.020106 -0.349045 40 28 20 5 2
-0.006788 -0.023206 -0.354315 51 37 30 5 2
0.000055 -0.018160 -0.325138 79 60 53 5 5
0.007184 -0.023591 -0.328626 77 58 50 5 5
-0.010333 -0.022260 -0.332509 83 64 58 5 5
0.012236 -0.028800 -0.335375 71 52 46 5 2
0.002419 -0.037406 -0.336358 68 50 44 5 2
-0.005740 -0.011961 -0.342659 47 35 25 5 5
-0.010462 -0.024883 -0.338274 63 48 42 5 2
-0.019348 0.010195 -0.352592 54 41 34 5 5
0.914940 0.045864 0.021911 72 55 47 5 4
0.912582 0.044693 0.009408 85 70 65 5 4
0.330700 0.535790 0.249942 178 176 168 1 6
0.796919 0.134746 -0.319417 120 104 93 5 4
0.778533 0.128286 -0.327244 113 96 87 5 4
0.776568 0.112398 -0.322785 65 50 43 5 4
0.303444 0.561827 0.400912 210 208 196 1 6
0.307932 0.562707 0.423437 188 185 175 1 6
-0.209347 0.486422 0.102465 114 86 68 5 5
0.517977 0.287274 -0.012698 146 137 128 7 7
-0.063189 0.564628 0.358168 206 203 196 1 6
0.733729 0.027346 -0.342482 96 67 49 5 4
0.742941 0.014944 -0.342583 116 86 62 5 4
0.783251 0.520826 0.128681 180 176 169 1 6
0.070061 0.539627 0.558468 216 208 201 1 6
0.063925 0.556098 0.550873 234 231 220 1 6
0.084636 0.538872 0.563345 218 210 203 1 6
0.057927 0.547713 0.557249 217 212 203 1 6
0.054589 0.548244 0.564800 223 222 211 1 6
0.086685 0.461517 0.045719 99 76 58 5 5
0.591101 0.529319 0.401139 185 177 170 1 6
0.594524 0.531004 0.375347 182 175 168 1 6
0.615661 0.531999 0.383882 187 179 170 1 6
0.609517 0.536472 0.398724 185 177 170 1 6
0.591470 0.524078 0.408665 185 177 171 1 6
0.603070 0.533113 0.392103 180 176 168 1 6
0.599403 0.540994 0.384518 157 156 145 1 6
0.598840 0.543292 0.403410 169 167 157 1 6
0.604568 0.546683 0.398733 157 157 147 1 6
0.586337 0.537996 0.405400 169 167 159 1 6
0.608053 0.539302 0.411506 155 156 144 1 6
0.603682 0.532437 0.401025 181 178 169 1 6
0.595267 0.545572 0.413661 155 155 144 1 6
0.592747 0.537011 0.416915 178 171 162 1 6
0.610636 0.549880 0.412616 161 160 150 1 6
0.614347 -0.013906 -0.016168 101 88 79 7 7
0.110081 -0.028209 -0.389074 86 62 44 5 5
0.647529 0.525596 0.418535 180 174 166 1 6
0.634125 0.519266 0.438058 181 175 166 1 6
0.636789 0.525084 0.428720 182 175 167 1 6
0.624609 0.520085 0.422154 182 175 167 1 6
0.494099 -0.028390 -0.315481 122 102 88 5 4
0.495735 -0.048339 -0.315102 124 101 91 5 4
0.291242 0.559829 0.420543 181 178 168 1 6
0.314436 0.570771 0.443817 242 239 228 1 6
0.449170 0.534080 0.016228 186 183 180 1 6
0.431541 0.533615 -0.006084 185 180 178 1 6
0.046608 -0.019173 -0.319451 78 54 32 5 5
0.886919 0.169058 -0.139917 182 175 165 5 4
0.925431 0.107974 0.084359 54 36 27 5 4
0.915345 0.116689 0.061894 54 37 26 5 4
0.641953 0.527173 -0.050793 178 171 168 1 6
0.421331 0.084155 -0.015482 122 111 101 7 7
0.607565 0.528583 -0.047419 179 171 171 1 6
0.173462 0.543103 0.176432 175 172 162 1 6
0.215460 0.541396 0.166242 174 172 164 1 6
0.299388 0.105396 -0.015303 133 125 114 7 7
0.412519 0.022894 -0.016528 117 106 97 7 7
0.400943 0.041759 -0.016092 121 110 100 7 7
-0.161334 0.549991 -0.058327 105 96 92 1 6
0.139834 -0.075029 -0.014692 117 107 96 7 7
0.188351 -0.079903 -0.015003 116 107 96 7 7
0.797669 0.107381 -0.324088 144 122 111 5 4
0.803154 0.095999 -0.299848 84 58 40 5 4
0.737140 0.520504 0.187578 182 177 170 1 6
0.505491 0.527688 -0.106197 173 166 164 1 6
0.496372 0.526592 -0.104884 174 167 164 1 6
0.369260 0.522962 -0.100791 209 197 186 1 6
0.348815 0.531015 -0.100251 142 130 122 1 6
0.365535 0.531825 -0.094050 173 164 157 1 6
0.356382 0.522855 -0.099357 167 157 150 1 6
0.212415 0.501509 0.056113 156 117 89 1 6
0.215811 0.490423 0.053293 173 135 104 1 6
0.208563 0.509298 0.063670 155 114 86 1 6
0.206465 0.508356 0.040581 160 119 81 1 6
0.362296 0.571483 0.465404 241 236 227 1 6
0.372000 0.566257 0.454327 241 237 227 1 6
0.385921 0.571909 0.469614 242 237 228 1 6
0.381025 0.565619 0.443461 241 237 226 1 6
0.309839 0.000146 -0.015633 118 109 98 7 7
0.722811 0.524990 -0.047326 183 174 172 1 6
0.632757 0.103411 -0.330090 123 85 58 5 4
0.656307 0.112962 -0.328297 139 102 77 5 4
0.624569 0.094509 -0.329499 131 94 68 5 4
0.476375 0.560893 0.453765 242 238 228 1 6
0.471813 0.573929 0.477171 241 238 226 1 6
0.478114 0.572572 0.468850 241 238 226 1 6
0.579974 0.560999 0.378689 238 231 223 1 6
0.574916 0.558997 0.387968 226 221 211 1 6
0.586167 0.553586 0.377802 238 231 224 1 6
0.578818 0.540786 0.376963 197 192 185 1 6
0.592345 0.545603 0.383731 194 188 180 1 6
-0.200272 0.549805 0.156877 190 190 183 1 6
0.664566 0.522836 -0.086649 177 168 167 1 6
0.667400 0.526806 -0.062125 178 172 169 1 6
0.644888 0.526993 -0.075708 176 169 166 1 6
0.669178 0.526233 -0.074866 179 171 169 1 6
0.668964 0.000617 -0.034775 133 121 114 7 7
0.672405 -0.016587 -0.033594 140 129 123 7 7
0.077849 -0.023437 -0.319833 91 62 42 5 5
0.094766 -0.025658 -0.336302 92 65 40 5 5
0.094735 -0.045472 -0.335016 41 27 16 5 2
-0.043817 0.320524 -0.280968 46 35 28 0 0
0.658439 -0.034097 -0.017070 88 76 65 7 7
0.652857 -0.059721 -0.015528 92 81 73 7 7
0.378467 0.126309 -0.015397 133 124 114 7 7
0.084700 0.367794 -0.023485 129 118 110 7 7
-0.028621 0.083887 -0.309503 147 126 123 5 5
-0.032340 0.108009 -0.311636 135 119 117 5 5
-0.051419 0.097133 -0.307599 76 59 53 5 5
0.244797 0.550846 0.351012 178 175 167 1 6
0.247864 0.553621 0.381975 179 175 168 1 6
0.184681 0.466668 0.100958 124 102 91 1 6
0.525649 0.075684 -0.318538 119 82 59 5 4
0.516831 0.045099 -0.317807 122 86 63 5 4
0.540621 0.040195 -0.324099 125 90 69 5 4
0.532422 0.025709 -0.324500 126 91 68 5 4
0.060759 0.040686 -0.013838 127 119 108 7 7
0.028888 0.559384 0.342805 212 210 199 1 6
0.009346 0.555695 0.340087 196 196 188 1 6
0.030415 0.554256 0.335525 194 193 184 1 6
0.021927 0.546863 0.311954 195 191 184 1 6
0.040530 0.550228 0.325136 198 194 185 1 6
0.710617 0.527184 0.099011 185 178 173 1 6
0.718654 0.524145 0.115205 184 179 175 1 6
0.016061 0.563597 0.440018 215 210 200 1 6
0.015099 0.566054 0.422010 213 209 199 1 6
0.041216 0.559307 0.432967 215 212 201 1 6
0.259230 -0.149622 -0.015029 100 91 80 7 7
0.000628 -0.014126 -0.013931 125 116 106 7 7
-0.226161 0.547501 0.211745 192 192 186 1 6
0.564921 0.028686 -0.015695 106 93 83 7 7
0.554109 -0.001777 -0.015908 104 93 84 7 7
-0.008030 0.484741 0.061360 124 108 102 5 5
-0.011275 0.487344 0.078501 131 117 109 5 5
-0.142013 0.287121 -0.325016 46 31 23 0 0
-0.137675 0.270614 -0.327951 47 31 24 0 0
-0.107685 0.278441 -0.324892 46 32 23 0 0
-0.141109 0.258497 -0.325176 46 30 23 0 0
-0.126968 0.293833 -0.328587 44 29 20 0 0
0.241712 0.534898 -0.028538 151 130 119 1 6
0.225740 0.527770 -0.021102 149 124 112 1 6
0.216111 0.535220 -0.021061 184 161 145 5 5
0.221372 0.521043 -0.009857 202 181 166 1 6
0.215097 0.525924 -0.036896 201 184 174 5 5
0.211591 0.530425 -0.029874 213 199 190 5 5
0.197917 0.527438 -0.022684 124 112 102 5 5
0.211766 0.523806 -0.006570 200 179 166 7 7
0.216904 0.523890 -0.015163 186 162 151 5 5
0.153680 0.486966 0.111881 141 124 113 1 6
0.108330 0.481877 0.108276 94 70 55 1 6
0.127339 0.486528 0.111682 94 70 56 1 6
0.136980 0.502153 0.113135 150 136 126 1 6
-0.097912 0.162342 -0.010747 139 129 118 7 7
-0.066416 0.565846 0.431883 208 205 199 1 6
-0.066163 0.563874 0.443529 206 202 194 1 6
0.546848 0.048293 -0.322657 120 83 59 5 4
0.556373 0.075467 -0.324799 123 86 63 5 4
0.541983 0.066348 -0.321108 111 75 52 5 4
0.559495 0.060991 -0.325688 121 84 63 5 4
0.573942 0.056228 -0.321945 123 85 62 5 4
0.631749 0.525774 0.163374 183 180 173 1 6
0.171226 0.538861 0.125689 170 168 159 1 6
0.195098 0.540721 0.126391 172 169 160 1 6
0.192630 0.532542 0.117050 173 167 160 1 6
0.934658 0.049530 0.088569 45 30 23 5 4
0.567148 -0.034273 -0.015627 97 87 76 7 7
0.394901 0.532307 0.273095 182 179 169 1 6
0.170038 0.061307 -0.014496 129 120 111 7 7
0.140080 -0.186884 -0.329769 40 29 23 5 2
0.137953 -0.205171 -0.323698 51 37 30 5 2
0.142015 -0.190679 -0.323523 63 48 41 5 2
0.137559 -0.200479 -0.328277 51 38 31 5 2
0.273302 0.535506 0.175243 178 174 167 1 6
0.656354 0.526429 0.400599 179 173 164 1 6
0.666124 0.529401 0.409304 181 174 166 1 6
0.669086 0.520825 0.393694 182 174 166 1 6
0.662301 0.517938 0.408197 181 174 167 1 6
0.654956 0.533831 0.412235 176 171 162 1 6
0.670062 0.514182 0.376620 180 173 164 1 6
0.340704 0.243913 -0.014718 135 126 116 7 7
0.519454 0.531428 0.288936 187 183 174 1 6
0.534763 0.529147 0.287754 186 182 173 1 6
0.511847 0.533361 0.306646 187 183 173 1 6
0.520801 0.529320 0.312278 188 181 173 1 6
0.548195 0.531339 0.313153 189 183 174 1 6
0.248466 0.539455 -0.059813 182 159 143 1 6
0.235796 0.536182 -0.067233 175 152 137 1 6
0.260815 0.541154 -0.063831 184 162 145 1 6
0.073572 0.559331 0.400691 211 204 195 1 6
0.187853 0.560964 0.407979 220 215 205 1 6
0.196894 0.563269 0.439703 222 217 208 1 6
0.197919 0.562498 0.424689 227 222 213 1 6
0.467110 -0.112665 -0.015173 96 86 75 7 7
0.428985 -0.139842 -0.015923 96 86 78 7 7
-0.048918 0.490467 -0.036547 72 54 46 5 5
-0.049567 0.505101 -0.047580 100 88 80 5 5
-0.049453 0.492362 -0.045294 83 68 60 5 5
-0.036617 0.487063 -0.062098 75 58 47 5 5
-0.070249 0.492211 -0.056233 102 88 81 5 5
-0.038469 0.511320 -0.067504 95 83 76 5 5
0.127623 -0.184949 -0.317412 65 50 44 5 2
0.096104 -0.208217 -0.313298 44 33 25 5 2
0.578563 0.530312 -0.109322 172 165 162 1 6
0.499993 0.516192 0.565064 174 171 162 1 6
0.182064 0.544300 0.238782 174 171 161 1 6
0.209395 0.541211 0.254820 175 172 163 1 6
-0.065995 0.198029 -0.011153 141 134 122 7 7
-0.067705 0.529200 0.570664 207 200 191 1 6
-0.062684 0.552014 0.577302 201 195 188 1 6
0.127766 -0.262685 -0.154505 121 93 77 7 7
0.140050 -0.268228 -0.156770 104 78 60 7 7
0.453912 -0.088526 -0.314586 75 56 48 5 4
0.441875 -0.095657 -0.316659 80 61 56 5 4
0.440450 -0.118448 -0.321264 78 58 53 5 4
-0.214950 0.502315 0.098980 95 70 55 5 5
-0.210649 0.481567 0.073273 127 95 75 5 5
-0.212890 0.503086 0.073790 92 66 53 5 5
-0.213705 0.484592 0.089910 133 98 77 5 5
-0.197263 0.480762 0.088975 140 105 84 5 5
0.419521 0.530494 0.146151 188 183 178 1 6
0.414112 0.532718 0.133720 186 183 179 1 6
0.431004 0.530279 0.241504 185 180 174 1 6
0.440955 0.531855 0.252241 184 181 173 1 6
0.434315 0.533232 0.233064 188 182 175 1 6
0.440175 0.531590 0.265306 185 180 174 1 6
0.178170 0.545990 0.260047 176 175 164 1 6
0.176183 0.544436 0.284006 174 172 162 1 6
0.176013 0.544949 0.275795 176 176 166 1 6
0.479973 0.179947 -0.013945 138 128 119 7 7
0.477771 0.162668 -0.015372 128 118 108 7 7
0.571053 0.529993 -0.073042 175 166 164 1 6
0.590546 0.526990 -0.088296 173 164 165 1 6
0.409285 0.533459 0.111100 185 181 176 1 6
0.396276 0.533216 0.108066 186 183 177 1 6
-0.065707 0.191487 -0.312242 94 81 76 5 5
-0.011923 0.521801 0.575155 210 204 196 1 6
-0.001731 0.519397 0.575112 207 200 194 1 6
0.019762 0.517140 0.572913 208 200 194 1 6
0.018202 0.534716 0.563817 210 203 195 1 6
0.077898 0.563099 0.444720 217 214 203 1 6
0.056686 0.561484 0.463102 225 221 211 1 6
-0.210790 0.559286 0.442089 200 197 191 1 6
-0.223635 0.560448 0.426514 202 198 191 1 6
-0.229358 0.554632 0.421486 199 196 189 1 6
0.841315 0.013403 -0.276127 228 212 209 5 4
0.505607 0.541045 0.405138 181 177 168 1 6
0.484489 0.563872 0.405848 241 237 226 1 6
0.468989 0.563093 0.415275 241 237 226 1 6
0.496508 0.561246 0.414210 200 199 187 1 6
0.498342 0.553488 0.399428 186 180 169 1 6
0.494712 0.546021 0.396970 185 179 169 1 6
0.488950 0.540040 0.399114 185 179 168 1 6
0.499936 0.541192 0.398538 183 178 166 1 6
0.503426 0.549160 0.386594 196 191 180 1 6
0.482768 0.536555 0.384757 184 178 168 1 6
0.483602 0.554761 0.391869 189 183 173 1 6
0.491930 0.552337 0.386698 197 192 183 1 6
0.479270 0.537976 0.392008 185 178 168 1 6
0.490765 0.532110 0.389108 184 178 169 1 6
-0.240176 0.552943 -0.064548 105 99 92 1 6
-0.256167 0.552768 -0.089661 121 111 100 1 6
-0.260326 0.555998 -0.080016 104 97 92 1 6
-0.242283 0.554915 -0.079020 104 97 90 1 6
0.662838 0.238912 -0.014253 153 142 135 7 7
0.651970 0.256854 -0.011863 147 137 131 7 7
0.655409 0.215155 -0.013836 140 129 122 7 7
0.362012 0.536556 -0.016193 180 176 172 1 6
0.366464 0.538957 -0.034474 173 167 161 1 6
0.281119 0.545869 -0.020323 196 173 159 1 6
0.266637 0.541754 -0.017841 172 142 116 1 6
0.291059 0.545859 -0.002205 202 182 169 1 6
-0.152258 0.331768 -0.005552 131 120 106 7 7
-0.155441 0.312689 -0.007077 130 119 105 7 7
0.580289 0.538346 0.444821 178 172 162 1 6
0.583599 0.547480 0.444496 162 160 151 1 6
0.571042 0.560262 0.420033 202 200 190 1 6
0.571863 0.560685 0.444376 244 238 229 1 6
0.577777 0.558594 0.435156 243 238 227 1 6
0.582504 0.541998 0.432366 156 155 144 1 6
0.596187 0.542248 0.430333 158 158 146 1 6
0.587119 0.543950 0.423730 170 167 158 1 6
0.586668 0.549601 0.420551 157 158 147 1 6
0.576556 0.543933 0.417058 169 166 159 1 6
0.586369 0.544783 0.433511 171 167 156 1 6
0.191490 0.450841 0.034540 134 119 106 1 6
0.218402 0.471353 0.054030 132 118 104 1 6
0.214674 0.480363 0.023846 187 164 147 1 6
0.697309 0.517497 0.284587 181 174 165 1 6
0.885757 0.025402 -0.081346 109 96 92 5 4
0.893364 0.023906 -0.050351 89 77 71 5 4
-0.109153 0.545857 0.290708 200 197 190 1 6
0.349910 0.272551 -0.014087 136 128 117 7 7
-0.078433 0.493396 0.076899 112 83 61 5 5
-0.104883 0.482150 0.051108 117 87 63 5 5
-0.059751 0.177078 -0.304422 152 137 136 5 5
-0.073963 0.157439 -0.306422 134 118 112 5 5
0.583670 0.531671 0.021328 183 178 176 1 6
0.518432 -0.022983 -0.319512 124 99 84 5 4
0.664297 0.527376 -0.044392 179 172 171 1 6
0.320995 0.535469 0.132098 181 178 170 1 6
0.311330 0.533790 0.146576 181 178 170 1 6
0.868777 0.088618 -0.120492 181 146 134 5 4
0.874971 0.065786 -0.118515 167 127 112 5 4
0.862770 0.086535 -0.130968 190 153 141 5 4
0.882040 0.074458 -0.087709 178 148 136 5 4
0.472872 0.245870 -0.013920 145 134 126 7 7
0.450585 0.256098 -0.013393 140 132 123 7 7
0.800017 0.520934 0.043397 186 178 176 1 6
-0.061603 0.591940 0.579883 181 175 168 1 6
-0.056139 0.596363 0.592046 176 176 167 1 6
-0.061407 0.582137 0.571565 181 175 168 1 6
-0.066665 0.595717 0.591459 178 176 167 1 6
-0.051601 0.606412 0.598397 178 175 168 1 6
-0.062810 0.594297 0.597275 178 175 167 1 6
-0.079663 0.590536 0.600775 179 175 168 1 6
-0.125213 0.545500 0.274597 201 197 191 1 6
-0.147167 0.546710 0.266035 198 196 190 1 6
-0.159507 0.544588 0.281084 198 197 190 1 6
-0.145007 0.587180 0.579731 208 202 193 1 6
-0.160662 0.578551 0.572758 220 217 205 1 6
-0.158563 0.588843 0.597888 205 203 193 1 6
-0.166173 0.586336 0.581529 205 202 193 1 6
-0.110997 0.545796 0.329638 195 195 188 1 6
-0.103689 0.551261 0.335006 199 199 193 1 6
0.790899 0.509385 0.230228 182 175 168 1 6
0.791187 0.513007 0.219748 180 173 167 1 6
0.141111 0.555256 0.361773 187 186 176 1 6
0.161447 0.557008 0.372249 189 186 177 1 6
-0.093680 0.552987 0.580382 201 195 191 1 6
-0.123425 0.540899 0.568395 204 198 193 1 6
-0.079256 0.536904 0.568985 205 199 193 1 6
-0.103678 0.537801 0.571633 205 199 193 1 6
-0.112696 0.552930 0.575909 201 195 191 1 6
-0.139072 0.574096 0.534687 233 230 218 1 6
-0.142713 0.567579 0.519432 233 229 218 1 6
0.244881 0.544704 -0.009331 189 156 130 1 6
0.248783 0.539813 -0.021828 196 175 159 1 6
0.253638 0.538944 -0.036234 216 200 190 1 6
0.444895 0.116482 -0.014748 127 116 105 7 7
0.434479 -0.100625 -0.324293 80 59 50 5 4
-0.257459 0.551102 0.145791 192 191 187 1 6
-0.225864 0.549104 0.140509 187 189 183 1 6
0.122467 0.425579 -0.045297 92 78 68 7 7
0.130318 0.443505 -0.050163 96 82 74 7 7
0.123490 0.433981 -0.043824 101 88 80 7 7
0.114831 0.431399 -0.040800 97 83 75 7 7
0.113426 0.410505 -0.044731 138 122 111 7 7
-0.141151 0.544936 0.306376 195 193 186 1 6
-0.104515 0.543272 0.317430 194 194 185 1 6
0.108225 0.546853 0.162093 181 177 167 1 6
0.839850 0.069340 -0.229116 89 64 52 5 4
0.845574 0.060013 -0.231087 73 51 40 5 4
0.706273 -0.008554 -0.344324 124 89 66 5 4
-0.148469 0.508163 -0.059826 133 119 108 5 5
-0.166562 0.500109 -0.062467 57 41 32 5 5
-0.166895 0.506114 -0.033425 80 63 57 5 5
-0.165629 0.498162 -0.032893 105 86 77 5 5
-0.156388 0.513490 -0.034083 146 133 126 5 5
-0.160373 0.512740 -0.050970 76 56 50 5 5
-0.169813 0.501857 -0.045341 57 41 33 5 5
-0.151479 0.516826 -0.046197 66 47 43 5 5
0.085895 -0.248413 -0.354866 50 33 24 5 2
0.151596 0.010920 -0.304074 70 50 34 5 5
0.157582 -0.002177 -0.307735 64 43 23 5 5
0.156173 0.041902 -0.305291 72 48 34 5 5
-0.203123 0.495546 -0.005708 64 45 34 5 5
0.173418 0.387916 -0.041910 211 198 188 7 7
0.178063 0.372811 -0.038108 209 200 189 7 7
0.187567 0.397699 -0.035650 181 166 158 7 7
0.187196 0.395255 -0.039747 200 181 168 7 7
0.457307 0.026627 -0.384928 74 51 42 5 4
0.463975 0.011598 -0.386462 83 61 47 5 4
0.734059 0.524317 -0.023863 183 174 173 1 6
-0.199096 0.445935 -0.045820 91 72 61 5 5
-0.210251 0.462351 -0.037202 55 38 30 5 5
-0.186783 0.450503 -0.052625 160 138 124 5 5
-0.206672 0.464639 -0.046695 83 65 57 5 5
0.082306 0.546522 0.189614 183 180 171 1 6
0.069948 0.543486 0.223284 187 184 173 1 6
0.055497 0.544707 0.201331 186 183 174 1 6
-0.163239 0.557972 0.399006 202 198 193 1 6
-0.158904 0.562051 0.413132 197 197 190 1 6
-0.129647 0.566904 0.412126 201 199 194 1 6
-0.155523 0.565403 0.391818 203 200 193 1 6
-0.143058 0.568108 0.381932 216 214 205 1 6
-0.152070 0.560927 0.400411 204 202 194 1 6
0.169079 0.482684 -0.052562 125 113 102 5 5
0.140631 0.467414 -0.045404 112 99 90 5 5
0.167638 0.494528 -0.059560 110 97 89 5 5
0.172650 0.476590 -0.042579 117 108 96 5 5
0.161203 0.477481 -0.057538 104 91 83 5 5
0.183774 0.473264 -0.057021 111 99 90 7 7
0.176078 0.470691 -0.060079 113 101 92 7 7
0.156417 0.484071 -0.038750 115 103 91 5 5
0.174553 0.485122 -0.056699 133 122 113 5 5
0.181900 0.480250 -0.047497 131 122 113 7 7
0.164405 0.468301 -0.050562 104 94 85 5 5
0.163253 0.478047 -0.048027 119 106 95 5 5
0.170060 0.483032 -0.033677 118 107 97 5 5
0.571599 0.524316 0.209959 187 185 175 1 6
0.566426 0.526223 0.195190 190 185 176 1 6
0.830566 0.112233 -0.178327 117 105 102 5 4
0.838210 0.115755 -0.164478 114 102 98 5 4
0.611434 0.525596 0.441835 168 166 155 1 6
0.622953 0.517740 0.439457 181 175 166 1 6
0.591371 0.534336 0.431641 175 172 161 1 6
0.599611 0.530964 0.441114 183 175 169 1 6
0.604579 0.525973 0.409858 186 177 169 1 6
0.587381 0.531212 0.446420 182 176 169 1 6
0.586043 0.525318 0.424900 184 178 171 1 6
0.614312 0.520306 0.422464 182 174 167 1 6
0.587627 0.535294 0.420389 177 172 163 1 6
0.235115 -0.154762 -0.014664 98 88 77 7 7
-0.044217 0.318587 -0.291761 64 47 40 0 0
-0.049324 0.314571 -0.316344 42 30 25 0 0
-0.036841 0.313163 -0.309951 63 45 38 0 0
-0.040404 0.314713 -0.299244 42 31 26 0 0
-0.054346 0.314950 -0.302795 42 31 26 0 0
-0.049152 0.307861 -0.305808 42 31 25 0 0
-0.018328 0.318138 -0.306951 63 45 38 0 0
-0.038406 0.317644 -0.319315 42 30 25 0 0
-0.025541 0.315357 -0.321130 64 46 38 0 0
-0.202379 0.547190 0.202910 193 193 185 1 6
0.043032 0.490701 -0.062107 109 97 89 5 5
0.065102 0.508833 -0.063646 118 104 99 5 5
0.053561 0.507410 -0.050664 111 96 91 5 5
0.042855 0.500903 -0.046696 110 98 93 5 5
0.775274 -0.026378 -0.343096 96 63 38 5 4
0.647614 0.123218 -0.326392 116 80 59 5 4
0.630418 0.121451 -0.324876 131 91 69 5 4
0.640428 0.139095 -0.324596 134 99 78 5 4
0.628751 0.135366 -0.327482 112 81 66 5 4
0.608100 0.524519 0.454337 153 153 143 1 6
0.587146 0.537870 0.456109 154 155 143 1 6
0.601233 0.540464 0.471988 156 156 146 1 6
0.607153 0.527438 0.470100 154 154 143 1 6
0.602115 0.532902 0.458773 157 155 145 1 6
0.613241 0.531044 0.477431 154 155 143 1 6
-0.091985 0.368261 -0.017005 153 139 127 7 7
-0.106691 0.379784 -0.028017 194 176 159 7 7
-0.119178 0.490623 -0.003699 100 77 65 5 5
-0.123515 0.487609 -0.018878 91 71 59 5 5
-0.110759 0.488322 -0.017593 99 74 66 5 5
-0.124830 0.494136 -0.035963 90 72 64 5 5
-0.132975 0.491688 -0.002655 107 90 83 5 5
-0.127652 0.497015 -0.016516 92 73 65 5 5
0.673492 0.524678 0.162086 184 177 171 1 6
0.662798 0.525646 0.182178 179 176 168 1 6
0.035989 -0.104932 -0.312157 69 47 35 5 2
0.014279 -0.107694 -0.313612 77 57 43 5 2
0.088816 0.068417 -0.304913 79 54 40 5 5
0.105259 0.088203 -0.303084 77 55 42 5 5
0.093634 0.048743 -0.305174 65 45 29 5 5
0.090640 0.565518 0.490671 236 234 222 1 6
0.077131 0.570294 0.504904 230 230 219 1 6
0.911601 0.172750 -0.046139 159 147 143 5 4
0.091449 -0.188575 -0.354773 129 85 56 5 2
0.088671 -0.170528 -0.363722 103 68 47 5 2
-0.001913 -0.013352 -0.358970 42 30 25 5 2
0.007591 -0.016619 -0.355732 54 39 32 5 2
0.132288 -0.280597 -0.091766 90 58 37 7 7
0.151034 -0.281015 -0.089321 89 57 37 7 7
0.130006 -0.279957 -0.084329 98 60 38 7 7
0.150703 -0.285108 -0.082278 98 59 36 7 7
0.159657 0.489960 -0.029474 111 99 89 5 5
0.163565 0.486228 -0.020881 118 105 96 5 5
0.172340 0.491519 -0.015468 123 111 102 5 5
0.164819 0.485082 -0.012267 117 104 94 5 5
0.169222 0.489553 -0.026962 116 104 92 5 5
0.141916 0.476048 -0.038753 114 101 91 5 5
0.150808 0.471908 -0.030511 116 104 93 5 5
0.173705 0.489776 -0.004126 126 114 106 5 5
0.150095 0.489220 -0.012244 114 101 92 5 5
0.175182 -0.287406 -0.080773 101 62 38 7 7
0.155138 -0.294948 -0.076319 99 61 38 7 7
0.151549 0.477411 0.002778 124 112 104 5 5
0.146832 0.477470 -0.008987 124 112 103 5 5
-0.126518 0.488175 0.010928 115 88 78 5 5
-0.100906 0.497949 0.010399 116 94 84 5 5
-0.115414 0.487638 0.023594 112 90 74 5 5
0.130606 -0.299829 -0.119763 131 107 87 7 7
0.117672 -0.299417 -0.116736 65 43 24 7 7
0.131699 -0.298326 -0.102013 83 59 36 7 7
0.493524 0.533124 0.306635 187 182 172 1 6
0.105872 0.460843 0.031116 93 75 56 5 5
0.451645 -0.011150 -0.382514 82 65 55 5 4
0.379125 0.537202 -0.073498 166 160 156 1 6
0.412115 0.534450 -0.073355 174 169 165 1 6
0.380776 0.532592 -0.089452 162 155 149 1 6
0.446315 -0.128552 -0.362256 107 85 81 5 4
0.443541 -0.104819 -0.382490 147 127 121 5 4
0.442396 -0.143631 -0.364831 62 45 40 5 4
0.440325 -0.130938 -0.378654 63 46 39 5 4
-0.035417 0.596367 0.577877 179 175 169 1 6
-0.172790 0.542296 -0.027447 103 95 89 1 6
-0.178686 0.547359 -0.040988 105 97 92 1 6
-0.164213 0.534739 -0.043688 93 84 76 5 5
-0.177423 0.544491 -0.028837 109 98 94 1 6
0.431116 -0.034840 -0.318784 60 42 33 5 4
-0.138812 0.299518 -0.321640 24 16 11 0 0
0.296163 0.546908 0.567477 224 219 212 1 6
0.294030 0.566094 0.559783 224 219 212 1 6
0.664572 0.521078 -0.107747 176 168 166 1 6
0.672261 0.522270 -0.114392 188 180 177 1 6
0.656234 0.522053 -0.113204 178 168 166 1 6
0.686561 0.522512 -0.108711 176 167 166 1 6
0.624102 0.027559 -0.334727 95 67 47 5 4
0.641494 0.044384 -0.335480 72 49 32 5 4
0.643112 0.022420 -0.336904 64 45 31 5 4
0.738872 0.101677 -0.333208 91 68 53 5 4
0.738427 0.085444 -0.334535 91 67 52 5 4
0.719257 0.090115 -0.334746 80 57 41 5 4
0.705834 0.098649 -0.330099 77 56 40 5 4
0.154320 0.532248 0.119611 165 161 152 1 6
0.152004 0.539942 0.125265 164 160 152 1 6
0.278560 0.542846 -0.069996 152 123 104 1 6
0.280822 0.532761 -0.077054 182 155 140 1 6
0.276198 0.525109 -0.082968 174 164 150 1 6
0.301898 0.522005 -0.083409 169 162 151 1 6
0.296810 0.530562 -0.079986 201 190 178 1 6
0.326968 0.547036 0.354896 178 175 166 1 6
0.349006 0.547464 0.356096 178 175 166 1 6
0.361347 0.551092 0.346395 180 175 167 1 6
0.319539 0.553637 0.376862 179 177 167 1 6
0.334134 0.549902 0.366513 178 175 165 1 6
0.354791 0.553085 0.366138 179 175 167 1 6
0.337189 0.552906 0.378057 180 176 167 1 6
0.053604 0.013245 -0.358726 67 55 47 5 5
0.057989 0.017941 -0.381661 41 29 24 5 5
0.060627 0.009594 -0.368783 47 35 26 5 2
0.056107 0.004649 -0.359881 60 45 36 5 5
0.042446 0.004523 -0.355977 52 39 29 5 5
0.049707 -0.005268 -0.363078 52 37 28 5 2
0.037646 0.019188 -0.357806 65 54 44 5 5
0.059542 0.019210 -0.373418 45 35 25 5 5
0.061190 0.010742 -0.354685 66 53 43 5 5
-0.196249 0.587667 0.591999 231 226 214 1 6
-0.214686 0.587358 0.598972 230 225 215 1 6
0.299975 0.547303 0.311581 175 172 163 1 6
0.297859 0.541347 0.284241 176 174 164 1 6
0.288028 0.542063 0.296538 175 172 163 1 6
0.283530 0.547619 0.305366 176 172 163 1 6
-0.179630 0.548306 0.183221 194 192 186 1 6
-0.178107 0.548606 0.154679 185 186 179 1 6
-0.170225 0.546913 0.169716 185 186 179 1 6
-0.167930 0.547377 0.196916 188 188 181 1 6
-0.064881 0.546679 0.214065 189 189 180 1 6
-0.098914 0.546470 0.221449 189 189 180 1 6
-0.082884 0.547976 0.206338 191 188 180 1 6
0.078506 -0.055326 -0.322775 101 72 50 5 2
0.093313 -0.078754 -0.319508 63 43 29 5 2
0.235029 0.542484 0.074011 174 138 108 1 6
0.245974 0.549739 0.073112 191 160 135 1 6
0.260773 0.549173 0.073888 224 210 199 1 6
0.251443 0.545876 0.091965 190 177 165 1 6
0.224061 0.532156 0.074461 165 122 86 1 6
0.492431 0.026046 -0.314265 129 89 62 5 4
0.503237 0.057988 -0.316538 115 78 57 5 4
0.502551 0.027685 -0.319079 124 88 60 5 4
0.310229 0.536031 0.122979 182 178 173 1 6
0.315215 0.532415 0.096176 180 177 172 1 6
0.322459 0.533533 0.105362 181 179 174 1 6
0.179375 0.560439 0.430101 220 215 206 1 6
0.149974 0.564651 0.438707 216 210 200 1 6
0.163017 0.561604 0.435397 216 209 199 1 6
0.161628 0.563452 0.423854 216 210 201 1 6
0.536145 0.564638 0.546127 240 235 224 1 6
0.537947 0.563559 0.559862 226 222 211 1 6
0.552363 0.560943 0.544980 240 236 225 1 6
0.105428 0.545981 0.212765 179 177 166 1 6
0.121068 0.547053 0.197505 180 177 168 1 6
0.127012 0.549464 0.223793 181 178 168 1 6
0.842327 0.091245 -0.197857 80 55 45 5 4
0.838832 0.099364 -0.181892 86 61 53 5 4
-0.173251 0.461730 -0.029868 112 96 86 5 5
-0.168942 0.468888 -0.016164 113 95 87 5 5
-0.188811 0.458264 -0.020382 114 95 83 5 5
0.477565 0.130688 -0.015026 127 118 108 7 7
0.499785 0.122919 -0.015054 124 114 104 7 7
-0.213425 0.474700 0.006761 62 45 34 5 5
-0.209900 0.491046 0.030111 70 49 35 5 5
0.373720 0.535997 -0.011257 180 176 172 1 6
0.379147 0.538107 -0.024668 181 177 174 1 6
0.468294 0.329475 -0.025924 147 137 129 7 7
0.487680 0.333180 -0.028902 167 159 150 7 7
0.497031 0.320245 -0.022104 159 150 142 7 7
0.016981 0.115898 -0.013269 128 119 108 7 7
0.950270 0.053169 0.103968 49 32 26 5 4
0.944922 0.066594 0.103788 61 46 40 5 4
0.947902 0.032871 0.102992 47 33 27 5 4
-0.114674 0.566753 0.422123 212 208 200 1 6
-0.129353 0.567261 0.427806 210 207 199 1 6
-0.114428 0.564494 0.446697 233 230 219 1 6
-0.123423 0.568284 0.440302 208 205 196 1 6
-0.089089 0.566764 0.437512 206 202 194 1 6
-0.102891 0.559450 0.349698 201 200 192 1 6
-0.119545 0.553756 0.347140 201 199 193 1 6
-0.119901 0.558077 0.356694 200 198 193 1 6
-0.001878 0.299756 -0.338280 55 43 43 0 0
0.194000 -0.002424 -0.014526 121 111 101 7 7
0.062840 0.555777 0.336778 198 195 183 1 6
0.083558 0.550260 0.328299 196 195 187 1 6
0.069549 0.551526 0.323298 199 193 186 1 6
0.086040 0.558251 0.339356 201 199 192 1 6
0.026984 0.572709 0.575047 117 116 110 1 6
0.035011 0.582125 0.576311 117 116 110 1 6
-0.068547 0.547967 0.131220 184 184 174 1 6
-0.085422 0.547753 0.144096 185 184 177 1 6
-0.062584 0.547831 0.145076 187 186 177 1 6
-0.071161 0.546470 0.158795 185 185 177 1 6
-0.004071 0.120817 -0.013441 127 117 107 7 7
0.208167 0.308206 -0.009768 139 131 120 7 7
0.908752 0.051207 -0.008710 88 75 69 5 4
0.899011 0.045145 -0.027374 92 78 71 5 4
0.908621 0.031067 -0.005368 99 86 81 5 4
0.892000 0.117734 -0.021989 95 78 72 5 4
0.895750 0.126160 0.007948 84 67 60 5 4
0.060202 0.502763 -0.073086 136 120 111 5 5
0.046794 0.490127 -0.069461 121 106 99 5 5
0.032272 0.510423 -0.071936 92 77 69 5 5
0.399887 0.182376 -0.014785 140 130 120 7 7
0.153938 0.221866 -0.014575 132 125 113 7 7
0.713077 0.523694 0.173465 178 174 168 1 6
0.751647 0.519587 0.173072 180 173 167 1 6
0.750967 0.521190 0.161100 179 174 169 1 6
0.068601 0.017420 -0.306719 71 49 34 5 5
0.102046 0.029651 -0.304114 73 49 35 5 5
0.373586 0.564800 0.543751 239 237 225 1 6
0.372550 0.557419 0.559157 232 230 218 1 6
0.389706 0.567798 0.543175 241 235 227 1 6
0.597946 0.523176 0.362964 185 178 170 1 6
0.611618 0.524934 0.358167 183 178 169 1 6
0.599939 0.525545 0.351574 183 178 169 1 6
0.588272 0.536738 0.376633 188 182 174 1 6
0.613710 0.524211 0.373769 184 177 169 1 6
0.854456 0.010991 -0.191659 141 123 118 5 4
0.852427 0.040012 -0.188523 89 72 65 5 4
0.858876 0.004742 -0.177127 197 179 176 5 4
0.857817 0.020810 -0.168416 207 192 189 5 4
0.805796 0.083624 -0.290685 46 32 21 5 4
0.804038 0.102740 -0.307184 91 65 47 5 4
0.808815 0.097133 -0.317025 104 80 74 5 4
0.810545 0.091992 -0.303163 108 80 61 5 4
0.257582 0.564002 0.437432 210 207 198 1 6
0.286223 0.566229 0.440674 193 190 179 1 6
0.273455 0.566558 0.443096 211 209 200 1 6
0.247089 0.563822 0.415107 213 210 199 1 6
0.265576 0.563659 0.423172 195 191 182 1 6
0.731244 -0.039253 -0.344992 109 71 51 5 4
-0.128979 0.529902 0.577331 204 199 194 1 6
0.571027 0.100238 -0.321891 143 104 79 5 4
0.572772 0.073534 -0.322648 135 98 70 5 4
-0.141773 0.548169 0.565343 199 194 190 1 6
-0.143337 0.540159 0.567191 203 197 190 1 6
-0.126139 0.550999 0.572558 203 196 192 1 6
-0.157634 0.567240 0.548748 235 230 219 1 6
-0.143152 0.565625 0.559922 214 213 201 1 6
-0.135121 0.571533 0.572399 228 225 216 1 6
-0.145076 0.559130 0.569613 199 194 189 1 6
-0.161129 0.550619 0.566802 197 193 188 1 6
-0.135011 0.563383 0.570207 208 200 197 1 6
-0.148478 0.569443 0.575536 214 211 200 1 6
-0.138397 0.569702 0.554342 235 231 222 1 6
0.736332 0.508763 0.363278 178 171 163 1 6
0.913201 0.076782 0.003159 67 54 49 5 4
0.909169 0.083085 0.022116 69 55 49 5 4
0.913271 0.062572 0.030577 64 50 42 5 4
0.909458 0.089972 -0.002424 94 80 76 5 4
0.274325 0.534336 0.119015 178 177 170 1 6
0.299162 0.530925 0.103659 177 177 170 1 6
0.281162 0.525542 0.099419 177 177 170 1 6
0.280521 0.528286 0.106703 177 177 169 1 6
0.630729 0.526904 0.141028 186 181 176 1 6
0.611858 0.530186 0.127656 185 180 174 1 6
-0.031990 0.600566 0.605116 117 115 109 1 6
-0.037002 0.607600 0.600440 118 116 111 1 6
-0.040914 0.595055 0.592734 118 116 111 1 6
-0.035660 0.596644 0.585481 178 175 168 1 6
0.450078 0.530649 0.188868 187 183 176 1 6
-0.002830 0.033084 -0.309347 62 40 24 5 5
0.713164 0.525818 0.085574 184 177 174 1 6
-0.097755 0.251009 -0.009683 145 137 122 7 7
0.510264 -0.006584 -0.317764 86 66 51 5 4
0.505625 0.013019 -0.319984 129 92 63 5 4
0.520338 0.027741 -0.320920 92 66 46 5 4
-0.152457 0.539310 -0.373653 93 77 69 1 6
-0.146648 0.542290 -0.356442 81 67 55 1 6
-0.154518 0.535064 -0.394964 95 79 71 1 6
-0.133138 0.545382 -0.358693 65 50 41 1 6
-0.139539 0.538188 -0.369288 71 56 48 1 6
0.442689 -0.152141 -0.362690 61 45 37 5 4
0.439074 -0.181939 -0.348360 58 43 35 5 4
0.442446 -0.151022 -0.385916 112 96 91 5 4
0.439075 -0.167272 -0.378038 109 94 89 5 4
0.438231 -0.164133 -0.373626 60 47 41 5 4
0.332359 0.548219 0.308299 177 176 165 1 6
0.343076 0.544329 0.302755 179 177 165 1 6
0.330590 0.538786 0.290084 177 175 165 1 6
0.608536 0.546425 0.486753 155 155 143 1 6
0.621475 0.535888 0.487764 155 155 144 1 6
0.614515 0.538676 0.509070 156 156 146 1 6
0.614766 0.541796 0.496946 156 156 146 1 6
0.627523 0.540807 0.491819 184 181 171 1 6
0.625867 0.527874 0.485530 154 155 144 1 6
0.611256 0.541122 0.476813 157 158 146 1 6
0.632532 0.540137 0.483785 203 200 188 1 6
0.500080 0.032513 -0.015644 103 93 83 7 7
-0.234564 0.565167 0.386942 206 203 195 1 6
-0.222343 0.559772 0.397987 208 205 199 1 6
-0.206563 0.552953 0.404885 212 209 202 1 6
-0.201109 0.557045 0.395032 213 210 203 1 6
0.014438 0.561903 0.452746 216 213 201 1 6
0.038481 0.564635 0.481807 226 219 211 1 6
0.033103 0.561498 0.456201 214 212 201 1 6
0.040759 0.565019 0.468299 219 212 202 1 6
0.566509 0.036861 -0.325403 119 85 61 5 4
0.580291 0.026052 -0.331809 126 90 63 5 4
0.561732 0.016270 -0.326106 102 72 55 5 4
0.137698 0.514354 -0.015697 148 139 132 5 5
0.161689 0.520137 -0.028649 140 133 127 5 5
0.157184 0.508832 -0.012017 126 115 106 5 5
0.166382 0.497282 -0.013959 112 100 92 5 5
0.150456 0.495418 -0.006651 110 99 90 5 5
0.153380 0.515413 -0.015086 143 136 126 5 5
0.166650 0.503841 -0.008102 114 101 93 5 5
0.167985 0.515690 -0.021222 121 110 102 5 5
0.443809 -0.077220 -0.359025 80 61 52 5 4
0.448119 -0.082955 -0.375865 187 164 153 5 4
0.482315 0.528901 -0.107946 172 163 161 1 6
-0.197344 0.587648 0.584176 221 217 208 1 6
-0.179568 0.585041 0.583941 221 217 204 1 6
-0.193894 0.585950 0.602243 222 217 205 1 6
-0.177752 0.589279 0.595798 207 202 192 1 6
-0.202435 0.582077 0.576328 236 231 218 1 6
-0.175817 0.578239 0.576236 228 223 214 1 6
0.339178 0.576059 0.505216 241 236 228 1 6
0.325860 0.574141 0.489425 242 236 228 1 6
0.326633 0.577901 0.497124 241 237 227 1 6
0.320123 0.576289 0.470620 241 237 227 1 6
0.055664 0.545006 0.236615 196 191 182 1 6
0.040076 0.541545 0.259638 191 192 182 1 6
-0.098623 0.524672 -0.061533 150 126 115 5 5
-0.113588 0.524183 -0.061277 123 103 92 5 5
-0.014132 0.545472 0.289415 194 192 185 1 6
0.008319 0.550388 0.314937 197 196 185 1 6
-0.009501 0.548799 0.320415 196 195 186 1 6
0.006780 0.545384 0.305602 195 190 183 1 6
-0.014673 0.547697 0.312966 194 195 182 1 6
-0.166171 0.494258 0.107187 134 105 89 1 6
0.752057 0.505196 0.336907 177 168 162 1 6
0.751133 0.508445 0.312853 179 171 164 1 6
0.387003 0.542563 0.354665 181 176 169 1 6
0.390776 0.551213 0.358939 182 178 168 1 6
0.381635 0.554941 0.383479 181 177 168 1 6
0.377780 0.551962 0.360407 180 177 168 1 6
0.370314 0.550413 0.350134 181 177 166 1 6
0.375433 0.544266 0.351858 181 176 168 1 6
0.398991 0.549115 0.376497 181 177 168 1 6
0.387116 0.550481 0.374122 181 178 167 1 6
0.589825 0.556820 0.384306 172 172 161 1 6
0.566946 0.562277 0.393377 243 239 228 1 6
0.580328 0.556846 0.402434 183 181 170 1 6
0.596790 0.549945 0.411370 167 167 155 1 6
0.588473 0.553277 0.397480 159 160 149 1 6
-0.188857 0.561047 0.350978 210 206 199 1 6
-0.187337 0.551942 0.347993 209 209 199 1 6
0.532612 0.494701 0.565670 160 160 149 1 6
0.556849 0.491621 0.567085 155 155 144 1 6
0.548946 0.523488 0.563837 167 165 156 1 6
0.548762 0.509579 0.560523 160 161 149 1 6
0.211647 0.506173 -0.037685 118 109 100 1 6
0.198425 0.489964 -0.038432 111 101 92 7 7
0.207100 0.483830 -0.035109 100 88 76 1 6
0.197512 0.478850 -0.062996 114 100 91 7 7
0.204569 0.489178 -0.045110 132 122 116 1 6
0.189498 0.480705 -0.049921 131 122 113 7 7
0.187824 0.481343 -0.034753 114 104 96 7 7
0.213393 0.496258 -0.036341 102 90 81 1 6
0.080736 0.227344 -0.013341 135 128 116 7 7
0.059285 0.239247 -0.012365 139 131 121 7 7
0.215096 -0.143577 -0.015435 101 91 79 7 7
-0.227045 0.567774 0.463543 213 208 201 1 6
-0.243752 0.565258 0.464231 202 198 191 1 6
-0.228181 0.562989 0.454982 201 196 190 1 6
-0.211426 0.563775 0.455654 201 198 193 1 6
-0.235072 0.565383 0.480475 212 208 200 1 6
-0.215453 0.566130 0.469378 213 208 201 1 6
-0.203444 0.568988 0.463999 202 198 192 1 6
0.676780 0.521270 -0.090372 178 168 167 1 6
0.697423 0.519256 -0.090006 177 166 166 1 6
0.197363 0.528764 -0.004197 126 94 71 7 7
0.176928 0.521342 -0.001121 176 145 128 5 5
0.196646 0.507281 0.003827 164 135 116 7 7
0.192117 0.512081 0.005747 190 165 150 7 7
0.170494 -0.153380 -0.015033 101 89 80 7 7
0.216164 -0.184432 -0.014082 101 91 80 7 7
0.583127 -0.098500 -0.327461 77 54 40 5 4
0.604922 -0.099213 -0.331915 60 43 33 5 4
0.593702 -0.115899 -0.330354 76 51 37 5 4
0.360207 0.533560 -0.084450 152 144 137 1 6
0.356288 0.541880 -0.075872 173 162 157 1 6
0.361271 0.539607 -0.075717 155 145 140 1 6
0.350060 0.530009 -0.093399 160 147 138 1 6
0.338494 0.532046 -0.084251 204 187 177 1 6
0.368184 0.537990 -0.052861 160 149 144 1 6
0.444635 0.543290 0.376557 182 177 168 1 6
0.435732 0.540208 0.380658 182 177 168 1 6
0.452756 0.538553 0.365025 183 176 170 1 6
0.464444 0.536310 0.381338 182 176 169 1 6
0.441921 0.540991 0.365246 182 176 168 1 6
0.471870 0.533474 0.372708 183 176 169 1 6
0.456397 0.534981 0.352537 182 178 169 1 6
0.439334 0.537676 0.358231 182 177 170 1 6
0.468415 0.538195 0.363612 181 177 170 1 6
0.457463 0.555260 0.377375 188 183 174 1 6
0.452108 0.542586 0.381021 188 183 175 1 6
0.459367 0.542711 0.384170 183 177 167 1 6
0.472686 0.534725 0.389436 182 177 168 1 6
0.468710 0.550260 0.384396 185 179 169 1 6
-0.214643 0.549400 0.009416 100 89 84 1 6
-0.204511 0.547897 0.016399 87 77 69 1 6
-0.021545 0.576349 0.587952 119 118 112 1 6
-0.024239 0.575492 0.579980 119 118 112 1 6
0.004757 0.586686 0.579865 120 118 113 1 6
-0.005939 0.577332 0.590948 119 118 113 1 6
-0.019655 0.555495 0.592612 152 149 144 1 6
-0.022569 0.573934 0.592888 119 118 112 1 6
0.460760 -0.135475 -0.016161 94 85 76 7 7
0.497812 -0.108039 -0.015241 94 84 73 7 7
0.161501 0.424713 -0.042342 72 57 46 7 7
0.172146 0.444861 -0.061009 128 112 100 7 7
0.068998 0.562531 0.475494 220 216 207 1 6
0.099584 0.566793 0.495082 231 231 220 1 6
0.092378 0.566742 0.509721 231 232 221 1 6
-0.048569 0.524416 -0.073065 136 115 105 5 5
-0.054245 0.507133 -0.058802 103 85 74 5 5
-0.057122 0.510822 -0.070640 103 85 74 5 5
-0.066181 0.503046 -0.064157 109 92 83 5 5
0.741180 0.524977 0.089349 183 176 173 1 6
0.519685 0.551375 0.371497 216 210 201 1 6
0.521753 0.540313 0.368954 215 209 201 1 6
0.513922 0.557392 0.381905 208 204 195 1 6
0.515819 0.552486 0.382521 197 190 181 1 6
0.531477 0.555776 0.376431 214 208 200 1 6
0.130366 -0.278018 -0.156539 78 53 34 7 7
0.113743 -0.284560 -0.153696 95 72 54 7 7
0.108405 -0.271761 -0.156035 113 83 59 7 7
0.105276 -0.259285 -0.155049 119 86 60 7 7
0.503203 -0.106112 -0.321130 118 97 83 5 4
-0.188010 0.545744 0.280052 198 197 188 1 6
0.033292 0.491752 0.102173 116 94 80 5 5
0.013864 0.497130 0.104038 110 89 76 5 5
-0.200585 0.438510 -0.033127 95 80 68 5 5
-0.202144 0.428286 -0.034775 76 61 50 5 5
-0.194331 0.422313 -0.030108 104 84 77 5 5
0.010671 0.354959 -0.015527 119 105 95 7 7
-0.000454 0.344599 -0.012324 135 121 109 7 7
0.522181 0.168328 -0.301256 87 60 44 5 4
0.584948 -0.060493 -0.326250 147 122 112 5 4
-0.036857 0.505640 0.108322 119 88 65 5 5
-0.064377 0.513305 0.112996 119 88 65 1 6
0.163825 -0.130518 -0.014853 102 92 83 7 7
0.275416 -0.064989 -0.015240 108 96 86 7 7
0.248926 -0.084859 -0.015450 104 94 83 7 7
-0.236421 0.587239 0.584512 237 233 221 1 6
-0.226617 0.588783 0.597836 238 233 222 1 6
-0.222483 0.582373 0.583043 239 232 219 1 6
-0.225475 0.579317 0.576298 240 234 222 1 6
0.087786 -0.266926 -0.319572 25 16 11 5 2
-0.219501 0.550782 -0.049414 109 102 96 1 6
-0.269029 0.552790 -0.049242 110 103 98 1 6
0.045958 0.505187 0.112157 108 85 71 1 6
0.034120 0.497347 0.108081 95 71 56 1 6
0.069384 0.492547 0.108473 95 69 55 1 6
0.140102 0.062365 -0.013983 129 120 109 7 7
0.641899 0.527377 0.136044 185 180 174 1 6
0.518886 0.195104 -0.014098 139 130 119 7 7
-0.108477 0.499612 0.104096 126 93 72 5 5
-0.144862 0.504092 0.111708 141 110 95 1 6
-0.137114 0.498563 0.106248 132 100 81 1 6
-0.119534 0.503617 0.107973 129 96 75 1 6
-0.134618 0.491648 0.094319 127 94 74 5 5
0.380572 0.542715 0.307021 179 177 168 1 6
0.396732 0.542676 0.289661 181 180 168 1 6
0.629088 0.274411 -0.013431 152 141 135 7 7
0.662222 0.279638 -0.014544 149 139 134 7 7
0.630844 0.261583 -0.012470 148 137 132 7 7
0.274456 -0.102269 -0.015982 102 91 81 7 7
0.518631 -0.048758 -0.318457 136 112 101 5 4
0.173550 0.108897 -0.321110 96 66 51 5 5
0.218412 0.569609 0.463944 228 224 216 1 6
0.228410 0.570591 0.456717 236 234 226 1 6
0.245288 0.569549 0.465253 228 224 214 1 6
0.367413 -0.069868 -0.016253 102 92 82 7 7
0.536253 0.534630 0.413154 182 175 167 1 6
0.540791 0.528164 0.397978 187 181 172 1 6
0.536690 0.541375 0.393612 190 183 174 1 6
0.513826 0.542104 0.410498 184 178 170 1 6
0.528553 0.536667 0.412155 184 178 170 1 6
0.526796 0.536500 0.387012 188 182 173 1 6
0.512495 0.530811 0.397792 187 181 172 1 6
0.515211 0.544744 0.398964 184 179 169 1 6
0.537091 0.538082 0.403661 186 181 170 1 6
0.518348 0.534104 0.404958 184 179 168 1 6
0.522353 0.531411 0.401125 187 179 170 1 6
0.529030 0.551375 0.393589 187 183 172 1 6
0.904413 0.140203 0.024638 67 53 44 5 4
0.909635 0.147579 0.035025 60 43 33 5 4
0.915153 0.163065 0.015337 78 63 57 5 4
0.903554 0.148209 0.003387 64 50 41 5 4
0.890783 0.128420 -0.007165 57 42 34 5 4
0.073964 0.543961 0.255256 193 191 182 1 6
0.068187 0.543427 0.268641 190 186 178 1 6
0.093650 0.543828 0.277101 191 188 179 1 6
0.064534 0.545163 0.290542 194 192 181 1 6
0.275205 -0.191064 -0.014336 92 83 74 7 7
0.253181 -0.186806 -0.014470 92 83 74 7 7
-0.009304 0.111078 -0.310856 151 131 126 5 5
-0.023727 0.135545 -0.307126 163 143 143 5 5
-0.159042 0.547489 0.130929 177 179 173 1 6
-0.137227 0.548113 0.135658 177 178 172 1 6
-0.140247 0.550332 0.154384 185 184 179 1 6
0.296901 0.545218 0.013960 169 132 103 1 6
0.326073 0.544873 0.020155 217 196 182 1 6
0.306980 0.545205 0.031624 172 135 108 1 6
0.661975 0.135456 -0.017000 114 102 93 7 7
0.641727 0.145204 -0.014802 119 106 96 7 7
0.672762 0.153737 -0.019488 120 104 96 7 7
0.682342 0.131225 -0.028086 110 98 87 7 7
0.126403 -0.166471 -0.332389 43 31 24 5 2
0.115529 -0.160931 -0.337546 56 39 29 5 2
0.138742 -0.167366 -0.319652 71 53 48 5 2
0.135312 -0.140745 -0.328137 66 46 37 5 2
0.143440 -0.149051 -0.325296 61 44 35 5 2
0.143995 -0.171917 -0.324596 50 35 29 5 2
0.058402 -0.108735 -0.310105 81 62 53 5 2
0.099522 -0.113707 -0.309097 74 54 40 5 2
0.084194 -0.120493 -0.307153 101 78 66 5 2
-0.071915 0.543411 0.123424 157 149 141 1 6
