ply
format ascii 1.0
element vertex 1097
property float x
property float y
property float z
property uchar red
property uchar green
property uchar blue
property uchar semantic_label
property uchar instance_label
end_header
-1.703286 -0.354972 0.092106 255 0 0 54 10
-1.617668 -0.278092 0.262866 255 0 0 54 10
-1.519878 -0.308620 0.113106 255 0 0 54 10
-1.735525 -0.327546 0.092106 255 0 0 54 10
-1.617659 -0.278052 0.095106 255 0 0 54 10
-1.574381 -0.276456 0.140106 255 0 0 54 10
-1.608507 -0.379287 0.092106 255 0 0 54 10
-1.807383 -0.394186 0.092106 255 0 0 54 10
-1.595127 -0.273051 0.110106 255 0 0 54 10
-1.674182 -0.253812 0.161106 255 0 0 54 10
-1.788744 -0.217193 0.218995 255 0 0 54 10
-1.619418 -0.268519 0.143106 255 0 0 54 10
-1.804958 -0.206900 0.188107 255 0 0 54 10
-1.587572 -0.278355 0.110106 255 0 0 54 10
-1.536837 -0.287403 0.179106 255 0 0 54 10
-1.771446 -0.282210 0.092106 255 0 0 54 10
-1.748675 -0.234911 0.224107 255 0 0 54 10
-1.695103 -0.295370 0.092106 255 0 0 54 10
-1.741949 -0.386625 0.092636 255 0 0 54 10
-1.514962 -0.299923 0.218781 255 0 0 54 10
-1.796985 -0.206240 0.215106 255 0 0 54 10
-1.569022 -0.319103 0.092106 255 0 0 54 10
-1.592945 -0.277214 0.191566 255 0 0 54 10
-1.736615 -0.234407 0.119107 255 0 0 54 10
-1.801864 -0.206770 0.221107 255 0 0 54 10
-1.614249 -0.276439 0.221107 255 0 0 54 10
-1.692985 -0.242844 0.113106 255 0 0 54 10
-1.722309 -0.438522 0.083107 255 0 0 54 10
-1.712532 -0.239526 0.197106 255 0 0 54 10
-1.710026 -0.308585 0.092106 255 0 0 54 10
-1.622302 -0.271038 0.110106 255 0 0 54 10
-1.674272 -0.385675 0.084860 255 0 0 54 10
-1.775905 -0.358799 0.092106 255 0 0 54 10
-1.568654 -0.481733 0.080106 255 0 0 54 10
-1.669283 -0.246768 0.236107 255 0 0 54 10
-1.523471 -0.296669 0.080106 255 0 0 54 10
-1.693155 -0.243645 0.082644 255 0 0 54 10
-1.720770 -0.381925 0.092106 255 0 0 54 10
-1.669287 -0.246789 0.155107 255 0 0 54 10
-1.685219 -0.437176 0.080106 255 0 0 54 10
-1.665171 -0.314001 0.084968 255 0 0 54 10
-1.525757 -0.307424 0.239107 255 0 0 54 10
-1.773490 -0.318580 0.084903 255 0 0 54 10
-1.559134 -0.450019 0.079949 255 0 0 54 10
-1.739984 -0.233092 0.209106 255 0 0 54 10
-1.538942 -0.291759 0.185107 255 0 0 54 10
-1.685839 -0.252515 0.164106 255 0 0 54 10
-1.517382 -0.296878 0.185107 255 0 0 54 10
-1.647565 -0.317743 0.091884 255 0 0 54 10
-1.770516 -0.290155 0.083107 255 0 0 54 10
-1.574275 -0.290383 0.107854 255 0 0 54 10
-1.687910 -0.247827 0.098515 255 0 0 54 10
-1.765629 -0.368170 0.092106 255 0 0 54 10
-1.821760 -0.271516 0.084954 255 0 0 54 10
-1.565878 -0.282967 0.260106 255 0 0 54 10
-1.606628 -0.471450 0.080106 255 0 0 54 10
-1.764016 -0.225516 0.185107 255 0 0 54 10
-1.626681 -0.273110 0.233106 255 0 0 54 10
-1.821323 -0.403490 0.092106 255 0 0 54 10
-1.670927 -0.254504 0.081684 255 0 0 54 10
-1.541435 -0.294606 0.263106 255 0 0 54 10
-1.693811 -0.246730 0.110106 255 0 0 54 10
-1.705822 -0.409639 0.092106 255 0 0 54 10
-1.795297 -0.219163 0.239107 255 0 0 54 10
-1.765892 -0.225117 0.240245 255 0 0 54 10
-1.590002 -0.277839 0.218107 255 0 0 54 10
-1.743884 -0.237007 0.218107 255 0 0 54 10
-1.684144 -0.244540 0.233106 255 0 0 54 10
-1.602406 -0.287471 0.092106 255 0 0 54 10
-1.688353 -0.253867 0.194106 255 0 0 54 10
-1.824627 -0.386006 0.083107 255 0 0 54 10
-1.641381 -0.259791 0.260106 255 0 0 54 10
-1.690085 -0.243632 0.188107 255 0 0 54 10
-1.735997 -0.231472 0.125106 255 0 0 54 10
-1.527883 -0.337048 0.074106 255 0 0 54 10
-1.656344 -0.258043 0.221107 255 0 0 54 10
-1.678412 -0.246429 0.260106 255 0 0 54 10
-1.770773 -0.233647 0.260106 255 0 0 54 10
-1.573869 -0.288473 0.167107 255 0 0 54 10
-1.600091 -0.267549 0.230106 255 0 0 54 10
-1.519900 -0.308723 0.233106 255 0 0 54 10
-1.807703 -0.349674 0.083107 255 0 0 54 10
-1.554184 -0.296868 0.263106 255 0 0 54 10
-1.563090 -0.338766 0.091583 255 0 0 54 10
-1.620103 -0.275120 0.191106 255 0 0 54 10
-1.696203 -0.301271 0.084903 255 0 0 54 10
-1.851955 -0.384711 0.092950 255 0 0 54 10
-1.654037 -0.258094 0.248106 255 0 0 54 10
-1.677239 -0.250095 0.173107 255 0 0 54 10
-1.768203 -0.221559 0.213241 255 0 0 54 10
-1.690000 -0.243229 0.137107 255 0 0 54 10
-1.533135 -0.313273 0.092106 255 0 0 54 10
-1.578167 -0.279838 0.116107 255 0 0 54 10
-1.786040 -0.406477 0.077106 255 0 0 54 10
-1.625942 -0.273732 0.143106 255 0 0 54 10
-1.658899 -0.255632 0.122107 255 0 0 54 10
-1.547603 -0.342058 0.092106 255 0 0 54 10
-1.670289 -0.273042 0.083107 255 0 0 54 10
-1.753089 -0.289179 0.092106 255 0 0 54 10
-1.530996 -0.303209 0.176106 255 0 0 54 10
-1.525232 -0.340679 0.083107 255 0 0 54 10
-1.851566 -0.325166 0.086107 255 0 0 54 10
-1.810340 -0.365954 0.092106 255 0 0 54 10
-1.706296 -0.406471 0.084941 255 0 0 54 10
-1.599619 -0.281929 0.128106 255 0 0 54 10
-1.581954 -0.282617 0.245106 255 0 0 54 10
-1.627903 -0.297386 0.085045 255 0 0 54 10
-1.627079 -0.279083 0.092106 255 0 0 54 10
-1.827303 -0.340879 0.092090 255 0 0 54 10
-1.767069 -0.273940 0.084856 255 0 0 54 10
-1.542094 -0.404569 0.083107 255 0 0 54 10
-1.810617 -0.219094 0.233106 255 0 0 54 10
-1.746707 -0.235863 0.131106 255 0 0 54 10
-1.778781 -0.213605 0.101107 255 0 0 54 10
-1.535503 -0.295557 0.084730 255 0 0 54 10
-1.636629 -0.264861 0.227106 255 0 0 54 10
-1.759284 -0.222884 0.176106 255 0 0 54 10
-1.574799 -0.480427 0.090657 255 0 0 54 10
-1.708109 -0.246601 0.110106 255 0 0 54 10
-1.637660 -0.256715 0.158106 255 0 0 54 10
-1.543134 -0.392080 0.077106 255 0 0 54 10
-1.750703 -0.269092 0.092106 255 0 0 54 10
-1.847668 -0.333483 0.092106 255 0 0 54 10
-1.620877 -0.264332 0.215106 255 0 0 54 10
-1.517404 -0.296983 0.206107 255 0 0 54 10
-1.693474 -0.331720 0.092106 255 0 0 54 10
-1.555023 -0.401821 0.092016 255 0 0 54 10
-1.631687 -0.416196 0.092435 255 0 0 54 10
-1.677456 -0.250049 0.134107 255 0 0 54 10
-1.568418 -0.277258 0.215106 255 0 0 54 10
-1.765486 -0.410787 0.077106 255 0 0 54 10
-1.673062 -0.408841 0.083107 255 0 0 54 10
-1.538829 -0.288716 0.209106 255 0 0 54 10
-1.573885 -0.288549 0.161106 255 0 0 54 10
-1.768132 -0.264512 0.091853 255 0 0 54 10
-1.723890 -0.243948 0.251107 255 0 0 54 10
-1.762560 -0.244228 0.092106 255 0 0 54 10
-1.772725 -0.401552 0.084790 255 0 0 54 10
-1.674738 -0.296632 0.092106 255 0 0 54 10
-1.526770 -0.349553 0.086107 255 0 0 54 10
-1.552457 -0.433036 0.090889 255 0 0 54 10
-1.866003 -0.378658 0.084725 255 0 0 54 10
-1.726866 -0.257949 0.091370 255 0 0 54 10
-1.634241 -0.269488 0.158106 255 0 0 54 10
-1.512651 -0.303481 0.198411 255 0 0 54 10
-1.789280 -0.335149 0.083107 255 0 0 54 10
-1.628415 -0.270938 0.170107 255 0 0 54 10
-1.734903 -0.339050 0.084838 255 0 0 54 10
-1.657635 -0.264118 0.224107 255 0 0 54 10
-1.740026 -0.230615 0.197106 255 0 0 54 10
-1.572708 -0.427306 0.083107 255 0 0 54 10
-1.693770 -0.318684 0.083107 255 0 0 54 10
-1.525787 -0.307563 0.233106 255 0 0 54 10
-1.655715 -0.457094 0.090876 255 0 0 54 10
-1.559718 -0.294046 0.242107 255 0 0 54 10
-1.520402 -0.289566 0.071107 255 0 0 54 10
-1.727787 -0.334429 0.084756 255 0 0 54 10
-1.574166 -0.275442 0.101107 255 0 0 54 10
-1.524849 -0.334626 0.077106 255 0 0 54 10
-1.659189 -0.256999 0.113686 255 0 0 54 10
-1.574224 -0.448864 0.092106 255 0 0 54 10
-1.669372 -0.261617 0.257107 255 0 0 54 10
-1.836989 -0.386448 0.083107 255 0 0 54 10
-1.752164 -0.232675 0.251107 255 0 0 54 10
-1.599677 -0.280028 0.176106 255 0 0 54 10
-1.799829 -0.355920 0.084798 255 0 0 54 10
-1.704158 -0.241306 0.188107 255 0 0 54 10
-1.815997 -0.215547 0.161106 255 0 0 54 10
-1.555423 -0.288269 0.200107 255 0 0 54 10
-1.614775 -0.379919 0.081643 255 0 0 54 10
-1.751745 -0.234258 0.146106 255 0 0 54 10
-1.559724 -0.294074 0.185107 255 0 0 54 10
-1.819747 -0.348619 0.084831 255 0 0 54 10
-1.825803 -0.405970 0.083107 255 0 0 54 10
-1.540557 -0.348189 0.083107 255 0 0 54 10
-1.760115 -0.270081 0.092106 255 0 0 54 10
-1.597316 -0.369924 0.083107 255 0 0 54 10
-1.653320 -0.258246 0.180508 255 0 0 54 10
-1.812630 -0.343998 0.084831 255 0 0 54 10
-1.794613 -0.215945 0.243793 255 0 0 54 10
-1.541870 -0.318740 0.083107 255 0 0 54 10
-1.511864 -0.300582 0.140106 255 0 0 54 10
-1.545412 -0.284456 0.257107 255 0 0 54 10
-1.650735 -0.462521 0.086107 255 0 0 54 10
-1.604743 -0.311510 0.083107 255 0 0 54 10
-1.793239 -0.223909 0.083107 255 0 0 54 10
-1.519845 -0.294037 0.236107 255 0 0 54 10
-1.719225 -0.247305 0.101107 255 0 0 54 10
-1.727228 -0.230793 0.101107 255 0 0 54 10
-1.593292 -0.283274 0.176106 255 0 0 54 10
-1.512651 -0.303481 0.253382 255 0 0 54 10
-1.562537 -0.292878 0.084831 255 0 0 54 10
-1.696715 -0.245966 0.119107 255 0 0 54 10
-1.666830 -0.255375 0.140106 255 0 0 54 10
-1.704893 -0.241150 0.152964 255 0 0 54 10
-1.562508 -0.437034 0.092072 255 0 0 54 10
-1.522449 -0.295265 0.251107 255 0 0 54 10
-1.835315 -0.382114 0.092106 255 0 0 54 10
-1.671919 -0.288030 0.091036 255 0 0 54 10
-1.822513 -0.260626 0.083107 255 0 0 54 10
-1.728447 -0.236530 0.137107 255 0 0 54 10
-1.750199 -0.338866 0.084787 255 0 0 54 10
-1.587789 -0.281817 0.134107 255 0 0 54 10
-1.609422 -0.304381 0.083107 255 0 0 54 10
-1.568122 -0.463444 0.076152 255 0 0 54 10
-1.793777 -0.222257 0.173107 255 0 0 54 10
-1.701137 -0.295625 0.083107 255 0 0 54 10
-1.640459 -0.255455 0.101107 255 0 0 54 10
-1.799235 -0.208829 0.120612 255 0 0 54 10
-1.596945 -0.339321 0.083107 255 0 0 54 10
-1.521577 -0.295450 0.122107 255 0 0 54 10
-1.749157 -0.276244 0.083107 255 0 0 54 10
-1.697308 -0.393046 0.081610 255 0 0 54 10
-1.777718 -0.219537 0.227106 255 0 0 54 10
-1.790974 -0.213253 0.197106 255 0 0 54 10
-1.691677 -0.251119 0.155107 255 0 0 54 10
-1.724087 -0.418025 0.084697 255 0 0 54 10
-1.798511 -0.393004 0.084867 255 0 0 54 10
-1.802169 -0.208205 0.176435 255 0 0 54 10
-1.671848 -0.330984 0.081664 255 0 0 54 10
-1.762259 -0.225890 0.155107 255 0 0 54 10
-1.779615 -0.289675 0.084792 255 0 0 54 10
-1.591355 -0.284163 0.191106 255 0 0 54 10
-1.723429 -0.241781 0.242107 255 0 0 54 10
-1.777319 -0.222689 0.194106 255 0 0 54 10
-1.632728 -0.366902 0.092106 255 0 0 54 10
-1.758676 -0.407605 0.081628 255 0 0 54 10
-1.770117 -0.331565 0.084841 255 0 0 54 10
-1.591893 -0.366381 0.083107 255 0 0 54 10
-1.589512 -0.284077 0.143106 255 0 0 54 10
-1.750623 -0.228363 0.197106 255 0 0 54 10
-1.632578 -0.261666 0.104107 255 0 0 54 10
-1.786518 -0.423157 0.085441 255 0 0 54 10
-1.689129 -0.397852 0.081656 255 0 0 54 10
-1.764248 -0.332813 0.091668 255 0 0 54 10
-1.838672 -0.307792 0.084772 255 0 0 54 10
-1.640108 -0.261055 0.218107 255 0 0 54 10
-1.810533 -0.218696 0.200068 255 0 0 54 10
-1.634945 -0.394034 0.092106 255 0 0 54 10
-1.747704 -0.327128 0.084829 255 0 0 54 10
-1.721641 -0.233368 0.125106 255 0 0 54 10
-1.757712 -0.302063 0.083107 255 0 0 54 10
-1.687796 -0.395068 0.092106 255 0 0 54 10
-1.809423 -0.206663 0.143106 255 0 0 54 10
-1.816586 -0.232744 0.092350 255 0 0 54 10
-1.800251 -0.322093 0.083107 255 0 0 54 10
-1.758860 -0.422901 0.091606 255 0 0 54 10
-1.541756 -0.386239 0.077106 255 0 0 54 10
-1.772825 -0.214443 0.163694 255 0 0 54 10
-1.519449 -0.292176 0.092106 255 0 0 54 10
-1.566577 -0.384030 0.091427 255 0 0 54 10
-1.691468 -0.250138 0.084764 255 0 0 54 10
-1.666847 -0.252304 0.230106 255 0 0 54 10
-1.623810 -0.263703 0.131106 255 0 0 54 10
-1.629732 -0.428879 0.083107 255 0 0 54 10
-1.761345 -0.232580 0.125106 255 0 0 54 10
-1.627753 -0.260614 0.209106 255 0 0 54 10
-1.806830 -0.215704 0.263106 255 0 0 54 10
-1.548716 -0.285570 0.188107 255 0 0 54 10
-1.781670 -0.313774 0.091434 255 0 0 54 10
-1.590555 -0.302258 0.083107 255 0 0 54 10
-1.721407 -0.390991 0.084829 255 0 0 54 10
-1.757939 -0.346422 0.084806 255 0 0 54 10
-1.514615 -0.306131 0.152107 255 0 0 54 10
-1.545978 -0.366939 0.077106 255 0 0 54 10
-1.743810 -0.236663 0.119107 255 0 0 54 10
-1.515420 -0.299826 0.245106 255 0 0 54 10
-1.562625 -0.293291 0.137107 255 0 0 54 10
-1.640704 -0.285464 0.081610 255 0 0 54 10
-1.568027 -0.289848 0.203107 255 0 0 54 10
-1.568528 -0.282404 0.224107 255 0 0 54 10
-1.606066 -0.266797 0.239107 255 0 0 54 10
-1.682665 -0.252009 0.084697 255 0 0 54 10
-1.544062 -0.292537 0.218107 255 0 0 54 10
-1.863662 -0.396504 0.086107 255 0 0 54 10
-1.670388 -0.453975 0.089432 255 0 0 54 10
-1.528073 -0.303889 0.167107 255 0 0 54 10
-1.612658 -0.404905 0.092106 255 0 0 54 10
-1.653995 -0.261422 0.134107 255 0 0 54 10
-1.517897 -0.299299 0.072966 255 0 0 54 10
-1.809730 -0.289408 0.092106 255 0 0 54 10
-1.685026 -0.371121 0.083107 255 0 0 54 10
-1.516916 -0.309114 0.227106 255 0 0 54 10
-1.668956 -0.432810 0.092724 255 0 0 54 10
-1.722215 -0.409221 0.084795 255 0 0 54 10
-1.690958 -0.305453 0.092087 255 0 0 54 10
-1.576361 -0.394218 0.083107 255 0 0 54 10
-1.703520 -0.241442 0.194106 255 0 0 54 10
-1.574360 -0.290786 0.143106 255 0 0 54 10
-1.750993 -0.227169 0.260106 255 0 0 54 10
-1.748968 -0.228715 0.191106 255 0 0 54 10
-1.576650 -0.315987 0.083107 255 0 0 54 10
-1.683232 -0.258022 0.101107 255 0 0 54 10
-1.514914 -0.306068 0.101107 255 0 0 54 10
-1.535312 -0.320134 0.092106 255 0 0 54 10
-1.824672 -0.342933 0.083107 255 0 0 54 10
-1.536582 -0.390405 0.083107 255 0 0 54 10
-1.694548 -0.423349 0.092106 255 0 0 54 10
-1.790843 -0.321025 0.083107 255 0 0 54 10
-1.768555 -0.221484 0.242107 255 0 0 54 10
-1.693779 -0.246579 0.226099 255 0 0 54 10
-1.697177 -0.313332 0.083107 255 0 0 54 10
-1.636138 -0.271099 0.083107 255 0 0 54 10
-1.777112 -0.220186 0.146106 255 0 0 54 10
-1.694750 -0.319981 0.092106 255 0 0 54 10
-1.577332 -0.344939 0.092106 255 0 0 54 10
-1.695617 -0.421009 0.083107 255 0 0 54 10
-1.682567 -0.248963 0.188107 255 0 0 54 10
-1.646079 -0.259786 0.131106 255 0 0 54 10
-1.770887 -0.219756 0.080106 255 0 0 54 10
-1.546844 -0.406626 0.091346 255 0 0 54 10
-1.597939 -0.430573 0.092106 255 0 0 54 10
-1.641783 -0.261684 0.080106 255 0 0 54 10
-1.640054 -0.267980 0.206107 255 0 0 54 10
-1.649416 -0.398598 0.083107 255 0 0 54 10
-1.590037 -0.277964 0.152107 255 0 0 54 10
-1.740506 -0.242781 0.083107 255 0 0 54 10
-1.574565 -0.468209 0.092106 255 0 0 54 10
-1.783320 -0.234961 0.092106 255 0 0 54 10
-1.768501 -0.295104 0.081609 255 0 0 54 10
-1.560708 -0.385277 0.091756 255 0 0 54 10
-1.679440 -0.252694 0.215106 255 0 0 54 10
-1.735389 -0.305210 0.083107 255 0 0 54 10
-1.836106 -0.339008 0.081607 255 0 0 54 10
-1.716877 -0.427394 0.074106 255 0 0 54 10
-1.519902 -0.308735 0.215106 255 0 0 54 10
-1.712729 -0.379021 0.083107 255 0 0 54 10
-1.682799 -0.252642 0.110106 255 0 0 54 10
-1.701149 -0.241946 0.179106 255 0 0 54 10
-1.688136 -0.364326 0.081656 255 0 0 54 10
-1.602166 -0.335026 0.083107 255 0 0 54 10
-1.569030 -0.294565 0.260782 255 0 0 54 10
-1.607013 -0.444405 0.083107 255 0 0 54 10
-1.614712 -0.350761 0.083107 255 0 0 54 10
-1.630582 -0.324420 0.092083 255 0 0 54 10
-1.746422 -0.342736 0.083107 255 0 0 54 10
-1.762289 -0.222595 0.233106 255 0 0 54 10
-1.658350 -0.310766 0.083107 255 0 0 54 10
-1.585371 -0.422973 0.092106 255 0 0 54 10
-1.615019 -0.373733 0.083107 255 0 0 54 10
-1.819836 -0.284193 0.083107 255 0 0 54 10
-1.683452 -0.392924 0.083107 255 0 0 54 10
-1.514735 -0.306106 0.158106 255 0 0 54 10
-1.702452 -0.258527 0.083107 255 0 0 54 10
-1.681612 -0.255300 0.188107 255 0 0 54 10
-1.615102 -0.309308 0.081650 255 0 0 54 10
-1.753091 -0.237039 0.098771 255 0 0 54 10
-1.701012 -0.251751 0.257107 255 0 0 54 10
-1.695986 -0.357968 0.083107 255 0 0 54 10
-1.739981 -0.247507 0.083107 255 0 0 54 10
-1.735583 -0.371108 0.083107 255 0 0 54 10
-1.770589 -0.224119 0.119107 255 0 0 54 10
-1.632993 -0.451197 0.077106 255 0 0 54 10
-1.584141 -0.279085 0.249122 255 0 0 54 10
-1.575522 -0.296252 0.081612 255 0 0 54 10
-1.769266 -0.212132 0.117610 255 0 0 54 10
-1.812965 -0.396066 0.080106 255 0 0 54 10
-1.695865 -0.292141 0.083107 255 0 0 54 10
-1.824703 -0.393571 0.074106 255 0 0 54 10
-1.657291 -0.269670 0.083107 255 0 0 54 10
-1.774072 -0.220312 0.213537 255 0 0 54 10
-1.769266 -0.212132 0.177611 255 0 0 54 10
-1.674608 -0.437743 0.080106 255 0 0 54 10
-1.758369 -0.355531 0.083107 255 0 0 54 10
-1.595512 -0.318152 0.083107 255 0 0 54 10
-1.628711 -0.315617 0.084823 255 0 0 54 10
-1.542180 -0.312540 0.081689 255 0 0 54 10
-1.521517 -0.319999 0.077106 255 0 0 54 10
-1.708647 -0.381435 0.083107 255 0 0 54 10
-1.572643 -0.325995 0.083107 255 0 0 54 10
-1.711182 -0.299598 0.083107 255 0 0 54 10
-1.777033 -0.392962 0.083107 255 0 0 54 10
-1.668130 -0.255772 0.221107 255 0 0 54 10
-1.727071 -0.395921 0.083107 255 0 0 54 10
-1.729859 -0.286460 0.083107 255 0 0 54 10
-1.780200 -0.314087 0.083107 255 0 0 54 10
-1.777743 -0.280872 0.081650 255 0 0 54 10
-1.613486 -0.272847 0.263134 255 0 0 54 10
-1.563848 -0.467420 0.080106 255 0 0 54 10
-1.663660 -0.407892 0.083107 255 0 0 54 10
-1.710345 -0.239991 0.167107 255 0 0 54 10
-1.800382 -0.401808 0.072616 255 0 0 54 10
-1.647250 -0.316264 0.083107 255 0 0 54 10
-1.788121 -0.214258 0.245777 255 0 0 54 10
-1.794613 -0.215945 0.198472 255 0 0 54 10
-1.651982 -0.266378 0.263106 255 0 0 54 10
-1.767808 -0.212442 0.152107 255 0 0 54 10
-1.569260 -0.281220 0.203107 255 0 0 54 10
-1.845779 -0.384516 0.080106 255 0 0 54 10
-1.643543 -0.255534 0.245106 255 0 0 54 10
-1.580455 -0.290599 0.083107 255 0 0 54 10
-1.775819 -0.242961 0.083107 255 0 0 54 10
-1.743905 -0.280396 0.083107 255 0 0 54 10
-1.699251 -0.380365 0.083107 255 0 0 54 10
-1.669212 -0.383683 0.083107 255 0 0 54 10
-1.758997 -0.226583 0.188107 255 0 0 54 10
-1.583365 -0.484740 0.077106 255 0 0 54 10
-1.714799 -0.403190 0.083107 255 0 0 54 10
-1.824970 -0.365911 0.083107 255 0 0 54 10
-1.837722 -0.375469 0.081635 255 0 0 54 10
-1.817628 -0.295362 0.083107 255 0 0 54 10
-1.699003 -0.263871 0.083107 255 0 0 54 10
-1.679485 -0.452041 0.083107 255 0 0 54 10
-1.700980 -0.237171 0.242107 255 0 0 54 10
-1.691679 -0.388109 0.083107 255 0 0 54 10
-1.821647 -0.213266 0.111626 255 0 0 54 10
-1.732598 -0.241630 0.170107 255 0 0 54 10
-1.568710 -0.293061 0.083107 255 0 0 54 10
-1.570179 -0.285545 0.242107 255 0 0 54 10
-1.800031 -0.212578 0.083107 255 0 0 54 10
-1.788286 -0.301612 0.083107 255 0 0 54 10
-1.703047 -0.391187 0.092106 255 0 0 54 10
-1.681417 -0.246140 0.254578 255 0 0 54 10
-1.720503 -0.242443 0.188107 255 0 0 54 10
-1.663811 -0.249882 0.135651 255 0 0 54 10
-1.753715 -0.239974 0.092759 255 0 0 54 10
-1.573009 -0.281451 0.194106 255 0 0 54 10
-1.693587 -0.396904 0.083107 255 0 0 54 10
-1.752271 -0.366029 0.092106 255 0 0 54 10
-1.628164 -0.315733 0.092106 255 0 0 54 10
-1.613606 -0.359987 0.092106 255 0 0 54 10
-1.588749 -0.473914 0.092106 255 0 0 54 10
-1.777007 -0.219688 0.081733 255 0 0 54 10
-1.723341 -0.277100 0.092106 255 0 0 54 10
-1.649129 -0.325103 0.083107 255 0 0 54 10
-1.620226 -0.318988 0.083107 255 0 0 54 10
-1.525678 -0.307052 0.212106 255 0 0 54 10
-1.799319 -0.411235 0.079088 255 0 0 54 10
-1.669240 -0.260996 0.263412 255 0 0 54 10
-1.762683 -0.325450 0.083107 255 0 0 54 10
-1.797278 -0.329485 0.092106 255 0 0 54 10
-1.745316 -0.395110 0.083107 255 0 0 54 10
-1.670832 -0.254057 0.122107 255 0 0 54 10
-1.532008 -0.322400 0.074106 255 0 0 54 10
-1.622301 -0.271033 0.209106 255 0 0 54 10
-1.739243 -0.229604 0.218107 255 0 0 54 10
-1.533013 -0.366628 0.083107 255 0 0 54 10
-1.630445 -0.263109 0.203107 255 0 0 54 10
-1.567361 -0.474295 0.074106 255 0 0 54 10
-1.582920 -0.432063 0.092106 255 0 0 54 10
-1.643888 -0.329305 0.083107 255 0 0 54 10
-1.518336 -0.286938 0.081571 255 0 0 54 10
-1.692966 -0.246752 0.179106 255 0 0 54 10
-1.799971 -0.270013 0.081686 255 0 0 54 10
-1.581831 -0.282643 0.184816 255 0 0 54 10
-1.706389 -0.291474 0.083107 255 0 0 54 10
-1.713068 -0.308467 0.083107 255 0 0 54 10
-1.764445 -0.218308 0.089106 255 0 0 54 10
-1.632840 -0.262897 0.194106 255 0 0 54 10
-1.514962 -0.299923 0.103557 255 0 0 54 10
-1.771138 -0.220935 0.203997 255 0 0 54 10
-1.512942 -0.304850 0.173107 255 0 0 54 10
-1.754056 -0.292041 0.083107 255 0 0 54 10
-1.739708 -0.231790 0.083107 255 0 0 54 10
-1.716186 -0.323137 0.083107 255 0 0 54 10
-1.728368 -0.236160 0.132012 255 0 0 54 10
-1.804797 -0.206139 0.089106 255 0 0 54 10
-1.562020 -0.326725 0.083107 255 0 0 54 10
-1.589734 -0.377542 0.083107 255 0 0 54 10
-1.755487 -0.236530 0.263106 255 0 0 54 10
-1.586206 -0.401327 0.092106 255 0 0 54 10
-1.810759 -0.313725 0.083107 255 0 0 54 10
-1.681131 -0.244794 0.194106 255 0 0 54 10
-1.529379 -0.324462 0.069615 255 0 0 54 10
-1.521651 -0.295434 0.203107 255 0 0 54 10
-1.581492 -0.281051 0.083107 255 0 0 54 10
-1.870809 -0.386838 0.075647 255 0 0 54 10
-1.627760 -0.383293 0.081630 255 0 0 54 10
-1.586665 -0.464109 0.074106 255 0 0 54 10
-1.741346 -0.311646 0.083107 255 0 0 54 10
-1.783499 -0.221375 0.164107 255 0 0 54 10
-1.575338 -0.280956 0.171024 255 0 0 54 10
-1.665599 -0.280172 0.083107 255 0 0 54 10
-1.613690 -0.367882 0.083107 255 0 0 54 10
-1.565882 -0.424049 0.081687 255 0 0 54 10
-1.782531 -0.231247 0.260106 255 0 0 54 10
-1.646499 -0.348640 0.083107 255 0 0 54 10
-1.595879 -0.276590 0.138523 255 0 0 54 10
-1.660440 -0.335031 0.083107 255 0 0 54 10
-1.604682 -0.274719 0.197286 255 0 0 54 10
-1.831225 -0.402618 0.080106 255 0 0 54 10
-1.580439 -0.460826 0.092106 255 0 0 54 10
-1.630553 -0.468576 0.086018 255 0 0 54 10
-1.550175 -0.292438 0.233248 255 0 0 54 10
-1.629803 -0.327652 0.083107 255 0 0 54 10
-1.616902 -0.361065 0.081640 255 0 0 54 10
-1.768591 -0.224544 0.206107 255 0 0 54 10
-1.708808 -0.259571 0.092106 255 0 0 54 10
-1.604694 -0.354459 0.083107 255 0 0 54 10
-1.599593 -0.438353 0.092487 255 0 0 54 10
-1.620692 -0.407754 0.083107 255 0 0 54 10
-1.534331 -0.292739 0.215106 255 0 0 54 10
-1.589567 -0.277932 0.188107 255 0 0 54 10
-1.611079 -0.297895 0.083107 255 0 0 54 10
-1.781557 -0.212238 0.107106 255 0 0 54 10
-1.809835 -0.221911 0.260106 255 0 0 54 10
-1.810759 -0.335194 0.081658 255 0 0 54 10
-1.615796 -0.341434 0.083107 255 0 0 54 10
-1.804801 -0.206161 0.161106 255 0 0 54 10
-1.661391 -0.259598 0.119107 255 0 0 54 10
-1.649512 -0.254759 0.203107 255 0 0 54 10
-1.840288 -0.344253 0.081655 255 0 0 54 10
-1.612238 -0.266978 0.079415 255 0 0 54 10
-1.801899 -0.221364 0.170107 255 0 0 54 10
-1.709609 -0.364342 0.083107 255 0 0 54 10
-1.684204 -0.244821 0.227106 255 0 0 54 10
-1.839317 -0.390465 0.092106 255 0 0 54 10
-1.714069 -0.276004 0.092106 255 0 0 54 10
-1.697929 -0.245697 0.194106 255 0 0 54 10
-1.619978 -0.274534 0.171517 255 0 0 54 10
-1.710485 -0.325178 0.092106 255 0 0 54 10
-1.735557 -0.226690 0.185107 255 0 0 54 10
-1.784614 -0.218071 0.083107 255 0 0 54 10
-1.745351 -0.229483 0.081707 255 0 0 54 10
-1.816494 -0.211294 0.140106 255 0 0 54 10
-1.755507 -0.233973 0.239107 255 0 0 54 10
-1.569543 -0.311408 0.083107 255 0 0 54 10
-1.742278 -0.373744 0.092106 255 0 0 54 10
-1.791977 -0.362264 0.083107 255 0 0 54 10
-1.846525 -0.373597 0.092556 255 0 0 54 10
-1.574001 -0.281240 0.179106 255 0 0 54 10
-1.553541 -0.359197 0.083107 255 0 0 54 10
-1.747009 -0.367147 0.081668 255 0 0 54 10
-1.730547 -0.231980 0.095106 255 0 0 54 10
-1.783855 -0.223049 0.173107 255 0 0 54 10
-1.696713 -0.245956 0.231660 255 0 0 54 10
-1.715728 -0.234408 0.155107 255 0 0 54 10
-1.784747 -0.306986 0.083107 255 0 0 54 10
-1.808662 -0.209892 0.177461 255 0 0 54 10
-1.742712 -0.383395 0.083107 255 0 0 54 10
-1.720903 -0.244328 0.203107 255 0 0 54 10
-1.739975 -0.230626 0.203107 255 0 0 54 10
-1.532295 -0.294893 0.143106 255 0 0 54 10
-1.662124 -0.256375 0.236822 255 0 0 54 10
-1.558879 -0.376674 0.092106 255 0 0 54 10
-1.615257 -0.468760 0.079126 255 0 0 54 10
-1.549236 -0.295705 0.251107 255 0 0 54 10
-1.789556 -0.221011 0.194106 255 0 0 54 10
-1.797108 -0.227683 0.092986 255 0 0 54 10
-1.590645 -0.468404 0.092106 255 0 0 54 10
-1.727282 -0.325335 0.092106 255 0 0 54 10
-1.716376 -0.338463 0.083107 255 0 0 54 10
-1.819510 -0.210653 0.122107 255 0 0 54 10
-1.722500 -0.237408 0.075693 255 0 0 54 10
-1.660946 -0.262759 0.140106 255 0 0 54 10
-1.689328 -0.247526 0.074106 255 0 0 54 10
-1.615232 -0.389023 0.083107 255 0 0 54 10
-1.560330 -0.455644 0.080106 255 0 0 54 10
-1.744188 -0.426020 0.075698 255 0 0 54 10
-1.523326 -0.310414 0.241783 255 0 0 54 10
-1.751376 -0.387688 0.092338 255 0 0 54 10
-1.718710 -0.238213 0.149107 255 0 0 54 10
-1.789512 -0.206377 0.101107 255 0 0 54 10
-1.816517 -0.211290 0.098107 255 0 0 54 10
-1.723151 -0.237269 0.197106 255 0 0 54 10
-1.730044 -0.235804 0.170107 255 0 0 54 10
-1.586289 -0.339969 0.083107 255 0 0 54 10
-1.762334 -0.222807 0.075686 255 0 0 54 10
-1.820580 -0.410258 0.086107 255 0 0 54 10
-1.643828 -0.256875 0.098107 255 0 0 54 10
-1.801103 -0.272839 0.092106 255 0 0 54 10
-1.818712 -0.213890 0.165383 255 0 0 54 10
-1.716376 -0.244843 0.179106 255 0 0 54 10
-1.531811 -0.292618 0.083107 255 0 0 54 10
-1.601337 -0.273411 0.125106 255 0 0 54 10
-1.768684 -0.221457 0.152107 255 0 0 54 10
-1.769812 -0.224284 0.125106 255 0 0 54 10
-1.638024 -0.258430 0.246356 255 0 0 54 10
-1.554300 -0.429578 0.077106 255 0 0 54 10
-1.551635 -0.284874 0.245106 255 0 0 54 10
-1.675971 -0.249377 0.113106 255 0 0 54 10
-1.739567 -0.433136 0.082870 255 0 0 54 10
-1.563702 -0.406110 0.083107 255 0 0 54 10
-1.689419 -0.443796 0.092106 255 0 0 54 10
-1.586749 -0.349072 0.091426 255 0 0 54 10
-1.819007 -0.215278 0.152107 255 0 0 54 10
-1.706821 -0.250223 0.257107 255 0 0 54 10
-1.601293 -0.342914 0.092106 255 0 0 54 10
-1.665171 -0.314001 0.091902 255 0 0 54 10
-1.776814 -0.216662 0.260106 255 0 0 54 10
-1.755560 -0.227313 0.080106 255 0 0 54 10
-1.764338 -0.216246 0.143106 255 0 0 54 10
-1.668769 -0.258782 0.230106 255 0 0 54 10
-1.727021 -0.417401 0.092239 255 0 0 54 10
-1.721079 -0.237710 0.224107 255 0 0 54 10
-1.792449 -0.205765 0.158106 255 0 0 54 10
-1.614742 -0.278760 0.257107 255 0 0 54 10
-1.657204 -0.262090 0.251107 255 0 0 54 10
-1.750894 -0.298847 0.091915 255 0 0 54 10
-1.807172 -0.210209 0.194106 255 0 0 54 10
-1.719565 -0.238031 0.217736 255 0 0 54 10
-1.594816 -0.286017 0.263492 255 0 0 54 10
-1.768353 -0.304337 0.092106 255 0 0 54 10
-1.536219 -0.304606 0.257107 255 0 0 54 10
-1.664894 -0.252719 0.113106 255 0 0 54 10
-1.749533 -0.234728 0.198539 255 0 0 54 10
-1.557731 -0.284698 0.079070 255 0 0 54 10
-1.698969 -0.242139 0.173107 255 0 0 54 10
-1.512542 -0.300438 0.080106 255 0 0 54 10
-1.552486 -0.288880 0.217342 255 0 0 54 10
-1.630883 -0.434769 0.092106 255 0 0 54 10
-1.774160 -0.226427 0.182106 255 0 0 54 10
-1.829461 -0.250029 0.086107 255 0 0 54 10
-1.815339 -0.299024 0.092106 255 0 0 54 10
-1.643596 -0.255783 0.122107 255 0 0 54 10
-1.625747 -0.460396 0.078800 255 0 0 54 10
-1.678525 -0.347966 0.091692 255 0 0 54 10
-1.683864 -0.358653 0.092106 255 0 0 54 10
-1.588299 -0.284217 0.107106 255 0 0 54 10
-1.694502 -0.249982 0.218107 255 0 0 54 10
-1.685244 -0.251461 0.158106 255 0 0 54 10
-1.574243 -0.281189 0.146106 255 0 0 54 10
-1.532439 -0.295572 0.122107 255 0 0 54 10
-1.641583 -0.260741 0.182873 255 0 0 54 10
-1.713613 -0.238886 0.206107 255 0 0 54 10
-1.807829 -0.220405 0.224107 255 0 0 54 10
-1.719070 -0.406823 0.092106 255 0 0 54 10
-1.828918 -0.305193 0.092106 255 0 0 54 10
-1.726617 -0.297873 0.092106 255 0 0 54 10
-1.713500 -0.245455 0.119107 255 0 0 54 10
-1.657063 -0.275853 0.091612 255 0 0 54 10
-1.797021 -0.206232 0.107106 255 0 0 54 10
-1.648703 -0.337527 0.092106 255 0 0 54 10
-1.777543 -0.222641 0.236107 255 0 0 54 10
-1.784258 -0.218147 0.134107 255 0 0 54 10
-1.665377 -0.249549 0.206107 255 0 0 54 10
-1.797019 -0.206233 0.227106 255 0 0 54 10
-1.818089 -0.210956 0.102728 255 0 0 54 10
-1.587247 -0.279265 0.116107 255 0 0 54 10
-1.618025 -0.265344 0.098107 255 0 0 54 10
-1.817804 -0.209615 0.197106 255 0 0 54 10
-1.646017 -0.267174 0.110106 255 0 0 54 10
-1.724309 -0.245919 0.107106 255 0 0 54 10
-1.525842 -0.307822 0.260106 255 0 0 54 10
-1.736125 -0.229364 0.086107 255 0 0 54 10
-1.598700 -0.477440 0.086107 255 0 0 54 10
-1.531490 -0.291105 0.101107 255 0 0 54 10
-1.802169 -0.208205 0.241722 255 0 0 54 10
-1.538115 -0.291935 0.125106 255 0 0 54 10
-1.523493 -0.298110 0.224107 255 0 0 54 10
-1.654662 -0.264557 0.119107 255 0 0 54 10
-1.641215 -0.302301 0.092106 255 0 0 54 10
-1.702706 -0.245290 0.140106 255 0 0 54 10
-1.771822 -0.224154 0.176106 255 0 0 54 10
-1.526000 -0.306778 0.122107 255 0 0 54 10
-1.870809 -0.386838 0.084442 255 0 0 54 10
-1.759089 -0.373780 0.092106 255 0 0 54 10
-1.715567 -0.248082 0.258639 255 0 0 54 10
-1.809991 -0.212677 0.236107 255 0 0 54 10
-1.776042 -0.215148 0.224107 255 0 0 54 10
-1.568473 -0.277519 0.239107 255 0 0 54 10
-1.722647 -0.238103 0.158106 255 0 0 54 10
-1.630469 -0.266171 0.242941 255 0 0 54 10
-1.653443 -0.255153 0.257107 255 0 0 54 10
-1.613988 -0.278875 0.104107 255 0 0 54 10
-1.782082 -0.214709 0.215106 255 0 0 54 10
-1.772762 -0.214148 0.122107 255 0 0 54 10
-1.530056 -0.296715 0.263106 255 0 0 54 10
-1.714617 -0.315759 0.091504 255 0 0 54 10
-1.742247 -0.229307 0.233106 255 0 0 54 10
-1.532423 -0.295497 0.224107 255 0 0 54 10
-1.581207 -0.279709 0.221393 255 0 0 54 10
-1.620788 -0.263913 0.152107 255 0 0 54 10
-1.734597 -0.431126 0.092106 255 0 0 54 10
-1.661214 -0.454105 0.077106 255 0 0 54 10
-1.779446 -0.260024 0.092106 255 0 0 54 10
-1.533245 -0.299364 0.227106 255 0 0 54 10
-1.792383 -0.219882 0.140106 255 0 0 54 10
-1.712633 -0.248706 0.263587 255 0 0 54 10
-1.773222 -0.214358 0.212106 255 0 0 54 10
-1.753531 -0.224678 0.245844 255 0 0 54 10
-1.606369 -0.268226 0.254529 255 0 0 54 10
-1.673279 -0.251140 0.206107 255 0 0 54 10
-1.669239 -0.248728 0.257107 255 0 0 54 10
-1.765249 -0.225254 0.203107 255 0 0 54 10
-1.676796 -0.253256 0.245162 255 0 0 54 10
-1.625313 -0.270773 0.245106 255 0 0 54 10
-1.747909 -0.235074 0.110106 255 0 0 54 10
-1.793348 -0.231550 0.092106 255 0 0 54 10
-1.771477 -0.223930 0.134107 255 0 0 54 10
-1.770231 -0.214994 0.155107 255 0 0 54 10
-1.670472 -0.454370 0.083107 255 0 0 54 10
-1.679730 -0.252633 0.143579 255 0 0 54 10
-1.785288 -0.294603 0.092106 255 0 0 54 10
-1.581362 -0.439161 0.092584 255 0 0 54 10
-1.567817 -0.282555 0.215106 255 0 0 54 10
-1.688854 -0.252268 0.134107 255 0 0 54 10
-1.512028 -0.300547 0.145951 255 0 0 54 10
-1.697462 -0.249476 0.173107 255 0 0 54 10
-1.587776 -0.281754 0.200107 255 0 0 54 10
-1.603928 -0.271172 0.248106 255 0 0 54 10
-1.682410 -0.279666 0.085016 255 0 0 54 10
-1.606227 -0.354133 0.091547 255 0 0 54 10
-1.757833 -0.230486 0.215106 255 0 0 54 10
-1.641043 -0.460212 0.079008 255 0 0 54 10
-1.595595 -0.448403 0.092248 255 0 0 54 10
-1.850673 -0.314442 0.086107 255 0 0 54 10
-1.742557 -0.302913 0.092106 255 0 0 54 10
-1.715763 -0.235773 0.260106 255 0 0 54 10
-1.611335 -0.270237 0.230106 255 0 0 54 10
-1.522387 -0.334854 0.089106 255 0 0 54 10
-1.668036 -0.255330 0.146106 255 0 0 54 10
-1.550799 -0.295373 0.114591 255 0 0 54 10
-1.514833 -0.299317 0.236107 255 0 0 54 10
-1.530354 -0.300189 0.113106 255 0 0 54 10
-1.523489 -0.296751 0.209106 255 0 0 54 10
-1.868490 -0.396532 0.086107 255 0 0 54 10
-1.720416 -0.242036 0.152107 255 0 0 54 10
-1.713522 -0.238457 0.131106 255 0 0 54 10
-1.570617 -0.475182 0.091992 255 0 0 54 10
-1.746299 -0.291656 0.092106 255 0 0 54 10
-1.516394 -0.321088 0.085225 255 0 0 54 10
-1.534549 -0.292693 0.113106 255 0 0 54 10
-1.696100 -0.393303 0.092106 255 0 0 54 10
-1.555583 -0.435439 0.077106 255 0 0 54 10
-1.617479 -0.268932 0.077106 255 0 0 54 10
-1.715468 -0.435192 0.092594 255 0 0 54 10
-1.778008 -0.305352 0.092106 255 0 0 54 10
-1.593046 -0.407554 0.092106 255 0 0 54 10
-1.788112 -0.214219 0.098107 255 0 0 54 10
-1.617866 -0.452176 0.092106 255 0 0 54 10
-1.573293 -0.284458 0.221107 255 0 0 54 10
-1.553199 -0.292233 0.122107 255 0 0 54 10
-1.724371 -0.246211 0.258539 255 0 0 54 10
-1.759644 -0.224577 0.080106 255 0 0 54 10
-1.583591 -0.279202 0.164106 255 0 0 54 10
-1.797496 -0.380952 0.092106 255 0 0 54 10
-1.631295 -0.270056 0.209106 255 0 0 54 10
-1.667773 -0.255174 0.185107 255 0 0 54 10
-1.526445 -0.325086 0.072986 255 0 0 54 10
-1.781286 -0.421889 0.087322 255 0 0 54 10
-1.526775 -0.303546 0.131106 255 0 0 54 10
-1.743212 -0.229938 0.212106 255 0 0 54 10
-1.774031 -0.220118 0.122107 255 0 0 54 10
-1.825963 -0.243019 0.089106 255 0 0 54 10
-1.809836 -0.209643 0.221107 255 0 0 54 10
-1.734294 -0.235178 0.191106 255 0 0 54 10
-1.684161 -0.248624 0.236107 255 0 0 54 10
-1.700982 -0.251610 0.107106 255 0 0 54 10
-1.747447 -0.229038 0.113106 255 0 0 54 10
-1.519671 -0.293221 0.221107 255 0 0 54 10
-1.760024 -0.226365 0.261181 255 0 0 54 10
-1.797548 -0.215322 0.261812 255 0 0 54 10
-1.770514 -0.218001 0.144730 255 0 0 54 10
-1.702298 -0.416522 0.092459 255 0 0 54 10
-1.810130 -0.212647 0.230106 255 0 0 54 10
-1.549707 -0.350811 0.092106 255 0 0 54 10
-1.777007 -0.219688 0.200483 255 0 0 54 10
-1.661500 -0.253441 0.245528 255 0 0 54 10
-1.752930 -0.236279 0.107106 255 0 0 54 10
-1.816038 -0.273454 0.092106 255 0 0 54 10
-1.752850 -0.227890 0.173107 255 0 0 54 10
-1.634194 -0.269266 0.128106 255 0 0 54 10
-1.719003 -0.238151 0.182106 255 0 0 54 10
-1.549926 -0.291263 0.251107 255 0 0 54 10
-1.591954 -0.431275 0.092106 255 0 0 54 10
-1.799044 -0.222362 0.239107 255 0 0 54 10
-1.819705 -0.247416 0.090490 255 0 0 54 10
-1.517622 -0.314693 0.083107 255 0 0 54 10
-1.573027 -0.284514 0.190660 255 0 0 54 10
-1.586791 -0.450275 0.091709 255 0 0 54 10
-1.664187 -0.251652 0.083107 255 0 0 54 10
-1.550108 -0.292123 0.263106 255 0 0 54 10
-1.647706 -0.259440 0.227106 255 0 0 54 10
-1.771725 -0.223878 0.215106 255 0 0 54 10
-1.701008 -0.309450 0.081615 255 0 0 54 10
-1.757329 -0.415695 0.077106 255 0 0 54 10
-1.659979 -0.260712 0.134107 255 0 0 54 10
-1.783084 -0.262709 0.092106 255 0 0 54 10
-1.549552 -0.289504 0.237880 255 0 0 54 10
-1.627463 -0.309748 0.084988 255 0 0 54 10
-1.525928 -0.306794 0.182106 255 0 0 54 10
-1.591371 -0.341956 0.084955 255 0 0 54 10
-1.554528 -0.428349 0.092106 255 0 0 54 10
-1.764356 -0.222377 0.101107 255 0 0 54 10
-1.812910 -0.215450 0.221107 255 0 0 54 10
-1.774072 -0.220312 0.260280 255 0 0 54 10
-1.670969 -0.355707 0.084970 255 0 0 54 10
-1.781225 -0.246394 0.092106 255 0 0 54 10
-1.530542 -0.358789 0.089106 255 0 0 54 10
-1.661125 -0.293392 0.092106 255 0 0 54 10
-1.606329 -0.268035 0.260106 255 0 0 54 10
-1.632964 -0.277908 0.084939 255 0 0 54 10
-1.799941 -0.245483 0.092106 255 0 0 54 10
-1.699874 -0.361831 0.081607 255 0 0 54 10
-1.645774 -0.259850 0.191106 255 0 0 54 10
-1.771893 -0.210061 0.239107 255 0 0 54 10
-1.780944 -0.223784 0.206107 255 0 0 54 10
-1.529318 -0.295318 0.131106 255 0 0 54 10
-1.716191 -0.251017 0.084942 255 0 0 54 10
-1.718502 -0.247459 0.263427 255 0 0 54 10
-1.781188 -0.224933 0.108775 255 0 0 54 10
-1.690263 -0.345472 0.084936 255 0 0 54 10
-1.656255 -0.257622 0.149400 255 0 0 54 10
-1.729228 -0.283490 0.092106 255 0 0 54 10
-1.625275 -0.270595 0.215106 255 0 0 54 10
-1.736917 -0.261946 0.084949 255 0 0 54 10
-1.754155 -0.227612 0.216236 255 0 0 54 10
-1.810762 -0.218647 0.179106 255 0 0 54 10
-1.534702 -0.292660 0.167107 255 0 0 54 10
-1.561351 -0.425012 0.074106 255 0 0 54 10
-1.553734 -0.294749 0.081622 255 0 0 54 10
-1.583567 -0.355882 0.092106 255 0 0 54 10
-1.733694 -0.232357 0.239107 255 0 0 54 10
-1.609970 -0.371739 0.085001 255 0 0 54 10
-1.772063 -0.217672 0.167107 255 0 0 54 10
-1.684436 -0.447922 0.082494 255 0 0 54 10
-1.811786 -0.215362 0.251107 255 0 0 54 10
-1.584575 -0.309983 0.092106 255 0 0 54 10
-1.511679 -0.298905 0.167107 255 0 0 54 10
-1.600798 -0.343019 0.084967 255 0 0 54 10
-1.558652 -0.361178 0.084999 255 0 0 54 10
-1.612862 -0.269913 0.248338 255 0 0 54 10
-2.251308 -0.070282 0.359107 0 255 255 49 11
-2.083294 -0.246595 0.123644 0 255 255 49 11
-2.391226 -0.165807 0.105662 0 255 255 49 11
-2.086667 -0.175887 0.440107 0 255 255 49 11
-2.409665 -0.014671 0.242107 0 255 255 49 11
-2.216450 -0.108298 0.170107 0 255 255 49 11
-2.416347 -0.053122 0.441314 0 255 255 49 11
-2.072109 -0.135493 0.269107 0 255 255 49 11
-2.221249 -0.235674 0.116107 0 255 255 49 11
-2.321969 -0.056415 0.113106 0 255 255 49 11
-2.311887 -0.095560 0.251107 0 255 255 49 11
-2.161230 -0.151519 0.347106 0 255 255 49 11
-2.357921 -0.031803 0.344107 0 255 255 49 11
-2.111400 -0.147955 0.164106 0 255 255 49 11
-2.211928 -0.130310 0.441697 0 255 255 49 11
-2.319110 -0.100682 0.440107 0 255 255 49 11
-2.191027 -0.089694 0.269107 0 255 255 49 11
-2.288486 -0.158617 0.116107 0 255 255 49 11
-2.405856 -0.061485 0.159686 0 255 255 49 11
-2.074046 -0.130942 0.362106 0 255 255 49 11
-2.178459 -0.160429 0.110106 0 255 255 49 11
-2.149752 -0.155237 0.239107 0 255 255 49 11
-2.298335 -0.103949 0.173107 0 255 255 49 11
-2.412797 -0.063077 0.302106 0 255 255 49 11
-2.317755 -0.094309 0.329106 0 255 255 49 11
-2.130657 -0.123121 0.410107 0 255 255 49 11
-2.252317 -0.118319 0.302106 0 255 255 49 11
-2.253704 -0.095983 0.107106 0 255 255 49 11
-2.345168 -0.035697 0.272107 0 255 255 49 11
-2.188477 -0.092127 0.383106 0 255 255 49 11
-2.248275 -0.070444 0.232456 0 255 255 49 11
-2.347568 -0.061415 0.200107 0 255 255 49 11
-2.308931 -0.048350 0.392107 0 255 255 49 11
-2.099425 -0.178192 0.317106 0 255 255 49 11
-2.131344 -0.111922 0.296106 0 255 255 49 11
-2.415781 -0.059376 0.371107 0 255 255 49 11
-2.089740 -0.180817 0.221107 0 255 255 49 11
-2.343318 -0.120784 0.119107 0 255 255 49 11
-2.276543 -0.059139 0.293107 0 255 255 49 11
-2.263624 -0.113795 0.407107 0 255 255 49 11
-2.353292 -0.045055 0.438586 0 255 255 49 11
-2.223865 -0.128751 0.230106 0 255 255 49 11
-2.169729 -0.148220 0.182106 0 255 255 49 11
-2.360372 -0.078365 0.386106 0 255 255 49 11
-2.386100 -0.069545 0.245106 0 255 255 49 11
-2.228567 -0.126773 0.356107 0 255 255 49 11
-2.338096 -0.190006 0.119107 0 255 255 49 11
-2.181019 -0.143618 0.290107 0 255 255 49 11
-2.195465 -0.103138 0.116107 0 255 255 49 11
-2.096851 -0.180514 0.383106 0 255 255 49 11
-2.234269 -0.177700 0.124115 0 255 255 49 11
-2.178406 -0.094496 0.326107 0 255 255 49 11
-2.381944 -0.021133 0.395107 0 255 255 49 11
-2.275306 -0.212044 0.107106 0 255 255 49 11
-2.159670 -0.158613 0.440107 0 255 255 49 11
-2.108662 -0.120646 0.230106 0 255 255 49 11
-2.174280 -0.212914 0.104107 0 255 255 49 11
-2.360403 -0.078514 0.302106 0 255 255 49 11
-2.122844 -0.115222 0.350106 0 255 255 49 11
-2.402070 -0.014813 0.320107 0 255 255 49 11
-2.160426 -0.104452 0.228964 0 255 255 49 11
-2.183972 -0.143080 0.395107 0 255 255 49 11
-2.306459 -0.098881 0.380106 0 255 255 49 11
-2.145647 -0.121495 0.110106 0 255 255 49 11
-2.304949 -0.048489 0.233106 0 255 255 49 11
-2.109737 -0.168992 0.266106 0 255 255 49 11
-2.267729 -0.112315 0.212106 0 255 255 49 11
-2.319465 -0.044636 0.314106 0 255 255 49 11
-2.225581 -0.079108 0.317106 0 255 255 49 11
-2.414124 -0.050527 0.209106 0 255 255 49 11
-2.088525 -0.126913 0.314106 0 255 255 49 11
-2.300138 -0.098001 0.125106 0 255 255 49 11
-2.084939 -0.138900 0.409526 0 255 255 49 11
-2.258463 -0.118375 0.149107 0 255 255 49 11
-2.274892 -0.109088 0.344107 0 255 255 49 11
-2.335430 -0.076455 0.156621 0 255 255 49 11
-2.231643 -0.078770 0.401106 0 255 255 49 11
-2.269230 -0.111309 0.260106 0 255 255 49 11
-2.138417 -0.159628 0.302106 0 255 255 49 11
-2.383174 -0.070208 0.341107 0 255 255 49 11
-2.276117 -0.085995 0.441169 0 255 255 49 11
-2.294137 -0.055337 0.350106 0 255 255 49 11
-2.364845 -0.027264 0.232507 0 255 255 49 11
-2.229288 -0.132754 0.116107 0 255 255 49 11
-2.203196 -0.089227 0.225646 0 255 255 49 11
-2.138280 -0.158983 0.386106 0 255 255 49 11
-2.125882 -0.163934 0.203107 0 255 255 49 11
-2.240230 -0.075883 0.275107 0 255 255 49 11
-2.359262 -0.080590 0.113106 0 255 255 49 11
-2.385435 -0.023126 0.281106 0 255 255 49 11
-2.320695 -0.093709 0.209106 0 255 255 49 11
-2.220857 -0.129029 0.275107 0 255 255 49 11
-2.294981 -0.102598 0.293107 0 255 255 49 11
-2.409663 -0.014671 0.362106 0 255 255 49 11
-2.212290 -0.132015 0.317106 0 255 255 49 11
-2.271662 -0.065035 0.404106 0 255 255 49 11
-2.223719 -0.128067 0.401106 0 255 255 49 11
-2.381525 -0.076878 0.440107 0 255 255 49 11
-2.185100 -0.142146 0.221107 0 255 255 49 11
-2.117402 -0.147335 0.440992 0 255 255 49 11
-2.106603 -0.154245 0.350106 0 255 255 49 11
-2.343321 -0.070293 0.242107 0 255 255 49 11
-2.089592 -0.180849 0.176106 0 255 255 49 11
-2.343317 -0.070273 0.350106 0 255 255 49 11
-2.152543 -0.110651 0.377107 0 255 255 49 11
-2.173041 -0.120513 0.437106 0 255 255 49 11
-2.392018 -0.061360 0.404106 0 255 255 49 11
-2.334506 -0.072109 0.416106 0 255 255 49 11
-2.239428 -0.100968 0.437106 0 255 255 49 11
-2.189213 -0.124448 0.359107 0 255 255 49 11
-2.345173 -0.035720 0.383106 0 255 255 49 11
-2.259142 -0.092711 0.179106 0 255 255 49 11
-2.372348 -0.076991 0.173107 0 255 255 49 11
-2.308104 -0.048904 0.272107 0 255 255 49 11
-2.076759 -0.143705 0.231676 0 255 255 49 11
-2.211245 -0.083809 0.353106 0 255 255 49 11
-2.134461 -0.112160 0.257107 0 255 255 49 11
-2.207306 -0.137426 0.147205 0 255 255 49 11
-2.323398 -0.077565 0.293107 0 255 255 49 11
-2.189207 -0.124422 0.254107 0 255 255 49 11
-2.090339 -0.149877 0.197106 0 255 255 49 11
-2.358251 -0.154961 0.119107 0 255 255 49 11
-2.276945 -0.061034 0.254107 0 255 255 49 11
-2.413760 -0.055383 0.266106 0 255 255 49 11
-2.105826 -0.121732 0.383106 0 255 255 49 11
-2.200303 -0.191054 0.120386 0 255 255 49 11
-2.275107 -0.124530 0.116107 0 255 255 49 11
-2.304440 -0.190388 0.102890 0 255 255 49 11
-2.354650 -0.037019 0.308107 0 255 255 49 11
-2.190844 -0.117694 0.194106 0 255 255 49 11
-2.145107 -0.133383 0.206107 0 255 255 49 11
-2.383169 -0.070184 0.209106 0 255 255 49 11
-2.300551 -0.085516 0.413106 0 255 255 49 11
-2.411685 -0.031193 0.413106 0 255 255 49 11
-2.165826 -0.100997 0.293107 0 255 255 49 11
-2.266101 -0.067733 0.326107 0 255 255 49 11
-2.248957 -0.102509 0.374107 0 255 255 49 11
-2.233972 -0.104155 0.201376 0 255 255 49 11
-2.147092 -0.142724 0.272107 0 255 255 49 11
-2.112719 -0.168589 0.413106 0 255 255 49 11
-2.106764 -0.126147 0.275107 0 255 255 49 11
-2.323366 -0.149561 0.114699 0 255 255 49 11
-2.197730 -0.106803 0.416106 0 255 255 49 11
-2.276366 -0.087165 0.149107 0 255 255 49 11
-2.376171 -0.058594 0.278106 0 255 255 49 11
-2.082792 -0.163892 0.290107 0 255 255 49 11
-2.228028 -0.105052 0.137107 0 255 255 49 11
-2.240829 -0.208561 0.104107 0 255 255 49 11
-2.175177 -0.130561 0.323107 0 255 255 49 11
-2.413412 -0.053745 0.336630 0 255 255 49 11
-2.109846 -0.155075 0.234575 0 255 255 49 11
-2.186940 -0.243617 0.113106 0 255 255 49 11
-2.376182 -0.116865 0.110106 0 255 255 49 11
-2.313093 -0.072372 0.182106 0 255 255 49 11
-2.388818 -0.046705 0.185107 0 255 255 49 11
-2.143996 -0.157017 0.161811 0 255 255 49 11
-2.256313 -0.151545 0.124032 0 255 255 49 11
-2.148418 -0.110072 0.326107 0 255 255 49 11
-2.243744 -0.106842 0.332106 0 255 255 49 11
-2.380216 -0.056291 0.371107 0 255 255 49 11
-2.286505 -0.091580 0.230106 0 255 255 49 11
-2.079254 -0.155443 0.330274 0 255 255 49 11
-2.325321 -0.043326 0.356107 0 255 255 49 11
-2.269280 -0.183693 0.125106 0 255 255 49 11
-2.200885 -0.092785 0.300496 0 255 255 49 11
-2.328628 -0.073316 0.380106 0 255 255 49 11
-2.237859 -0.108015 0.251107 0 255 255 49 11
-2.132402 -0.145760 0.332106 0 255 255 49 11
-2.285128 -0.085101 0.197106 0 255 255 49 11
-2.166919 -0.106139 0.406229 0 255 255 49 11
-2.348884 -0.082036 0.272107 0 255 255 49 11
-2.179791 -0.123410 0.164106 0 255 255 49 11
-2.081422 -0.231658 0.152107 0 255 255 49 11
-2.349928 -0.086948 0.440107 0 255 255 49 11
-2.208738 -0.158591 0.122857 0 255 255 49 11
-2.383154 -0.055682 0.311106 0 255 255 49 11
-2.219515 -0.079428 0.251107 0 255 255 49 11
-2.265455 -0.118932 0.440107 0 255 255 49 11
-2.329745 -0.092999 0.111840 0 255 255 49 11
-2.089419 -0.180886 0.347106 0 255 255 49 11
-2.174843 -0.128991 0.119977 0 255 255 49 11
-2.387135 -0.045556 0.431106 0 255 255 49 11
-2.335807 -0.039571 0.230106 0 255 255 49 11
-2.091745 -0.149721 0.380106 0 255 255 49 11
-2.362719 -0.046119 0.408782 0 255 255 49 11
-2.294675 -0.086730 0.353106 0 255 255 49 11
-2.158195 -0.137243 0.413106 0 255 255 49 11
-2.287679 -0.089672 0.323107 0 255 255 49 11
-2.243734 -0.121225 0.176106 0 255 255 49 11
-2.306939 -0.072281 0.440107 0 255 255 49 11
-2.171508 -0.098871 0.356107 0 255 255 49 11
-2.277908 -0.065562 0.374107 0 255 255 49 11
-2.277696 -0.093421 0.389107 0 255 255 49 11
-2.144783 -0.131860 0.440107 0 255 255 49 11
-2.162595 -0.186801 0.114933 0 255 255 49 11
-2.379517 -0.024146 0.364355 0 255 255 49 11
-2.218038 -0.130197 0.200107 0 255 255 49 11
-2.162991 -0.102089 0.260106 0 255 255 49 11
-2.265940 -0.095833 0.287107 0 255 255 49 11
-2.337441 -0.071489 0.320107 0 255 255 49 11
-2.082837 -0.163883 0.254107 0 255 255 49 11
-2.149610 -0.152757 0.110106 0 255 255 49 11
-2.109543 -0.153650 0.299106 0 255 255 49 11
-2.303703 -0.129204 0.123278 0 255 255 49 11
-2.340493 -0.085849 0.185107 0 255 255 49 11
-2.116971 -0.122890 0.320107 0 255 255 49 11
-2.187837 -0.146836 0.440107 0 255 255 49 11
-2.405995 -0.047711 0.239107 0 255 255 49 11
-2.363210 -0.077288 0.416106 0 255 255 49 11
-2.225044 -0.105443 0.107106 0 255 255 49 11
-2.294852 -0.058701 0.320107 0 255 255 49 11
-2.288791 -0.087906 0.269107 0 255 255 49 11
-2.084641 -0.169633 0.407107 0 255 255 49 11
-2.098021 -0.128301 0.341107 0 255 255 49 11
-2.302527 -0.080382 0.102658 0 255 255 49 11
-2.212066 -0.116532 0.377107 0 255 255 49 11
-2.164078 -0.136063 0.371107 0 255 255 49 11
-2.252104 -0.074029 0.302106 0 255 255 49 11
-2.323252 -0.091312 0.356830 0 255 255 49 11
-2.172509 -0.146869 0.260106 0 255 255 49 11
-2.203803 -0.135371 0.176106 0 255 255 49 11
-2.254952 -0.087427 0.414721 0 255 255 49 11
-2.135525 -0.160450 0.356107 0 255 255 49 11
-2.224951 -0.112206 0.299106 0 255 255 49 11
-2.133761 -0.137723 0.180778 0 255 255 49 11
-2.346104 -0.083387 0.217525 0 255 255 49 11
-2.138242 -0.158804 0.422107 0 255 255 49 11
-2.415866 -0.036430 0.167107 0 255 255 49 11
-2.086900 -0.148125 0.437106 0 255 255 49 11
-2.200876 -0.136032 0.416106 0 255 255 49 11
-2.260711 -0.100093 0.236107 0 255 255 49 11
-2.381828 -0.020588 0.253711 0 255 255 49 11
-2.155248 -0.137806 0.299106 0 255 255 49 11
-2.091396 -0.125989 0.251107 0 255 255 49 11
-2.292845 -0.106976 0.433995 0 255 255 49 11
-2.358490 -0.178899 0.104107 0 255 255 49 11
-2.114246 -0.175609 0.440107 0 255 255 49 11
-2.200048 -0.218711 0.111835 0 255 255 49 11
-2.201693 -0.111016 0.142187 0 255 255 49 11
-2.376695 -0.025298 0.320107 0 255 255 49 11
-2.353014 -0.058179 0.167107 0 255 255 49 11
-2.225970 -0.102789 0.413106 0 255 255 49 11
-2.228161 -0.076818 0.374107 0 255 255 49 11
-2.276157 -0.086185 0.119107 0 255 255 49 11
-2.246537 -0.119981 0.275107 0 255 255 49 11
-2.198023 -0.122612 0.293107 0 255 255 49 11
-2.232896 -0.127953 0.152107 0 255 255 49 11
-2.085601 -0.156444 0.164106 0 255 255 49 11
-2.253199 -0.093610 0.134107 0 255 255 49 11
-2.313059 -0.173221 0.122954 0 255 255 49 11
-2.202501 -0.129246 0.114704 0 255 255 49 11
-2.415343 -0.062830 0.185107 0 255 255 49 11
-2.183431 -0.097247 0.242107 0 255 255 49 11
-2.253176 -0.072469 0.386106 0 255 255 49 11
-2.154026 -0.132058 0.164106 0 255 255 49 11
-2.335061 -0.045863 0.405596 0 255 255 49 11
-2.235266 -0.124675 0.425107 0 255 255 49 11
-2.127176 -0.150033 0.254107 0 255 255 49 11
-2.272974 -0.114494 0.173107 0 255 255 49 11
-2.209126 -0.117130 0.341107 0 255 255 49 11
-2.324094 -0.091133 0.401106 0 255 255 49 11
-2.242682 -0.099236 0.158106 0 255 255 49 11
-2.165205 -0.134107 0.236107 0 255 255 49 11
-2.113220 -0.142089 0.415717 0 255 255 49 11
-2.314583 -0.079384 0.230106 0 255 255 49 11
-2.158472 -0.152974 0.320107 0 255 255 49 11
-2.323399 -0.077570 0.266106 0 255 255 49 11
-2.272085 -0.110313 0.317106 0 255 255 49 11
-2.363224 -0.062926 0.227106 0 255 255 49 11
-2.415815 -0.059369 0.416106 0 255 255 49 11
-2.363239 -0.062997 0.326107 0 255 255 49 11
-2.080623 -0.158219 0.356107 0 255 255 49 11
-2.235162 -0.080895 0.341107 0 255 255 49 11
-2.089318 -0.137969 0.290107 0 255 255 49 11
-2.200967 -0.122030 0.218107 0 255 255 49 11
-2.195310 -0.138704 0.338107 0 255 255 49 11
-2.328713 -0.044856 0.290107 0 255 255 49 11
-2.214117 -0.082893 0.278106 0 255 255 49 11
-2.335869 -0.064094 0.440446 0 255 255 49 11
-2.281361 -0.110665 0.140106 0 255 255 49 11
-2.366022 -0.076087 0.360536 0 255 255 49 11
-2.202655 -0.086686 0.329106 0 255 255 49 11
-2.328812 -0.045322 0.254107 0 255 255 49 11
-2.283684 -0.107167 0.368106 0 255 255 49 11
