ply
format ascii 1.0
element vertex 1150
property float x
property float y
property float z
property uchar red
property uchar green
property uchar blue
property uchar semantic_label
property uchar instance_label
end_header
0.352332 1.798706 -0.450847 86 78 80 7 5
0.383507 1.819335 -0.453436 73 66 69 7 5
0.390927 2.239468 -0.298496 50 68 90 5 1
0.380966 2.233272 -0.285030 68 52 45 5 1
0.373823 2.231482 -0.270244 66 88 111 5 1
0.392593 2.242198 -0.279345 70 72 58 5 1
0.386119 2.245420 -0.296206 54 34 22 5 1
0.271338 1.752862 -0.399412 85 83 69 23 7
0.297032 1.765056 -0.396109 91 78 68 23 7
0.175486 2.042934 -0.543711 30 27 24 40 10
0.204299 2.057859 -0.555116 21 18 15 40 10
0.190685 2.033996 -0.556844 28 24 22 40 10
0.199545 2.041647 -0.549316 25 24 22 40 10
0.193140 2.049794 -0.545563 26 23 18 40 10
-0.011735 1.596022 -0.423130 80 68 76 7 5
0.008208 1.582128 -0.426215 65 54 58 7 5
-0.027130 1.595395 -0.424006 132 166 208 7 5
0.231917 2.153645 -0.380735 51 69 107 5 1
0.355222 2.253962 -0.308715 37 23 14 5 1
0.346220 2.263832 -0.304141 32 21 13 5 1
0.358580 2.259748 -0.317301 45 33 26 5 1
0.087368 2.094355 -0.475604 24 22 19 5 1
0.057713 2.091284 -0.485021 37 40 49 5 1
0.122976 2.210806 -0.269196 32 23 18 5 1
0.548116 2.047174 -0.702354 39 23 14 7 5
0.559286 2.054243 -0.683551 43 25 14 7 5
0.119350 1.883397 -0.719691 19 18 18 5 1
0.136867 1.886070 -0.692212 18 14 15 40 10
0.137799 1.887518 -0.704167 22 22 24 40 10
0.119481 1.872420 -0.701675 17 18 17 5 1
0.122009 1.871765 -0.691543 17 13 16 40 10
0.247205 1.519589 -0.412918 87 90 110 7 5
0.261157 1.529838 -0.413933 87 93 121 7 5
0.250356 1.527958 -0.399277 171 128 121 23 7
0.274811 1.537838 -0.411668 108 118 152 7 5
0.262200 1.551915 -0.395360 168 124 104 23 7
0.281346 1.537653 -0.407695 137 117 111 7 5
0.308368 2.058075 -0.538144 89 69 52 40 10
0.313882 2.042448 -0.556608 47 41 36 40 10
0.376947 2.182337 -0.458414 45 82 129 5 1
0.378114 2.185561 -0.445301 51 83 128 5 1
-0.058274 1.540256 -0.425047 120 129 120 7 5
0.217485 1.892070 -0.692811 43 43 47 40 10
0.052940 2.001503 -0.620818 40 39 39 5 1
0.051492 2.014338 -0.625594 57 55 53 5 1
0.053752 2.018915 -0.606644 37 30 23 5 1
0.051273 2.001051 -0.638799 53 50 37 5 1
0.057002 2.021376 -0.629561 57 58 56 5 1
0.051731 2.012875 -0.640944 18 16 14 5 1
0.277763 1.848485 -0.543054 42 44 44 7 5
0.246619 1.831973 -0.547421 25 26 28 7 5
0.659946 2.060021 -0.471724 69 52 38 7 5
0.666472 2.042542 -0.466803 53 39 27 7 5
0.671339 2.039324 -0.472540 60 45 31 7 5
-0.068381 1.635366 -0.436378 30 14 16 7 5
-0.055410 1.644384 -0.443259 26 19 25 7 5
-0.072601 1.627613 -0.429824 191 193 206 7 5
0.453518 1.498723 -0.447683 53 46 39 7 5
0.188320 2.119678 -0.448533 32 37 42 5 1
0.634991 2.095615 -0.472031 75 55 39 7 5
0.100864 1.867852 -0.714035 12 10 13 5 1
0.117880 1.883554 -0.707117 24 25 36 5 1
0.092340 1.884372 -0.684686 25 27 29 40 10
0.086345 1.877985 -0.692969 25 27 29 40 10
0.091956 1.876585 -0.689918 52 46 47 40 10
0.094467 1.867009 -0.705299 37 29 33 40 10
0.085360 1.882499 -0.715310 14 15 17 5 1
0.104506 1.864882 -0.699578 28 26 22 40 10
0.095936 1.883265 -0.705450 16 11 17 5 1
0.097674 1.894277 -0.692136 18 18 19 40 10
0.114636 1.878608 -0.681601 25 30 33 40 10
0.150704 2.028430 -0.561357 29 23 25 40 10
0.160430 2.008277 -0.586264 19 18 15 40 10
0.183629 2.014996 -0.577071 19 18 15 40 10
0.166817 1.996576 -0.588739 14 10 11 40 10
0.190861 2.008284 -0.580944 16 10 11 40 10
0.527061 2.012827 -0.706970 65 46 26 7 5
0.531022 2.007627 -0.705698 71 49 30 7 5
0.524735 2.019967 -0.684519 61 38 21 7 5
0.324170 2.019012 -0.598872 52 44 35 40 10
0.334338 2.039053 -0.594700 63 38 23 40 10
0.337023 2.039900 -0.605444 82 47 23 40 10
0.338321 2.056793 -0.587153 56 35 17 40 10
0.339953 1.638018 -0.392128 72 63 60 23 7
0.336709 1.784786 -0.427369 83 79 88 7 5
0.351884 1.785631 -0.437270 73 72 76 7 5
0.340646 1.791767 -0.440884 73 68 69 7 5
0.362845 1.786737 -0.443755 75 73 74 7 5
0.359123 1.776566 -0.439299 75 69 67 7 5
0.346079 1.771748 -0.426240 70 64 76 7 5
0.368645 1.795120 -0.450778 78 73 70 7 5
0.478396 1.971282 -0.563384 45 39 32 7 5
0.492155 1.980699 -0.559827 39 26 21 7 5
0.126797 2.145344 -0.526089 28 17 8 5 1
0.147533 2.149414 -0.527120 36 21 15 5 1
0.140082 2.125232 -0.625023 35 25 17 5 1
0.122580 2.170598 -0.242519 58 90 122 5 1
0.130573 2.168828 -0.259193 54 78 111 5 1
0.049104 1.913406 -0.653795 21 22 21 40 10
0.062720 1.900831 -0.662725 48 40 26 40 10
0.057894 1.912506 -0.662238 13 12 14 40 10
0.070869 1.916111 -0.672041 12 11 13 40 10
0.063983 1.900694 -0.676967 21 18 23 40 10
0.072499 1.905140 -0.679473 10 11 12 40 10
0.278057 1.763342 -0.405397 25 20 10 23 7
0.262011 1.751213 -0.426437 29 17 14 23 7
0.258438 1.747602 -0.404547 45 30 20 23 7
0.245549 1.731574 -0.399351 84 69 63 23 7
0.278232 1.747874 -0.397269 95 74 74 23 7
0.322040 1.590653 -0.396936 76 72 66 23 7
0.257957 2.191586 -0.264122 58 87 109 5 1
0.220666 2.240824 -0.210870 60 42 31 5 1
0.210367 2.240112 -0.217605 60 33 25 5 1
0.276647 1.992229 -0.601310 27 26 23 40 10
0.681922 1.713353 -0.450442 20 16 13 7 5
0.663998 1.725858 -0.449927 17 15 11 7 5
0.566246 1.892214 -0.449676 45 30 20 7 5
0.553891 1.871581 -0.448947 21 17 12 7 5
0.200119 1.801567 -0.450668 30 28 30 7 5
0.782140 1.837812 -0.461799 22 17 14 7 5
0.780665 1.860272 -0.472477 18 18 13 0 0
0.779690 1.837580 -0.474167 31 31 28 0 0
0.777668 1.859396 -0.467815 22 15 13 7 5
0.784284 1.847807 -0.465554 24 18 15 7 5
0.765068 1.863357 -0.474790 17 17 12 0 0
0.806065 1.772451 -0.471562 33 32 27 0 0
0.814929 1.783871 -0.468232 33 33 29 0 0
0.791972 1.776332 -0.475217 29 28 23 0 0
0.797380 1.783881 -0.472083 31 31 24 0 0
0.788355 1.801774 -0.472220 32 30 25 0 0
0.809400 1.795749 -0.467858 32 29 25 7 5
0.813554 1.780822 -0.463371 26 25 21 7 5
0.432252 1.900641 -0.453024 61 63 58 7 5
0.446732 1.861684 -0.452487 79 68 71 7 5
0.651499 1.918398 -0.451111 45 33 26 7 5
0.534989 1.665174 -0.446724 18 14 10 7 5
0.332021 1.637003 -0.419914 57 58 61 0 0
0.361386 1.653276 -0.418747 72 69 69 7 5
0.360785 1.653205 -0.423998 54 56 60 0 0
0.345049 1.649590 -0.417476 55 58 61 7 5
0.338490 1.641500 -0.423896 56 62 60 0 0
0.232145 2.193008 -0.215568 68 73 85 5 1
0.271494 2.200130 -0.215650 67 77 78 5 1
0.252839 2.195565 -0.211488 72 74 86 5 1
0.239415 2.198646 -0.205947 73 79 89 5 1
0.264821 2.208908 -0.202637 59 65 70 5 1
0.263924 2.204793 -0.232227 41 56 61 5 1
0.240657 2.205465 -0.225271 50 66 73 5 1
0.268135 2.210173 -0.223722 40 44 50 5 1
0.344978 1.893954 -0.543526 19 16 12 7 5
0.379800 2.175527 -0.473304 42 69 89 5 1
0.376754 2.161498 -0.487797 65 59 70 5 1
0.375245 2.161915 -0.475602 62 74 98 5 1
0.376961 2.172355 -0.466573 60 76 110 5 1
0.388456 2.177205 -0.487490 46 65 93 5 1
0.302673 2.146792 -0.631152 61 36 21 5 1
0.300872 2.163953 -0.561976 40 20 9 5 1
0.054565 1.986188 -0.698766 42 37 28 5 1
0.057168 1.988862 -0.686990 42 37 28 5 1
0.058479 1.991603 -0.701033 29 33 35 5 1
0.101939 1.733343 -0.537503 45 34 23 7 5
0.137278 1.755344 -0.525207 40 29 21 7 5
0.144779 1.760400 -0.499067 39 31 25 7 5
0.011451 1.667331 -0.502419 20 17 15 7 5
-0.009749 1.652804 -0.500542 24 17 16 7 5
0.639476 1.828278 -0.450117 32 22 14 7 5
0.635698 1.865325 -0.451102 28 22 13 7 5
0.030025 2.132542 -0.308384 65 71 84 5 1
0.034987 2.137165 -0.296021 65 71 84 5 1
0.026013 2.139170 -0.287971 58 56 53 5 1
0.019270 2.146403 -0.297180 57 53 51 5 1
0.034504 2.142359 -0.270457 48 38 26 5 1
0.037062 2.144845 -0.303264 50 38 25 5 1
0.031037 2.138594 -0.269450 62 62 60 5 1
0.496615 1.954963 -0.450627 23 19 13 7 5
0.479953 1.940692 -0.451795 71 63 59 7 5
0.094534 1.508696 -0.437273 21 23 30 7 5
0.414270 1.572527 -0.454570 59 59 54 7 5
0.431847 1.581190 -0.454432 58 54 47 7 5
0.427078 1.590230 -0.459848 57 53 46 7 5
0.117881 1.995944 -0.575201 38 33 29 40 10
0.108528 2.000731 -0.570598 37 34 33 40 10
0.153121 2.002527 -0.585895 19 17 20 40 10
0.143650 2.008912 -0.583244 31 31 40 40 10
0.103737 2.015860 -0.567309 20 22 25 40 10
0.149688 2.015151 -0.581741 26 22 29 40 10
0.270779 2.146112 -0.626080 52 28 18 5 1
0.126485 2.186332 -0.375263 41 19 13 5 1
0.434190 1.818662 -0.451890 70 67 68 7 5
0.451114 1.829927 -0.450479 49 48 46 7 5
0.471984 1.812197 -0.449134 51 41 34 7 5
0.265644 1.839105 -0.495728 23 21 27 7 5
0.267265 1.858567 -0.463401 37 31 37 7 5
0.246689 1.844901 -0.471468 40 42 42 7 5
0.271475 1.859927 -0.473536 29 30 29 7 5
0.261955 1.854957 -0.469337 24 23 18 7 5
0.047722 1.710928 -0.469114 21 21 17 7 5
0.362407 1.681600 -0.391234 66 57 56 23 7
0.345258 1.700343 -0.395349 67 58 52 23 7
-0.022706 1.645485 -0.506944 26 16 15 7 5
-0.022968 1.647256 -0.492279 23 19 17 7 5
0.354626 2.140339 -0.665578 88 59 35 5 1
0.362466 2.144931 -0.666263 77 55 35 5 1
0.316944 1.624213 -0.394969 82 74 64 23 7
0.241666 2.183531 -0.281614 46 68 85 5 1
0.230213 2.176235 -0.296441 40 59 82 5 1
0.445752 1.555368 -0.512478 80 66 52 7 5
0.441107 1.561910 -0.496610 75 69 67 7 5
0.438507 1.579924 -0.508144 76 71 73 7 5
0.596458 2.063256 -0.451231 77 55 38 7 5
0.606545 2.091362 -0.456153 73 52 40 7 5
0.158701 1.777665 -0.451065 27 22 24 7 5
0.169241 1.793329 -0.458969 46 41 47 7 5
0.194417 1.807656 -0.458925 34 37 37 7 5
0.432176 1.532887 -0.474306 135 123 104 7 5
0.427781 1.513589 -0.471590 137 123 102 7 5
0.422502 1.531604 -0.470676 112 98 83 0 0
0.218436 1.809507 -0.491892 32 28 24 7 5
0.229298 1.817360 -0.491033 40 37 37 7 5
0.232683 1.817634 -0.530347 44 42 41 7 5
0.232193 1.816607 -0.501111 31 30 32 7 5
0.216566 2.162362 -0.324654 49 71 99 5 1
0.159285 1.768907 -0.509102 55 46 37 7 5
0.173316 1.780075 -0.494250 41 34 27 7 5
0.675922 1.940477 -0.452007 47 33 26 7 5
0.671252 1.973401 -0.451799 52 41 29 7 5
0.353778 1.900205 -0.498456 22 17 15 7 5
0.339636 1.909522 -0.468874 24 15 12 7 5
0.359227 1.921877 -0.473889 25 17 13 7 5
0.373136 1.932095 -0.467576 38 23 23 7 5
0.458612 1.573211 -0.466483 56 51 45 0 0
0.437447 1.557134 -0.467881 64 60 60 0 0
0.463593 1.557382 -0.467942 52 51 46 0 0
0.085579 1.997867 -0.552048 22 16 14 40 10
0.079120 2.014384 -0.537774 94 86 79 40 10
0.083191 2.010580 -0.547402 48 43 45 40 10
0.098759 2.028366 -0.542761 43 42 49 40 10
0.111170 2.143534 -0.523285 35 23 16 5 1
0.317746 1.588208 -0.450431 60 53 55 0 0
0.343419 1.607138 -0.448761 56 55 47 0 0
0.305806 1.580796 -0.449148 98 79 68 0 0
0.334851 1.597513 -0.457739 49 41 36 0 0
0.249202 1.820436 -0.450269 25 24 27 7 5
0.244298 1.806015 -0.451058 23 23 26 7 5
0.268650 1.825892 -0.451387 38 33 30 7 5
0.266209 1.804738 -0.455221 37 34 27 7 5
0.831735 1.636166 -0.451972 11 10 7 7 5
0.581547 1.879979 -0.450126 42 30 22 7 5
0.015124 2.058791 -0.638839 51 52 38 5 1
0.300331 2.189834 -0.340688 45 65 86 5 1
0.308865 2.199583 -0.325513 50 66 86 5 1
0.314499 2.195635 -0.347849 39 67 95 5 1
0.328134 2.201566 -0.348059 42 69 95 5 1
0.328255 2.195422 -0.365567 45 71 100 5 1
0.576057 1.931981 -0.450632 57 43 32 7 5
0.063318 2.027708 -0.567864 63 59 53 5 1
0.061103 2.051680 -0.568382 26 22 16 5 1
0.053000 2.054082 -0.578362 43 42 38 5 1
0.060792 2.041681 -0.572525 69 67 73 5 1
0.247522 1.828206 -0.539318 53 54 51 7 5
0.711298 1.757977 -0.451332 19 17 14 7 5
0.685240 1.756770 -0.451093 19 16 12 7 5
0.701735 1.793353 -0.451103 19 16 11 7 5
0.780835 1.674041 -0.451359 14 11 8 7 5
0.780174 1.700240 -0.451782 16 17 12 7 5
0.875259 1.644993 -0.456015 11 10 8 7 5
0.847312 1.596943 -0.452309 10 9 7 7 5
0.859084 1.622964 -0.451918 10 9 7 7 5
0.881431 1.612272 -0.452523 11 10 8 7 5
0.490010 1.623511 -0.471083 62 56 52 0 0
0.470117 1.629957 -0.469915 86 80 80 0 0
0.478266 1.641815 -0.471188 52 47 42 0 0
0.474199 1.609334 -0.469834 65 63 61 0 0
0.373052 1.910855 -0.514444 17 15 11 7 5
0.385608 1.920228 -0.524281 18 14 12 7 5
0.393308 1.924681 -0.508321 20 15 14 7 5
0.328902 1.571976 -0.467901 133 103 82 7 5
0.318160 1.579024 -0.462638 60 54 50 0 0
0.038724 1.993400 -0.632803 16 14 11 5 1
0.047556 1.996931 -0.634114 28 21 19 5 1
0.145823 2.154487 -0.323561 45 74 104 5 1
0.167426 2.159047 -0.326562 43 71 101 5 1
0.375163 2.251448 -0.313656 33 19 15 5 1
0.166488 2.198727 -0.352776 44 23 12 5 1
0.247301 2.195703 -0.428179 55 29 16 5 1
0.037580 2.000398 -0.682758 19 22 20 40 10
0.022654 1.961770 -0.716838 27 28 33 40 10
0.018015 1.967942 -0.717818 27 28 33 40 10
0.049956 1.983757 -0.708489 21 19 15 40 10
0.345654 1.716500 -0.393861 80 65 62 23 7
0.103422 2.108583 -0.659454 34 23 17 5 1
0.552130 1.992124 -0.715102 33 30 34 7 5
0.543078 2.008792 -0.684910 25 19 19 7 5
0.542932 2.007381 -0.696987 35 25 22 7 5
0.182480 1.684750 -0.404892 24 19 17 23 7
0.493486 1.990122 -0.452255 62 55 57 7 5
0.158443 2.148813 -0.348893 48 63 94 5 1
0.148427 2.145347 -0.359774 42 57 79 5 1
0.599336 1.641893 -0.448049 13 13 9 7 5
0.617985 1.617243 -0.448551 18 15 12 7 5
0.143334 2.173314 -0.252893 50 71 99 5 1
0.161546 2.175200 -0.261517 60 76 93 5 1
0.137319 2.180221 -0.232847 47 76 95 5 1
0.126050 2.112502 -0.673526 34 24 17 5 1
0.372253 2.248415 -0.329164 34 18 14 5 1
0.200021 2.220601 -0.291991 44 35 23 5 1
0.239387 1.536172 -0.394711 122 91 76 23 7
0.252339 1.562875 -0.392424 98 78 69 23 7
0.182297 2.198597 -0.362964 44 35 24 5 1
0.202831 2.205350 -0.353896 52 29 19 5 1
0.226363 2.196335 -0.405682 47 35 14 5 1
0.443002 1.979621 -0.465452 30 23 16 7 5
0.336131 2.061333 -0.567183 36 32 26 40 10
0.798739 1.835886 -0.470563 40 38 32 7 5
0.786470 1.846354 -0.471199 38 34 31 7 5
-0.057855 1.604463 -0.571028 23 19 11 7 5
0.181649 1.684719 -0.445381 24 15 12 23 7
0.181662 1.689971 -0.453126 22 14 12 23 7
0.186018 1.700042 -0.454199 24 20 15 7 5
0.310460 2.132539 -0.500960 33 44 64 5 1
0.323777 2.125258 -0.514250 25 38 58 5 1
0.335809 2.144814 -0.494073 41 51 71 5 1
0.387378 1.528883 -0.467646 65 59 57 0 0
0.391855 1.549743 -0.467208 55 59 58 0 0
0.380836 1.545973 -0.459747 68 61 60 0 0
0.375752 1.521377 -0.470244 121 98 84 7 5
0.183466 1.785853 -0.536371 26 20 19 7 5
0.168912 1.775119 -0.504148 38 33 26 7 5
0.157012 1.771128 -0.552075 19 14 9 7 5
0.546702 2.006721 -0.680220 28 20 20 7 5
0.556284 1.994575 -0.650839 29 20 21 7 5
0.531746 2.008496 -0.672658 27 18 8 7 5
0.542860 2.008212 -0.667633 29 23 21 7 5
0.534954 2.006927 -0.691287 44 28 16 7 5
0.166817 2.030308 -0.555778 45 39 36 40 10
0.671794 1.834960 -0.450392 25 21 12 7 5
0.686852 1.836719 -0.451134 21 18 11 7 5
0.226799 1.723818 -0.423457 26 19 12 23 7
0.225320 1.720672 -0.404333 89 77 66 23 7
0.228474 1.705840 -0.396420 86 76 71 23 7
0.049604 1.872603 -0.664812 46 34 26 40 10
0.189689 2.194268 -0.219259 56 67 79 5 1
0.165865 2.185639 -0.242256 36 42 49 5 1
0.174890 2.195630 -0.223715 36 39 43 5 1
0.206940 1.575396 -0.394977 91 77 75 23 7
0.423910 1.549046 -0.452919 54 54 48 7 5
0.400329 1.561373 -0.455093 61 55 52 7 5
0.410547 1.865728 -0.452814 75 62 60 7 5
0.421276 1.965740 -0.467122 25 19 12 7 5
0.405318 1.951972 -0.463323 29 24 16 7 5
0.130820 1.558039 -0.447725 63 64 69 7 5
0.122847 1.555881 -0.451644 60 69 78 7 5
0.553370 1.991770 -0.588924 32 27 31 7 5
0.541122 1.992811 -0.576058 39 30 32 7 5
0.890660 1.503938 -0.452452 10 9 7 7 5
0.881047 1.525228 -0.452553 10 9 7 7 5
0.902820 1.542438 -0.452788 10 9 7 7 5
0.920426 1.542286 -0.453586 10 9 7 7 5
0.385288 2.256799 -0.243328 56 64 62 5 1
0.381252 2.262387 -0.258551 63 59 62 5 1
0.384872 2.256554 -0.260414 46 53 55 5 1
0.379507 2.267513 -0.234516 45 45 52 5 1
0.200287 1.787739 -0.563423 70 62 51 7 5
0.217243 1.793250 -0.567034 65 59 50 7 5
0.198762 1.795178 -0.556291 54 45 41 7 5
0.549684 2.039335 -0.502947 39 21 16 7 5
0.310753 2.121563 -0.507766 29 35 54 5 1
0.295982 2.118100 -0.500662 27 39 60 5 1
0.227951 1.977614 -0.590593 14 8 7 40 10
0.243254 1.985143 -0.585018 11 10 6 40 10
0.297020 2.146767 -0.454867 38 50 71 5 1
0.314217 1.789018 -0.401314 24 21 10 23 7
0.342497 1.771750 -0.402027 71 51 42 23 7
0.334999 1.782226 -0.411922 62 42 30 23 7
0.332651 1.772871 -0.395647 83 64 52 23 7
0.321003 1.793077 -0.419914 74 62 50 23 7
0.320883 1.789020 -0.399972 40 24 19 23 7
0.310180 1.788363 -0.411104 27 17 13 23 7
0.047896 1.560607 -0.442657 24 31 53 7 5
0.077520 1.556657 -0.446409 49 56 80 7 5
0.059658 1.560541 -0.443593 23 32 51 7 5
0.380461 2.258768 -0.276250 40 39 40 5 1
0.370364 2.260917 -0.285417 52 55 64 5 1
0.335251 2.157818 -0.458036 48 64 93 5 1
0.360768 2.158911 -0.470337 55 68 89 5 1
0.364373 2.156619 -0.482070 47 63 85 5 1
0.117268 1.758744 -0.459266 37 31 27 7 5
0.141068 1.773493 -0.473864 37 34 24 7 5
0.118038 1.745145 -0.491298 37 34 33 7 5
0.122627 1.745467 -0.514022 43 30 21 7 5
0.038441 2.086482 -0.494523 33 34 30 5 1
0.046682 2.092598 -0.485125 21 19 21 5 1
0.035619 2.086493 -0.483789 58 59 65 5 1
0.034342 2.100246 -0.451822 59 63 65 5 1
0.038624 2.100044 -0.461597 44 41 35 5 1
0.527266 2.023303 -0.497742 35 24 16 7 5
0.495315 1.996199 -0.502861 35 25 17 7 5
0.527553 2.016715 -0.508272 32 22 13 7 5
0.493924 1.999010 -0.495633 40 26 20 7 5
0.734072 1.932804 -0.465704 28 20 17 7 5
0.735246 1.941043 -0.471613 32 24 16 7 5
0.088601 1.723289 -0.540780 22 14 10 7 5
0.105246 1.736978 -0.550629 22 15 11 7 5
0.490703 1.614915 -0.446657 53 45 40 7 5
0.514737 1.605042 -0.446827 56 47 45 7 5
0.347725 2.097647 -0.518829 48 49 44 5 1
0.319461 1.607913 -0.392644 86 69 64 23 7
0.330073 1.624656 -0.394547 90 76 71 23 7
0.179476 2.191912 -0.387839 39 24 19 5 1
0.155047 2.183683 -0.401589 37 23 15 5 1
0.210081 2.211968 -0.197771 40 36 33 5 1
0.188084 2.200890 -0.199778 76 84 99 5 1
0.396242 1.584611 -0.473505 187 143 115 7 5
0.365818 1.593725 -0.470982 157 119 95 7 5
0.395220 1.605752 -0.473927 151 108 86 7 5
0.048483 2.106843 -0.571534 26 21 10 5 1
0.042443 2.096716 -0.591487 31 24 16 5 1
0.043146 2.106019 -0.566977 27 26 20 5 1
0.014706 2.146966 -0.315344 67 57 44 5 1
0.011818 2.148617 -0.341704 65 63 43 5 1
0.665377 1.813513 -0.450503 27 22 13 7 5
0.452428 1.765078 -0.448926 54 47 38 7 5
0.443881 1.735763 -0.448842 47 42 35 7 5
0.436988 1.633369 -0.461642 76 70 70 0 0
0.308022 2.185806 -0.381052 47 71 108 5 1
0.316323 2.185504 -0.389940 56 86 138 5 1
0.052733 2.027765 -0.700740 20 20 25 5 1
0.072885 2.026407 -0.700405 14 16 17 5 1
0.072676 2.030095 -0.675710 22 18 27 5 1
0.094666 2.031301 -0.683085 15 16 16 5 1
0.141952 1.532492 -0.394718 69 66 73 23 7
0.803155 1.665287 -0.452308 11 11 8 7 5
0.805566 1.650189 -0.451579 10 9 7 7 5
0.066753 2.148088 -0.313595 42 60 87 5 1
0.076416 2.151513 -0.294606 46 65 93 5 1
0.048738 2.150897 -0.318882 40 54 73 5 1
0.552859 1.535788 -0.447890 18 13 10 7 5
0.530172 1.514603 -0.447263 17 15 10 7 5
0.168053 1.885165 -0.718585 17 18 26 40 10
0.170133 1.897392 -0.684985 26 25 26 40 10
0.145668 1.888200 -0.708580 21 23 28 40 10
0.156331 1.891613 -0.694844 20 20 22 40 10
0.713525 1.818922 -0.451801 20 18 12 7 5
0.692547 1.819727 -0.450891 19 16 11 7 5
0.722338 1.835371 -0.451948 19 15 10 7 5
0.141492 2.138152 -0.376478 37 46 56 5 1
0.325991 2.153862 -0.464233 48 60 91 5 1
0.372838 2.201758 -0.373126 41 66 96 5 1
0.342131 2.190335 -0.397017 46 78 123 5 1
0.346623 2.194191 -0.383395 44 73 113 5 1
0.349744 2.199232 -0.372345 40 65 101 5 1
0.330005 2.093564 -0.517180 27 28 34 5 1
0.335279 2.115100 -0.520141 30 30 37 5 1
0.314314 2.115931 -0.518027 23 21 34 5 1
0.323934 2.107922 -0.523733 35 38 50 5 1
0.182703 1.566873 -0.394719 75 64 66 23 7
0.588324 2.068526 -0.517261 50 28 14 7 5
0.581354 2.061707 -0.503384 38 23 15 7 5
0.590501 2.070862 -0.498720 124 94 65 7 5
0.722672 1.645227 -0.450152 12 11 8 7 5
0.009573 1.604511 -0.440681 65 61 80 7 5
-0.005531 1.609229 -0.433374 89 75 97 7 5
0.001290 1.595301 -0.428248 73 57 86 7 5
0.766047 1.641727 -0.450749 10 10 8 7 5
0.783782 1.637753 -0.450818 10 10 8 7 5
0.069328 1.638935 -0.453135 26 26 23 7 5
0.056382 1.658512 -0.453948 35 27 31 7 5
0.088442 1.649166 -0.454557 27 19 18 7 5
0.074696 1.672977 -0.453526 27 23 17 7 5
0.016575 2.123110 -0.395854 78 65 51 5 1
0.003113 2.144956 -0.384181 35 21 9 5 1
0.083047 2.155633 -0.465589 32 20 11 5 1
0.058405 2.155226 -0.452291 36 20 12 5 1
0.221046 1.712115 -0.399045 97 81 77 23 7
0.790017 1.826461 -0.475297 26 24 21 0 0
0.803766 1.822369 -0.476755 36 32 28 0 0
0.806970 1.807251 -0.469166 23 21 16 0 0
0.798761 1.817508 -0.474803 26 20 18 0 0
0.799436 1.820427 -0.465761 24 19 15 7 5
0.806810 1.821455 -0.472289 35 31 27 7 5
0.817831 1.801992 -0.471582 24 22 17 0 0
0.289707 1.951771 -0.647891 57 53 51 40 10
0.062958 2.155070 -0.213919 68 78 88 5 1
0.060484 2.156268 -0.207388 68 67 65 5 1
0.086919 2.166110 -0.211579 62 67 71 5 1
0.083381 2.168136 -0.205838 69 65 57 5 1
0.052297 2.168402 -0.235741 53 69 80 5 1
0.073425 2.173137 -0.225420 41 58 79 5 1
0.082141 2.174056 -0.219213 36 28 23 5 1
0.068341 2.165452 -0.203505 49 45 45 5 1
0.048653 2.168402 -0.225664 36 33 32 5 1
0.044151 2.153004 -0.215908 53 48 55 5 1
0.064546 2.168564 -0.221809 39 34 36 5 1
0.033495 1.650236 -0.452366 80 71 78 7 5
0.026866 1.675494 -0.447404 52 57 66 7 5
0.045008 1.648077 -0.452712 72 78 90 7 5
0.040586 1.687583 -0.519777 16 14 11 7 5
0.034353 1.683786 -0.504593 21 16 15 7 5
0.035416 1.685730 -0.494471 20 17 16 7 5
0.358142 2.154682 -0.597793 74 47 22 5 1
0.026677 1.553541 -0.425393 45 44 39 7 5
0.306360 1.665164 -0.396723 103 83 68 23 7
-0.071260 1.593929 -0.574777 26 21 16 7 5
-0.062385 1.598960 -0.572649 23 23 18 7 5
0.657436 1.739501 -0.450396 18 15 12 7 5
-0.073271 1.608775 -0.562150 26 17 13 7 5
0.053828 2.176006 -0.379690 40 23 15 5 1
0.073484 1.964056 -0.626718 43 43 55 40 10
0.091854 1.971401 -0.610631 40 39 33 40 10
0.069151 1.970908 -0.617918 37 37 47 40 10
0.081203 1.984690 -0.584975 19 16 16 40 10
0.071368 1.980102 -0.589674 33 40 46 40 10
0.050517 1.980246 -0.608042 50 39 29 40 10
0.492815 1.655082 -0.446646 50 46 38 7 5
0.360516 2.130092 -0.525777 30 45 61 5 1
0.365903 2.143352 -0.533564 25 38 57 5 1
0.375955 1.911774 -0.562350 68 58 58 7 5
0.383459 1.914277 -0.563829 65 51 40 7 5
0.408611 1.929602 -0.563096 48 35 30 7 5
0.382891 1.918640 -0.557747 61 48 33 7 5
0.257837 2.133008 -0.460980 41 48 71 5 1
0.272331 2.134111 -0.470354 34 51 71 5 1
0.282895 2.139852 -0.463571 36 51 70 5 1
0.276779 2.139243 -0.450059 36 49 69 5 1
0.272080 2.141778 -0.437915 44 57 80 5 1
0.240350 2.127591 -0.451855 37 42 55 5 1
0.193824 2.125762 -0.685441 38 26 17 5 1
0.013090 2.073227 -0.681839 38 35 21 5 1
0.015047 2.076401 -0.700589 36 29 18 5 1
0.012115 2.066942 -0.689504 52 48 40 5 1
0.010377 2.069228 -0.733089 53 48 41 5 1
0.361931 1.608726 -0.406743 60 56 51 23 7
0.351305 1.625936 -0.399366 72 63 60 23 7
0.367312 1.620847 -0.411710 67 59 56 7 5
0.438834 1.717784 -0.447839 46 48 40 7 5
0.465274 1.704007 -0.448613 54 47 43 7 5
0.473177 1.734585 -0.447150 49 43 38 7 5
0.244124 2.070775 -0.562348 17 14 16 40 10
0.240594 2.057160 -0.548103 33 27 25 40 10
0.259078 2.070242 -0.547511 31 23 21 40 10
0.282009 2.084521 -0.549751 33 23 30 40 10
0.378187 2.196687 -0.422508 51 86 138 5 1
0.376611 2.202208 -0.403389 49 57 73 5 1
0.387747 2.210372 -0.418537 50 35 26 5 1
0.079604 1.715059 -0.501395 18 13 9 7 5
0.105365 1.733087 -0.502078 23 15 12 7 5
0.280054 2.002140 -0.582085 84 84 86 40 10
0.289965 2.017380 -0.569121 85 85 90 40 10
0.071468 1.910355 -0.710788 38 36 53 40 10
0.064240 1.918897 -0.698347 48 48 64 40 10
0.079290 1.906609 -0.684490 23 23 25 40 10
0.064301 1.916638 -0.689313 24 25 30 40 10
0.052048 1.927600 -0.695959 18 18 20 40 10
0.788045 1.724559 -0.451855 24 23 18 7 5
0.178102 2.144258 -0.569089 35 25 11 5 1
0.350711 1.895609 -0.510471 18 15 10 7 5
0.382986 2.228310 -0.377912 44 32 25 5 1
0.385916 2.232109 -0.360922 36 18 12 5 1
0.379275 2.229154 -0.390585 37 21 16 5 1
0.817197 1.729819 -0.451685 24 22 17 7 5
0.828890 1.726556 -0.455181 13 12 8 7 5
0.823202 1.715691 -0.452602 18 16 13 7 5
0.388596 1.731581 -0.394579 53 48 43 23 7
0.392731 1.721341 -0.393694 67 53 44 23 7
0.372715 1.722167 -0.390697 62 49 44 23 7
0.261063 1.684822 -0.397238 92 77 61 23 7
0.053750 1.700124 -0.538911 21 13 11 7 5
0.018901 1.674135 -0.536052 18 14 12 7 5
0.036872 1.690949 -0.548223 17 15 11 7 5
0.022953 1.962152 -0.692136 18 20 22 40 10
0.033722 1.935332 -0.694153 28 25 28 40 10
0.029238 1.952537 -0.710909 24 25 27 40 10
0.039996 1.959168 -0.710204 12 12 13 40 10
0.049549 1.931723 -0.704811 79 82 105 40 10
0.042358 1.939290 -0.705781 21 21 22 40 10
0.046408 1.934451 -0.713807 65 61 64 40 10
0.015083 2.166883 -0.230279 58 55 57 5 1
0.043901 2.163381 -0.202506 75 100 127 5 1
0.044643 2.151194 -0.210585 46 57 68 5 1
0.517782 1.516442 -0.446099 48 41 37 7 5
0.529559 1.542021 -0.447050 47 41 37 7 5
0.100212 2.022488 -0.557356 27 30 30 40 10
0.114931 2.023352 -0.563533 33 36 41 40 10
0.091040 1.997943 -0.568295 48 41 32 40 10
0.095589 1.995427 -0.574747 34 29 31 40 10
0.094220 2.012887 -0.561609 26 26 32 40 10
0.099212 2.006884 -0.568383 48 44 48 40 10
-0.035500 1.636420 -0.505583 18 19 15 7 5
0.327075 2.229114 -0.228237 43 53 61 5 1
0.337534 2.228141 -0.238444 45 54 66 5 1
0.301492 2.219738 -0.223452 27 29 26 5 1
0.289727 2.244179 -0.203371 34 28 19 5 1
0.275545 2.218110 -0.199810 66 66 64 5 1
0.299857 2.234434 -0.198967 29 29 29 5 1
0.135177 1.773042 -0.465359 32 28 22 7 5
0.150431 1.783779 -0.465361 38 35 35 7 5
0.306216 2.193075 -0.480478 44 24 8 5 1
0.294553 2.181473 -0.503396 58 37 20 5 1
0.280262 2.189303 -0.472401 51 34 16 5 1
0.031047 2.197548 -0.236589 22 18 13 5 1
0.043813 2.204400 -0.218702 22 22 12 5 1
0.541873 1.753324 -0.447789 14 12 8 7 5
0.553547 1.742477 -0.448427 18 15 11 7 5
0.541526 1.730474 -0.447985 21 17 14 7 5
0.373929 1.904205 -0.453315 65 62 52 7 5
0.356167 1.907051 -0.455939 54 55 48 7 5
0.380841 1.917747 -0.454588 49 43 40 7 5
0.379254 1.713138 -0.436241 75 57 51 7 5
0.390133 1.725784 -0.449391 80 74 72 7 5
0.397358 1.712204 -0.446768 73 67 71 7 5
0.387809 1.707963 -0.438844 75 69 73 7 5
0.382442 1.718150 -0.446241 80 68 73 7 5
0.031163 2.022889 -0.709649 40 42 37 5 1
0.017285 1.996841 -0.711944 10 12 12 40 10
0.028267 1.998753 -0.705064 18 20 27 40 10
0.028979 1.998987 -0.678258 10 12 11 40 10
0.035461 1.997181 -0.695980 10 14 14 40 10
0.391520 1.860949 -0.453211 75 69 68 7 5
0.430854 1.849782 -0.452689 70 68 66 7 5
0.780808 1.827295 -0.460573 21 18 13 7 5
0.767211 1.834678 -0.474268 28 27 24 0 0
0.783735 1.817160 -0.473611 31 27 27 0 0
0.300707 1.600357 -0.432737 58 59 72 0 0
0.301177 1.585492 -0.438508 94 75 70 0 0
0.289087 1.581870 -0.433988 91 79 66 0 0
0.316297 1.727978 -0.396674 85 72 64 23 7
0.032447 1.933731 -0.672944 24 20 21 40 10
0.050321 1.953224 -0.659728 58 58 71 40 10
0.048804 1.923056 -0.657318 14 15 17 40 10
0.031935 1.942421 -0.668585 22 18 18 40 10
0.025184 1.957711 -0.678697 31 26 31 40 10
0.042917 1.942986 -0.666264 33 34 36 40 10
0.263341 2.128742 -0.471912 45 52 73 5 1
0.134691 2.073800 -0.536447 24 25 33 5 1
0.126307 2.068336 -0.536860 20 15 12 40 10
0.322618 2.214653 -0.413794 62 35 23 5 1
0.337047 2.223926 -0.391839 63 38 15 5 1
0.292866 1.991049 -0.611339 28 27 32 40 10
0.300549 1.981664 -0.624428 47 39 32 40 10
0.286960 1.963849 -0.636215 55 44 39 40 10
0.175591 1.799695 -0.464664 38 33 32 7 5
0.200792 1.815088 -0.465189 26 23 25 7 5
0.195262 1.808360 -0.474144 42 41 37 7 5
0.439410 1.646296 -0.468878 84 85 81 0 0
0.454033 1.658439 -0.470604 85 81 84 0 0
0.446147 1.670902 -0.481695 108 102 87 0 0
0.469385 1.668438 -0.482601 67 67 63 0 0
0.457292 1.666410 -0.488775 63 59 61 0 0
0.436063 1.667299 -0.475205 123 112 94 0 0
0.466043 1.659604 -0.472892 63 63 59 0 0
0.458712 1.671429 -0.475320 64 63 58 0 0
0.579040 2.060416 -0.545541 39 23 12 7 5
0.591362 2.075311 -0.543427 87 66 46 7 5
0.590478 2.071583 -0.533239 85 67 53 7 5
0.317956 1.893260 -0.468935 23 16 15 7 5
0.346155 1.909203 -0.460832 31 21 18 7 5
0.333161 1.902701 -0.476172 19 14 10 7 5
0.734209 1.893085 -0.455798 22 19 13 7 5
0.744934 1.862700 -0.453140 25 19 14 7 5
0.565047 1.633228 -0.447617 13 8 8 7 5
0.366942 1.771875 -0.451536 77 77 73 7 5
0.413065 1.732630 -0.449635 69 66 64 7 5
0.384002 1.777824 -0.451974 80 68 69 7 5
0.324274 1.761769 -0.394366 86 70 57 23 7
0.059720 2.168698 -0.409921 29 25 12 5 1
0.073872 2.166658 -0.428197 41 25 13 5 1
0.054407 2.163239 -0.429865 33 20 7 5 1
0.212388 2.125859 -0.432651 25 28 35 5 1
0.251101 2.132998 -0.443866 26 33 46 5 1
0.374451 2.256416 -0.217303 60 41 28 5 1
0.389630 2.249328 -0.232296 83 38 21 5 1
0.372958 2.265942 -0.224921 185 148 108 5 1
0.614468 1.939287 -0.450638 48 35 25 7 5
0.392841 1.928099 -0.549263 36 29 22 7 5
0.370887 1.912922 -0.543561 21 17 14 7 5
0.233763 1.568935 -0.393793 86 75 68 23 7
-0.008188 1.627438 -0.569291 24 19 17 7 5
0.007872 1.635563 -0.570763 19 19 18 7 5
0.351058 2.136703 -0.708838 44 29 13 5 1
0.334047 2.133086 -0.714589 50 29 15 5 1
0.359054 2.139474 -0.712762 70 45 26 5 1
0.041746 2.159703 -0.428386 38 22 13 5 1
-0.023254 1.664051 -0.465473 26 20 20 7 5
-0.041291 1.652620 -0.461180 22 22 24 7 5
-0.037458 1.652695 -0.470122 25 20 19 7 5
-0.044693 1.650699 -0.469277 19 19 20 7 5
0.301275 1.946536 -0.658609 72 65 61 40 10
0.287903 1.934668 -0.658701 30 40 62 40 10
0.020844 2.056527 -0.575231 65 58 51 5 1
0.030823 2.047666 -0.576497 59 55 41 5 1
0.030117 2.042397 -0.593747 63 59 47 5 1
0.227663 1.520088 -0.439292 93 103 97 23 7
0.215197 1.532926 -0.436717 135 153 152 23 7
0.021995 1.536010 -0.422775 78 96 116 7 5
0.033253 1.543256 -0.423936 60 58 61 7 5
0.032719 1.521400 -0.415902 79 81 100 7 5
0.040601 1.530548 -0.413506 119 107 85 7 5
0.045909 1.534311 -0.415097 126 137 139 7 5
0.298823 2.170308 -0.541328 51 25 19 5 1
0.361179 2.212000 -0.310635 47 67 87 5 1
0.369946 2.212467 -0.313795 56 73 96 5 1
0.346211 2.210040 -0.328082 54 85 110 5 1
0.706252 1.610744 -0.449674 14 11 8 7 5
0.687984 1.626594 -0.449167 13 12 9 7 5
0.674171 1.636975 -0.449518 14 13 10 7 5
0.657413 1.632595 -0.448800 13 12 9 7 5
0.180268 1.918210 -0.651801 23 22 20 40 10
0.198126 1.926384 -0.638100 18 14 9 40 10
0.073422 2.198030 -0.288839 30 18 9 5 1
0.085360 2.191577 -0.328553 31 20 12 5 1
0.294683 2.237611 -0.320840 51 32 21 5 1
0.299757 2.246119 -0.293467 57 34 21 5 1
0.108085 1.604856 -0.392953 69 65 73 23 7
0.104651 1.591299 -0.392312 73 73 87 23 7
0.307523 1.781841 -0.445202 54 40 27 23 7
0.292078 1.772382 -0.453666 54 40 27 23 7
0.301081 1.783473 -0.460555 31 23 14 7 5
0.289572 1.768478 -0.437889 103 81 55 23 7
0.085638 2.213107 -0.227049 31 20 12 5 1
0.319634 2.085296 -0.522396 23 21 22 40 10
0.262940 2.243778 -0.244393 46 30 20 5 1
0.272771 2.243407 -0.259707 52 34 17 5 1
0.222088 2.168676 -0.503461 38 21 10 5 1
0.230266 2.178886 -0.472151 41 21 11 5 1
0.644985 1.583540 -0.448248 14 12 12 7 5
0.645547 1.554728 -0.448184 17 13 11 7 5
0.630879 2.054066 -0.454709 75 58 42 7 5
0.654069 2.040119 -0.460116 67 50 38 7 5
0.647270 2.028570 -0.454922 72 55 38 7 5
0.300280 2.055851 -0.538063 77 68 52 40 10
0.290645 2.054822 -0.540771 27 28 26 40 10
0.279853 2.028376 -0.556595 67 65 63 40 10
0.288602 2.043962 -0.546436 75 68 62 40 10
0.127582 1.741712 -0.562527 18 13 8 7 5
0.144416 1.761076 -0.555001 20 17 12 7 5
0.573356 2.073302 -0.451573 77 62 38 7 5
0.586309 2.086411 -0.453080 82 56 42 7 5
0.174486 1.948612 -0.623089 28 20 14 40 10
0.149894 1.946313 -0.632343 27 27 25 40 10
0.156287 1.934235 -0.638593 12 13 9 40 10
0.375386 1.568643 -0.472075 204 152 119 7 5
0.398406 1.559582 -0.471657 185 143 117 7 5
0.389491 1.560532 -0.461983 64 57 57 0 0
0.383317 1.545578 -0.471112 186 136 111 7 5
0.203512 1.770048 -0.452089 21 24 32 7 5
0.181636 1.789097 -0.449749 34 30 34 7 5
0.197614 1.788539 -0.448954 24 23 27 7 5
0.452172 1.953353 -0.565962 77 64 60 7 5
0.212113 1.808185 -0.547063 48 38 32 7 5
0.121540 1.581791 -0.425323 123 134 142 7 5
0.121983 1.580227 -0.411730 65 73 80 7 5
0.795962 1.752435 -0.451999 31 32 25 7 5
0.078652 2.124235 -0.405441 41 50 70 5 1
0.120037 2.126584 -0.404822 45 44 50 5 1
0.064667 1.988985 -0.716916 45 44 41 5 1
0.130187 2.160711 -0.289094 48 73 99 5 1
0.135164 2.165600 -0.271526 50 75 111 5 1
0.121059 2.162859 -0.276979 49 78 106 5 1
0.136504 2.109591 -0.458480 41 46 59 5 1
0.124709 2.120010 -0.421229 50 55 71 5 1
0.313207 2.004765 -0.603623 28 23 20 40 10
0.291958 2.009088 -0.588404 43 39 35 40 10
0.309081 2.022787 -0.583923 23 20 20 40 10
0.495144 1.974570 -0.451036 25 17 13 7 5
0.521912 1.963649 -0.450248 22 18 13 7 5
0.524626 1.987922 -0.450315 26 17 15 7 5
0.331910 1.607048 -0.438666 99 79 70 0 0
0.315422 1.607284 -0.432146 68 61 67 0 0
0.331105 1.621694 -0.426666 155 131 110 0 0
0.182547 2.167739 -0.481964 36 22 12 5 1
0.379182 1.621286 -0.469337 54 38 33 0 0
0.393820 1.629517 -0.469126 68 48 40 7 5
0.360557 2.265191 -0.221798 111 82 64 5 1
0.347796 2.262387 -0.210657 35 27 15 5 1
0.333867 2.259800 -0.217456 48 33 15 5 1
0.359580 2.254708 -0.212430 87 77 70 5 1
0.346325 2.264189 -0.218317 38 30 14 5 1
0.117517 1.633265 -0.417498 22 16 15 23 7
0.102713 1.618449 -0.418660 19 16 15 23 7
0.109391 1.625192 -0.405391 24 19 19 23 7
0.104055 1.615641 -0.395603 65 61 63 23 7
0.114031 1.626768 -0.399637 62 52 54 23 7
0.097646 1.611856 -0.432385 21 17 15 23 7
0.498422 1.557477 -0.446253 56 46 44 7 5
0.276117 2.227899 -0.199086 56 53 53 5 1
0.252622 2.225338 -0.199419 42 32 23 5 1
0.025653 1.679986 -0.489031 25 15 18 7 5
0.048745 1.697855 -0.487160 25 16 17 7 5
0.026702 1.695875 -0.469093 24 16 15 7 5
0.012146 1.687007 -0.463524 23 17 15 7 5
0.338831 2.213053 -0.215833 76 63 48 5 1
0.355790 2.208629 -0.215048 87 51 32 5 1
0.356886 2.228379 -0.208885 96 49 31 5 1
0.124745 1.752242 -0.550948 39 31 22 7 5
0.119400 1.744732 -0.541216 56 44 31 7 5
0.141004 1.762204 -0.547544 16 15 10 7 5
0.328834 2.149266 -0.593386 46 31 14 5 1
0.318544 2.161582 -0.564143 47 28 18 5 1
0.334261 2.164791 -0.551460 49 35 9 5 1
0.754744 1.661968 -0.450906 15 10 7 7 5
0.109400 2.104278 -0.702276 34 26 20 5 1
0.096426 2.104078 -0.678455 34 25 21 5 1
0.086047 2.099011 -0.700089 37 27 21 5 1
0.104415 2.100831 -0.726339 32 27 19 5 1
0.271972 1.526803 -0.471278 160 137 127 7 5
0.286384 1.529633 -0.475036 165 140 124 7 5
1.301828 0.372824 -1.143684 146 111 73 5 3
1.300973 0.392252 -1.155415 140 113 74 5 3
1.315452 0.370078 -1.167162 139 109 65 2 4
1.301506 0.362659 -1.148518 140 106 64 5 3
0.995510 0.226016 -1.054862 155 130 107 5 3
0.983321 0.226254 -1.060989 150 130 100 7 5
0.983327 0.207649 -1.049511 171 147 120 5 3
1.007491 0.208051 -1.039514 166 142 121 5 3
0.980059 0.233497 -1.039743 160 132 102 7 5
0.995601 0.230393 -1.042687 162 132 106 5 3
0.997997 0.208035 -1.067255 169 143 119 5 3
0.998027 0.194160 -1.069090 171 144 118 5 3
1.004287 0.220704 -1.056403 161 123 82 5 3
1.007023 0.211365 -1.061341 167 141 114 5 3
0.977532 0.226583 -1.052361 159 131 99 7 5
0.989043 0.190308 -1.049698 106 92 83 5 3
0.984390 0.197844 -1.051118 165 145 123 5 3
0.999062 0.195795 -1.042376 151 131 116 5 3
0.982041 0.195246 -1.033626 161 143 125 5 3
1.161741 0.229291 -1.191866 160 138 112 2 4
1.185011 0.238321 -1.191402 157 133 101 2 4
1.002891 0.355103 -1.188307 140 117 88 2 4
1.038941 0.272591 -0.840411 54 39 22 5 3
1.025185 0.269516 -0.840790 51 39 22 5 3
1.274696 0.378829 -0.927466 74 54 37 5 3
1.276275 0.384748 -0.900168 52 39 24 5 3
1.279777 0.393857 -0.873150 83 65 47 5 3
1.264793 0.379949 -0.890127 88 67 48 5 3
1.084582 0.236655 -1.190110 127 104 83 2 4
1.366450 0.504209 -1.189599 114 94 58 2 4
0.892861 0.502632 -1.188036 143 122 90 2 4
0.972370 0.288795 -0.879786 102 78 57 5 3
0.956401 0.288196 -0.881525 86 68 55 5 3
0.964500 0.270772 -0.883330 145 121 94 5 3
0.975790 0.271837 -0.881969 96 77 47 5 3
1.261032 0.494598 -1.186782 125 102 65 2 4
1.273888 0.519296 -1.186705 126 105 68 2 4
1.017308 0.232119 -0.839779 55 52 39 5 3
1.016035 0.251709 -0.847981 77 70 64 5 3
1.276034 0.357930 -1.076382 113 96 62 5 3
1.281621 0.356441 -1.090459 91 73 56 5 3
1.281975 0.359893 -1.070939 113 91 64 5 3
1.271040 0.361701 -1.091315 133 112 75 5 3
1.078558 0.258655 -0.774480 48 39 29 5 3
0.938957 0.302363 -1.191189 144 124 92 2 4
1.237815 0.355389 -0.720924 54 40 30 5 3
1.254261 0.389822 -1.187301 133 116 74 2 4
1.264334 0.380470 -1.186518 143 119 88 2 4
1.283697 0.378535 -1.170854 140 112 74 0 0
1.278264 0.385540 -1.182099 139 112 81 0 0
1.462014 0.480820 -1.190106 143 111 65 2 4
1.283578 0.350267 -1.153508 126 95 59 0 0
1.285621 0.353637 -1.135474 125 94 59 5 3
1.260514 0.375766 -0.831702 50 35 24 5 3
1.243899 0.362076 -0.821969 70 57 39 5 3
1.183808 0.321596 -0.793155 57 43 33 5 3
0.956272 0.448271 -0.737178 7 7 6 5 3
0.950282 0.474658 -0.732726 6 7 4 5 3
0.945668 0.488429 -0.729345 5 6 5 5 3
0.983368 0.134116 -1.193456 118 107 84 2 4
0.936804 0.265613 -0.804515 42 36 25 5 3
0.938821 0.262542 -0.794707 35 28 23 5 3
0.921970 0.278794 -0.795874 34 31 29 5 3
0.931308 0.263824 -0.783590 36 35 30 5 3
1.042905 0.244004 -0.819980 52 41 28 5 3
1.073571 0.264721 -0.822024 63 54 39 5 3
1.181278 0.501043 -1.186771 135 125 85 2 4
1.233786 0.434633 -1.185504 140 122 87 2 4
1.208842 0.386051 -1.185415 140 118 86 2 4
1.270480 0.383440 -0.812401 64 46 33 5 3
1.271534 0.383430 -0.853072 64 44 29 5 3
1.266964 0.381994 -0.824494 62 50 31 5 3
1.314659 0.465014 -1.187008 128 111 80 2 4
1.077831 0.489316 -1.187446 140 125 81 2 4
0.902157 0.321028 -1.190609 142 128 93 2 4
0.913481 0.498828 -0.728161 8 9 6 5 3
0.908421 0.466861 -0.732418 10 9 5 5 3
1.006231 0.222775 -0.974386 70 65 63 5 3
1.005528 0.226434 -0.931457 148 130 111 5 3
1.004118 0.235272 -0.971386 71 66 68 5 3
1.006450 0.220829 -0.956482 59 55 53 5 3
1.000403 0.216475 -0.934809 115 104 90 5 3
0.989300 0.201703 -0.961877 61 54 52 5 3
1.004604 0.213229 -0.968408 96 85 75 5 3
0.984686 0.200746 -0.975009 107 93 83 5 3
0.939128 0.415312 -0.734852 7 8 6 5 3
0.924594 0.419144 -0.737429 11 9 6 5 3
0.913646 0.411233 -0.735864 10 9 6 5 3
0.905088 0.436852 -0.736747 11 10 7 5 3
0.939749 0.402987 -0.736673 12 11 10 5 3
0.899051 0.452425 -1.188721 148 127 89 2 4
1.164415 0.308640 -0.750907 50 43 28 5 3
1.172125 0.313404 -0.772154 52 41 29 5 3
0.970165 0.217811 -1.036316 167 138 109 7 5
0.975575 0.207433 -1.014743 148 110 68 5 3
0.970566 0.213272 -1.032211 153 114 74 5 3
0.969295 0.225197 -1.028064 159 123 79 7 5
1.243786 0.418569 -0.937465 142 105 58 0 0
1.237726 0.412219 -0.918681 80 59 34 0 0
1.235704 0.397431 -0.919328 63 47 30 0 0
1.238177 0.406701 -0.927106 111 82 48 0 0
1.239387 0.417109 -0.916797 117 85 44 0 0
1.238221 0.392581 -0.926770 99 75 46 5 3
1.239875 0.393388 -0.944989 51 42 31 5 3
0.991223 0.247755 -0.992800 135 113 87 5 3
0.983317 0.247096 -0.992187 152 124 80 7 5
0.994887 0.241994 -1.018743 167 124 80 5 3
0.991114 0.237446 -1.025319 167 124 80 5 3
1.001310 0.233013 -1.022129 139 106 62 5 3
1.269665 0.385496 -0.764046 63 53 41 5 3
1.111297 0.414227 -1.186182 125 101 65 2 4
1.089058 0.439841 -1.187363 126 108 71 2 4
1.204947 0.266023 -1.189283 151 126 96 2 4
1.294747 0.365426 -1.109171 142 122 83 5 3
1.272456 0.375354 -1.114312 147 116 71 0 0
1.299031 0.370451 -1.128621 156 131 86 5 3
1.296084 0.358550 -1.140592 148 123 84 5 3
1.275942 0.388515 -1.118957 146 113 73 0 0
1.270431 0.366441 -1.103443 153 129 87 0 0
1.298952 0.376881 -1.114404 148 129 84 5 3
1.267068 0.380051 -1.108508 146 113 70 0 0
1.273055 0.359138 -1.114501 153 130 87 0 0
0.955377 0.443212 -1.187320 147 128 91 2 4
1.152047 0.361228 -1.185656 174 147 116 2 4
1.133048 0.320228 -1.186755 224 197 153 2 4
1.119689 0.382696 -1.186441 145 129 104 2 4
1.091173 0.267781 -0.797337 61 51 42 5 3
1.083792 0.265277 -0.802520 70 53 35 5 3
1.100873 0.273181 -0.807560 72 57 43 5 3
1.209854 0.344096 -0.832770 52 38 27 5 3
1.209697 0.336905 -0.818435 91 71 47 5 3
1.217398 0.356470 -0.845297 53 40 26 5 3
1.230505 0.353914 -0.831101 70 56 38 5 3
1.029547 0.383728 -1.188292 134 110 74 2 4
1.025650 0.367887 -1.188312 141 118 87 2 4
0.989226 0.258072 -0.897668 49 33 28 5 3
0.999042 0.245147 -0.892108 92 76 53 5 3
0.997156 0.256164 -0.872769 55 44 30 5 3
0.993087 0.253951 -0.884627 70 51 36 5 3
0.987756 0.265932 -0.886839 61 49 27 5 3
1.208321 0.445181 -1.185132 135 112 81 2 4
1.291788 0.373408 -1.072055 96 80 57 5 3
1.284904 0.366766 -1.058293 72 55 39 5 3
1.263265 0.368490 -1.043766 61 50 37 5 3
1.294982 0.392061 -1.061712 111 92 65 5 3
1.291435 0.381435 -1.044784 97 81 63 5 3
1.295229 0.394832 -1.040151 55 46 38 5 3
1.238624 0.357544 -0.782784 57 41 31 5 3
1.234448 0.389878 -0.884357 57 39 23 0 0
0.929047 0.242228 -1.190024 141 119 91 2 4
0.936357 0.222343 -1.189555 141 117 94 2 4
0.922976 0.207967 -1.190746 140 118 96 2 4
1.022663 0.163961 -1.186166 84 77 87 2 4
1.006075 0.153850 -1.187156 53 50 44 2 4
1.039470 0.154070 -1.186016 50 48 41 2 4
0.989358 0.276464 -0.884861 56 42 30 5 3
1.265879 0.379186 -0.912866 46 38 26 5 3
1.262172 0.379144 -0.935642 70 60 55 5 3
1.252270 0.392639 -0.924207 60 51 36 5 3
1.248395 0.394554 -0.914399 61 45 30 5 3
1.254288 0.389562 -0.945537 48 40 28 5 3
1.201041 0.326931 -0.738778 48 41 29 5 3
1.231502 0.349750 -0.740697 55 45 35 5 3
1.207999 0.332797 -0.724556 50 40 28 5 3
1.229020 0.346184 -0.725544 71 52 41 5 3
0.985473 0.344307 -0.739412 6 9 8 5 3
0.999344 0.348153 -0.735950 7 10 8 5 3
0.978011 0.357732 -0.735066 12 13 11 5 3
1.004487 0.361069 -0.738009 7 11 8 5 3
0.986579 0.333401 -0.738811 9 9 9 5 3
0.934807 0.254360 -0.848374 50 43 28 5 3
0.943700 0.246849 -0.852355 51 46 26 5 3
1.121936 0.358963 -1.185403 164 137 108 2 4
1.242652 0.397354 -0.981390 49 37 21 0 0
1.140668 0.298059 -0.820639 62 49 38 5 3
1.125287 0.289081 -0.815736 61 48 37 5 3
1.252262 0.416757 -0.991813 113 84 57 0 0
1.125135 0.302661 -0.834864 73 53 35 5 3
1.243505 0.387973 -0.991895 53 38 24 0 0
1.055630 0.393765 -1.186613 128 104 75 2 4
0.977585 0.209896 -0.858515 51 45 30 5 3
0.971445 0.220620 -0.857913 72 71 67 5 3
0.962568 0.231791 -0.859902 63 49 38 5 3
1.249092 0.351410 -1.187501 143 116 87 2 4
1.305191 0.397381 -1.165878 131 106 70 2 4
1.292966 0.401649 -1.177745 129 101 66 0 0
1.308195 0.415354 -1.178012 126 99 64 2 4
1.300834 0.425376 -1.183997 126 105 71 2 4
1.335564 0.431137 -1.181968 125 97 59 2 4
1.317335 0.404214 -1.176849 127 103 67 2 4
0.972306 0.236637 -1.019868 141 120 85 7 5
1.263505 0.406611 -1.048393 109 88 56 0 0
1.265805 0.405412 -1.058233 69 46 24 0 0
1.251076 0.390870 -1.039301 148 124 81 0 0
0.967400 0.363623 -0.738415 14 13 10 5 3
0.952414 0.341319 -0.738864 14 13 10 5 3
0.961853 0.323556 -0.738232 14 13 8 5 3
0.974343 0.336895 -0.738318 14 12 9 5 3
0.910206 0.506946 -0.725297 8 7 7 5 3
1.199645 0.357336 -1.186799 167 139 109 2 4
1.007202 0.231754 -0.941426 72 72 66 5 3
1.006826 0.227374 -0.915299 70 67 60 5 3
0.981081 0.203800 -0.938942 63 55 55 5 3
0.989047 0.208543 -0.918904 62 55 54 5 3
0.978952 0.209300 -0.896956 58 56 52 5 3
0.957430 0.465106 -1.187686 140 126 92 2 4
0.984547 0.497979 -1.187906 142 122 85 2 4
1.009512 0.231340 -0.867535 57 46 32 5 3
1.251914 0.372070 -1.057315 104 91 64 0 0
1.253532 0.367647 -1.053564 101 89 62 5 3
1.249770 0.379601 -1.047626 152 125 82 0 0
1.258614 0.373282 -1.024075 98 84 61 5 3
1.263666 0.366488 -1.060920 96 84 61 5 3
1.255081 0.384532 -1.064557 89 66 40 0 0
0.952873 0.249299 -0.802648 49 43 30 5 3
0.962080 0.269410 -0.722219 16 14 11 5 3
0.958592 0.287539 -0.744632 15 15 15 5 3
0.961258 0.279394 -0.741634 15 15 14 5 3
0.973780 0.291068 -0.737176 13 12 8 5 3
0.926441 0.312224 -0.746694 16 14 11 5 3
0.943156 0.319378 -0.741125 15 12 9 5 3
0.918793 0.321563 -0.743633 19 20 19 5 3
0.956679 0.259403 -1.189587 123 100 69 2 4
1.286552 0.385629 -0.984884 76 68 60 5 3
1.291369 0.395294 -0.995872 46 36 28 5 3
1.276438 0.370860 -1.011918 83 60 39 5 3
1.268509 0.372443 -0.992729 89 67 42 5 3
1.276772 0.375138 -0.986156 75 49 31 5 3
1.245775 0.406355 -0.982966 106 75 44 0 0
1.239741 0.396866 -0.961059 113 80 45 0 0
1.245992 0.418157 -0.955567 103 73 43 0 0
1.237159 0.401382 -0.943643 125 95 57 0 0
1.278541 0.486133 -1.187032 126 102 66 2 4
0.969578 0.236499 -0.728031 25 24 24 5 3
0.960663 0.269188 -0.741671 12 10 10 5 3
0.963449 0.250264 -0.730598 16 14 15 5 3
0.970799 0.233525 -0.722321 19 18 14 5 3
1.091817 0.189674 -1.189573 148 129 125 2 4
1.091448 0.179600 -1.188263 154 136 144 2 4
1.112250 0.183575 -1.189963 149 129 136 2 4
1.461307 0.503180 -1.189455 116 94 68 2 4
1.478618 0.516325 -1.190163 76 58 40 2 4
1.199761 0.356728 -0.845606 40 33 23 5 3
1.259475 0.410592 -1.028821 131 109 76 0 0
1.248102 0.399321 -1.009917 76 59 38 0 0
1.256056 0.413074 -1.014068 48 33 18 0 0
1.269013 0.375527 -0.927836 94 74 52 5 3
1.279047 0.383689 -0.928589 58 42 27 5 3
1.270995 0.380985 -0.897146 77 58 42 5 3
1.278471 0.433839 -0.987897 103 75 44 0 0
1.275994 0.432309 -0.999692 105 74 45 0 0
1.284609 0.428200 -0.988712 49 38 27 5 3
1.029414 0.212519 -1.185489 139 114 95 2 4
1.017466 0.215623 -1.186039 138 119 93 2 4
1.018225 0.235151 -1.187399 137 118 96 2 4
1.022059 0.226316 -0.820823 37 36 31 5 3
1.030811 0.232562 -0.814339 49 49 50 5 3
1.024014 0.237607 -0.832303 52 47 33 5 3
0.993544 0.145755 -1.190622 88 76 76 2 4
0.946547 0.359727 -1.189649 138 121 79 2 4
1.339209 0.512583 -1.187664 119 101 66 2 4
1.356436 0.527194 -1.187142 114 93 53 2 4
1.076696 0.256626 -0.737813 76 62 52 5 3
1.074390 0.255457 -0.722774 51 42 33 5 3
0.991206 0.364326 -0.741356 6 9 6 5 3
0.995099 0.359276 -0.741769 8 9 4 5 3
0.986820 0.368866 -0.735052 6 9 8 5 3
1.003925 0.373907 -0.746859 8 11 9 5 3
1.121458 0.249674 -1.189147 139 108 86 2 4
0.947800 0.440890 -0.730363 4 4 4 5 3
0.928284 0.138115 -1.192436 130 90 47 2 4
0.892891 0.139426 -1.192574 130 90 47 2 4
1.059797 0.312432 -1.188190 221 193 157 2 4
1.039530 0.433103 -1.187577 134 113 76 2 4
1.111499 0.301279 -0.837175 78 59 35 5 3
1.092175 0.298676 -0.838971 53 39 24 5 3
1.105008 0.308185 -0.836346 68 50 30 5 3
1.088435 0.302305 -0.829748 46 34 21 5 3
1.239295 0.455818 -1.184829 129 109 73 2 4
1.259407 0.473056 -1.186873 131 106 72 2 4
1.060047 0.369227 -1.186296 144 123 93 2 4
1.279608 0.433597 -0.914346 46 35 18 5 3
1.281901 0.432621 -0.942808 50 36 22 5 3
0.995797 0.295228 -1.190110 146 121 84 2 4
1.310944 0.327814 -1.188833 58 56 55 2 4
1.293557 0.321371 -1.184225 55 54 47 2 4
0.963105 0.140755 -1.192571 117 89 61 2 4
0.975302 0.161690 -1.191562 120 97 85 2 4
0.946583 0.160571 -1.192290 133 114 108 2 4
1.137260 0.414409 -1.184884 123 98 65 2 4
1.146047 0.459228 -1.186815 127 98 63 2 4
1.111916 0.458375 -1.187148 120 101 57 2 4
0.972485 0.383553 -0.735273 11 9 9 5 3
0.946579 0.383964 -0.737566 13 10 9 5 3
0.960967 0.398736 -0.737753 10 9 7 5 3
0.962709 0.380011 -0.734392 12 11 9 5 3
0.958685 0.359108 -0.738528 13 11 10 5 3
0.985747 0.379190 -0.737480 12 11 9 5 3
0.957467 0.244353 -0.786434 40 36 32 5 3
0.980490 0.216405 -0.768652 28 34 37 5 3
0.974280 0.223718 -0.782977 37 44 47 5 3
1.039156 0.236548 -0.728135 76 63 56 5 3
0.934679 0.191367 -1.190458 143 115 97 2 4
0.961931 0.178761 -1.192071 141 122 101 2 4
1.170548 0.348728 -1.186798 208 175 131 2 4
1.330615 0.451959 -1.187343 119 101 66 2 4
1.348550 0.447102 -1.185310 126 106 66 2 4
1.367154 0.453637 -1.190279 125 101 65 2 4
0.931297 0.456367 -1.188022 147 123 87 2 4
0.924828 0.475775 -1.186914 142 126 90 2 4
0.973530 0.220726 -0.793769 37 36 35 5 3
0.998847 0.209298 -0.794200 31 35 36 5 3
0.986469 0.206162 -0.807036 42 37 24 5 3
0.990917 0.208832 -0.791622 17 22 13 5 3
1.110915 0.279158 -0.805805 60 47 38 5 3
1.128042 0.289933 -0.794180 66 50 39 5 3
1.110563 0.276442 -0.782023 50 39 24 5 3
1.234134 0.401711 -0.894664 79 58 35 0 0
1.234619 0.394139 -0.901920 87 63 36 5 3
1.248110 0.370508 -0.844561 54 40 27 5 3
1.257942 0.374902 -0.849745 57 41 31 5 3
1.239285 0.373662 -0.854688 54 42 28 5 3
1.251560 0.386620 -0.871017 59 43 31 5 3
1.265204 0.378829 -0.866953 55 43 26 5 3
1.259136 0.380492 -0.873319 58 43 27 5 3
1.272116 0.383452 -0.873262 54 40 23 5 3
0.962261 0.248996 -0.940084 129 96 60 7 5
0.958112 0.239250 -0.958986 108 75 45 7 5
0.968306 0.254722 -0.940551 106 74 53 7 5
0.969637 0.251066 -0.967034 132 102 68 7 5
0.975267 0.257094 -0.946048 125 94 59 7 5
0.963492 0.244874 -0.969677 122 92 66 7 5
1.102650 0.223287 -1.190657 135 107 96 2 4
1.132014 0.230526 -1.190121 142 117 100 2 4
1.014559 0.216422 -0.789267 35 43 43 5 3
1.023286 0.221425 -0.802364 37 42 47 5 3
1.032903 0.232514 -0.795809 42 40 40 5 3
1.192094 0.330168 -0.822505 74 55 41 5 3
1.172256 0.320900 -0.824404 65 51 37 5 3
1.405769 0.424879 -1.189843 150 119 75 2 4
1.425942 0.464616 -1.190258 139 112 72 2 4
0.989427 0.254284 -0.957329 64 56 44 5 3
0.994430 0.245059 -0.959223 65 59 54 5 3
0.983098 0.256978 -0.951625 62 46 28 7 5
