ply
format ascii 1.0
element vertex 1071
property float x
property float y
property float z
property uchar red
property uchar green
property uchar blue
property uchar semantic_label
property uchar instance_label
end_header
-1.367156 -0.808921 0.090906 255 125 0 92 7
-1.365256 -0.831973 0.000906 255 125 0 92 7
-1.365521 -0.799202 0.116906 255 125 0 92 7
-1.421160 -0.860984 -0.022074 255 125 0 92 7
-1.374312 -0.862763 0.016906 255 125 0 92 7
-1.416124 -0.866144 0.044864 255 125 0 92 7
-1.353570 -0.850815 -0.066829 255 125 0 92 7
-1.409425 -0.796156 0.100906 255 125 0 92 7
-1.389803 -0.876992 0.070906 255 125 0 92 7
-1.350290 -0.806529 0.135319 255 125 0 92 7
-1.379050 -0.797544 0.094906 255 125 0 92 7
-1.362320 -0.795793 0.128038 255 125 0 92 7
-1.381030 -0.883811 0.106906 255 125 0 92 7
-1.369965 -0.837107 0.058906 255 125 0 92 7
-1.359169 -0.814865 0.124906 255 125 0 92 7
-1.374588 -0.853504 0.060906 255 125 0 92 7
-1.362812 -0.812046 -0.055094 255 125 0 92 7
-1.374626 -0.824831 -0.013094 255 125 0 92 7
-1.377800 -0.810905 -0.038052 255 125 0 92 7
-1.349867 -0.861825 0.126906 255 125 0 92 7
-1.400112 -0.790820 0.112906 255 125 0 92 7
-1.441385 -0.879177 0.129972 255 125 0 92 7
-1.408098 -0.866864 0.056906 255 125 0 92 7
-1.373565 -0.813850 0.044906 255 125 0 92 7
-1.354863 -0.828048 -0.058662 255 125 0 92 7
-1.444237 -0.806016 0.116906 255 125 0 92 7
-1.365439 -0.815578 -0.069094 255 125 0 92 7
-1.377578 -0.809853 0.074906 255 125 0 92 7
-1.372986 -0.822152 -0.031094 255 125 0 92 7
-1.381113 -0.812245 -0.025094 255 125 0 92 7
-1.448009 -0.843009 0.101941 255 125 0 92 7
-1.382818 -0.882612 -0.061094 255 125 0 92 7
-1.446575 -0.839224 0.126906 255 125 0 92 7
-1.384269 -0.812474 0.018906 255 125 0 92 7
-1.360111 -0.873961 0.120906 255 125 0 92 7
-1.371762 -0.855127 0.072906 255 125 0 92 7
-1.370977 -0.798042 0.107640 255 125 0 92 7
-1.344250 -0.826216 0.135270 255 125 0 92 7
-1.419787 -0.787187 0.136906 255 125 0 92 7
-1.389707 -0.876534 -0.033094 255 125 0 92 7
-1.414930 -0.879767 -0.059094 255 125 0 92 7
-1.366435 -0.850125 0.004906 255 125 0 92 7
-1.403491 -0.874051 -0.053094 255 125 0 92 7
-1.436693 -0.804521 0.098906 255 125 0 92 7
-1.362577 -0.828453 0.064906 255 125 0 92 7
-1.416092 -0.875618 -0.047094 255 125 0 92 7
-1.456769 -0.841147 0.126906 255 125 0 92 7
-1.433424 -0.870586 0.122906 255 125 0 92 7
-1.382677 -0.785747 0.134906 255 125 0 92 7
-1.411294 -0.872279 -0.013094 255 125 0 92 7
-1.365087 -0.844277 0.032906 255 125 0 92 7
-1.355371 -0.805449 0.126906 255 125 0 92 7
-1.395845 -0.789986 -0.069094 255 125 0 92 7
-1.409703 -0.787766 0.126906 255 125 0 92 7
-1.402436 -0.878707 -0.041094 255 125 0 92 7
-1.445708 -0.865990 0.118906 255 125 0 92 7
-1.387999 -0.887740 0.112906 255 125 0 92 7
-1.374265 -0.803890 0.086906 255 125 0 92 7
-1.376921 -0.821315 0.004906 255 125 0 92 7
-1.375598 -0.790926 0.129745 255 125 0 92 7
-1.363661 -0.842536 -0.011094 255 125 0 92 7
-1.447870 -0.824637 0.134906 255 125 0 92 7
-1.349436 -0.840986 0.134906 255 125 0 92 7
-1.362966 -0.834505 0.054906 255 125 0 92 7
-1.352091 -0.822504 0.132906 255 125 0 92 7
-1.401447 -0.787477 0.122748 255 125 0 92 7
-1.438138 -0.857376 0.114906 255 125 0 92 7
-1.390702 -0.881220 -0.051094 255 125 0 92 7
-1.360194 -0.814647 0.096264 255 125 0 92 7
-1.368567 -0.853761 0.030906 255 125 0 92 7
-1.409668 -0.883874 0.103477 255 125 0 92 7
-1.419806 -0.859227 0.026906 255 125 0 92 7
-1.439037 -0.818336 0.118906 255 125 0 92 7
-1.422220 -0.875589 -0.053094 255 125 0 92 7
-1.373720 -0.878284 0.126906 255 125 0 92 7
-1.425404 -0.871329 -0.073094 255 125 0 92 7
-1.376188 -0.864409 0.028906 255 125 0 92 7
-1.380541 -0.877797 0.088906 255 125 0 92 7
-1.386064 -0.872535 0.050906 255 125 0 92 7
-1.397511 -0.865152 0.022906 255 125 0 92 7
-1.367206 -0.856095 -0.015094 255 125 0 92 7
-1.345164 -0.834200 0.126906 255 125 0 92 7
-1.397919 -0.867078 0.048906 255 125 0 92 7
-1.364604 -0.846425 0.044906 255 125 0 92 7
-1.450232 -0.820045 0.116906 255 125 0 92 7
-1.373571 -0.875189 0.094906 255 125 0 92 7
-1.374188 -0.856656 -0.039094 255 125 0 92 7
-1.402350 -0.787284 -0.081094 255 125 0 92 7
-1.384109 -0.869444 0.010906 255 125 0 92 7
-1.351692 -0.855303 0.114906 255 125 0 92 7
-1.410058 -0.866467 -0.025094 255 125 0 92 7
-1.399874 -0.876275 -0.023094 255 125 0 92 7
-1.427885 -0.859555 0.066906 255 125 0 92 7
-1.380095 -0.792841 -0.067094 255 125 0 92 7
-1.372907 -0.850794 -0.025094 255 125 0 92 7
-1.399101 -0.872633 0.012906 255 125 0 92 7
-1.389033 -0.882986 0.096906 255 125 0 92 7
-1.409463 -0.882911 0.118906 255 125 0 92 7
-1.416462 -0.877358 -0.077094 255 125 0 92 7
-1.391331 -0.874563 -0.061094 255 125 0 92 7
-1.388843 -0.862853 0.036906 255 125 0 92 7
-1.364062 -0.823220 -0.029094 255 125 0 92 7
-1.375222 -0.842124 0.004906 255 125 0 92 7
-1.399436 -0.864590 0.032906 255 125 0 92 7
-1.383069 -0.811830 -0.017094 255 125 0 92 7
-1.445097 -0.815003 0.102906 255 125 0 92 7
-1.448898 -0.803971 0.126906 255 125 0 92 7
-1.352076 -0.824551 -0.086082 255 125 0 92 7
-1.375828 -0.882888 -0.073094 255 125 0 92 7
-1.410858 -0.869308 0.020906 255 125 0 92 7
-1.431262 -0.805676 0.116906 255 125 0 92 7
-1.425990 -0.864464 -0.039094 255 125 0 92 7
-1.383132 -0.797504 -0.049292 255 125 0 92 7
-1.375391 -0.862534 0.078906 255 125 0 92 7
-1.381973 -0.816152 0.000906 255 125 0 92 7
-1.406172 -0.886662 -0.072040 255 125 0 92 7
-1.388534 -0.871020 0.084906 255 125 0 92 7
-1.383040 -0.806697 -0.043094 255 125 0 92 7
-1.365735 -0.802236 -0.071094 255 125 0 92 7
-1.412968 -0.880163 0.110906 255 125 0 92 7
-1.421900 -0.889453 0.136906 255 125 0 92 7
-1.369651 -0.814682 -0.023094 255 125 0 92 7
-1.363586 -0.854820 0.104906 255 125 0 92 7
-1.350462 -0.833073 0.110906 255 125 0 92 7
-1.409961 -0.875633 -0.064066 255 125 0 92 7
-1.404145 -0.800169 -0.037094 255 125 0 92 7
-1.359023 -0.847611 0.113873 255 125 0 92 7
-1.359901 -0.822888 -0.066085 255 125 0 92 7
-1.419157 -0.890036 0.121914 255 125 0 92 7
-1.387674 -0.872191 -0.007094 255 125 0 92 7
-1.380301 -0.793811 0.114906 255 125 0 92 7
-1.370209 -0.818652 0.086906 255 125 0 92 7
-1.397497 -0.870103 0.070906 255 125 0 92 7
-1.368318 -0.829278 0.072906 255 125 0 92 7
-1.360430 -0.834991 0.070906 255 125 0 92 7
-1.414346 -0.862433 0.000906 255 125 0 92 7
-1.348296 -0.839669 0.116906 255 125 0 92 7
-1.375540 -0.809889 0.058906 255 125 0 92 7
-1.380779 -0.815297 0.028906 255 125 0 92 7
-1.384989 -0.811422 0.006906 255 125 0 92 7
-1.394453 -0.793052 0.102724 255 125 0 92 7
-1.416382 -0.867358 0.064906 255 125 0 92 7
-1.393423 -0.884398 0.120906 255 125 0 92 7
-1.355865 -0.813523 0.111479 255 125 0 92 7
-1.361123 -0.841031 -0.029094 255 125 0 92 7
-1.388565 -0.890404 0.134139 255 125 0 92 7
-1.371126 -0.861396 -0.063094 255 125 0 92 7
-1.439816 -0.799768 0.114906 255 125 0 92 7
-1.401740 -0.779236 0.117927 255 125 0 92 7
-1.430550 -0.871257 -0.079094 255 125 0 92 7
-1.378752 -0.873101 0.106906 255 125 0 92 7
-1.382797 -0.877317 -0.045094 255 125 0 92 7
-1.409130 -0.871720 0.050770 255 125 0 92 7
-1.356235 -0.844114 0.091947 255 125 0 92 7
-1.400810 -0.880674 -0.079094 255 125 0 92 7
-1.421700 -0.863525 0.052906 255 125 0 92 7
-1.408485 -0.887927 0.112906 255 125 0 92 7
-1.403085 -0.775951 0.126906 255 125 0 92 7
-1.404680 -0.872666 0.006906 255 125 0 92 7
-1.391239 -0.806794 0.026906 255 125 0 92 7
-1.418458 -0.785905 0.108906 255 125 0 92 7
-1.383266 -0.860860 0.050906 255 125 0 92 7
-1.383794 -0.793274 0.100906 255 125 0 92 7
-1.437555 -0.870775 0.130906 255 125 0 92 7
-1.410939 -0.870615 -0.005094 255 125 0 92 7
-1.423280 -0.856444 0.006906 255 125 0 92 7
-1.422506 -0.857691 -0.007094 255 125 0 92 7
-1.361735 -0.812275 -0.086023 255 125 0 92 7
-1.386498 -0.871066 0.026906 255 125 0 92 7
-1.369225 -0.818862 0.038906 255 125 0 92 7
-1.413136 -0.861712 0.010906 255 125 0 92 7
-1.413613 -0.868723 -0.041094 255 125 0 92 7
-1.448867 -0.844872 0.134906 255 125 0 92 7
-1.379348 -0.808561 0.042906 255 125 0 92 7
-1.360809 -0.865634 0.125810 255 125 0 92 7
-1.435242 -0.792561 0.135643 255 125 0 92 7
-1.392061 -0.887616 -0.085939 255 125 0 92 7
-1.435980 -0.853745 -0.054031 255 125 0 92 7
-1.399218 -0.892425 0.122906 255 125 0 92 7
-1.411601 -0.892962 0.128906 255 125 0 92 7
-1.390625 -0.885877 -0.067094 255 125 0 92 7
-1.367099 -0.860207 -0.031094 255 125 0 92 7
-1.363766 -0.821835 0.068906 255 125 0 92 7
-1.345270 -0.850251 0.128906 255 125 0 92 7
-1.405458 -0.876590 0.070906 255 125 0 92 7
-1.443516 -0.809205 0.136906 255 125 0 92 7
-1.363599 -0.821043 0.106906 255 125 0 92 7
-1.413570 -0.863757 -0.013094 255 125 0 92 7
-1.365037 -0.832020 0.042906 255 125 0 92 7
-1.404073 -0.780597 0.136906 255 125 0 92 7
-1.429534 -0.890764 0.134906 255 125 0 92 7
-1.369246 -0.820902 0.028906 255 125 0 92 7
-1.391922 -0.800385 -0.037094 255 125 0 92 7
-1.369021 -0.798458 0.123646 255 125 0 92 7
-1.419967 -0.884231 -0.079094 255 125 0 92 7
-1.398489 -0.802418 -0.004766 255 125 0 92 7
-1.389607 -0.799116 0.088906 255 125 0 92 7
-1.383306 -0.860852 -0.029094 255 125 0 92 7
-1.398231 -0.887778 0.110906 255 125 0 92 7
-1.368715 -0.802613 -0.061094 255 125 0 92 7
-1.357774 -0.841743 0.084361 255 125 0 92 7
-1.380050 -0.802248 -0.036941 255 125 0 92 7
-1.385864 -0.877700 -0.081094 255 125 0 92 7
-1.447513 -0.855383 0.110906 255 125 0 92 7
-1.366132 -0.805206 0.098906 255 125 0 92 7
-1.372781 -0.840597 0.034906 255 125 0 92 7
-1.371072 -0.822559 -0.047094 255 125 0 92 7
-1.376101 -0.817400 0.064906 255 125 0 92 7
-1.356209 -0.829807 0.120906 255 125 0 92 7
-1.370016 -0.837096 -0.027094 255 125 0 92 7
-1.361818 -0.822284 0.080906 255 125 0 92 7
-1.374657 -0.829975 0.022906 255 125 0 92 7
-1.358994 -0.833305 0.108906 255 125 0 92 7
-1.447748 -0.870639 0.128906 255 125 0 92 7
-1.372962 -0.817002 0.076906 255 125 0 92 7
-1.359618 -0.855663 -0.079094 255 125 0 92 7
-1.368483 -0.786305 0.131907 255 125 0 92 7
-1.391202 -0.864337 0.044906 255 125 0 92 7
-1.398334 -0.800406 -0.025094 255 125 0 92 7
-1.378506 -0.852701 0.024906 255 125 0 92 7
-1.379049 -0.807158 0.052906 255 125 0 92 7
-1.360563 -0.851373 -0.041094 255 125 0 92 7
-1.365365 -0.831950 0.018906 255 125 0 92 7
-1.377017 -0.778358 0.133866 255 125 0 92 7
-1.353264 -0.836567 -0.061094 255 125 0 92 7
-1.362439 -0.859154 -0.045094 255 125 0 92 7
-1.424670 -0.802987 0.094906 255 125 0 92 7
-1.424954 -0.864267 0.078906 255 125 0 92 7
-1.384373 -0.885161 0.130906 255 125 0 92 7
-1.435687 -0.861986 -0.067974 255 125 0 92 7
-1.375000 -0.788112 0.118906 255 125 0 92 7
-1.387901 -0.786267 -0.085094 255 125 0 92 7
-1.389596 -0.792040 -0.065094 255 125 0 92 7
-1.377862 -0.811197 0.004906 255 125 0 92 7
-1.408109 -0.866923 -0.017094 255 125 0 92 7
-1.433825 -0.805131 0.125048 255 125 0 92 7
-1.448097 -0.861393 0.136906 255 125 0 92 7
-1.377505 -0.867229 -0.061094 255 125 0 92 7
-1.403794 -0.865853 -0.001094 255 125 0 92 7
-1.364135 -0.881284 0.135456 255 125 0 92 7
-1.380635 -0.805003 0.080906 255 125 0 92 7
-1.453835 -0.856084 0.124906 255 125 0 92 7
-1.364557 -0.835172 0.092906 255 125 0 92 7
-1.374454 -0.891359 0.133628 255 125 0 92 7
-1.380687 -0.805248 0.064906 255 125 0 92 7
-1.388855 -0.805197 -0.017094 255 125 0 92 7
-1.359272 -0.819925 0.118906 255 125 0 92 7
-1.428445 -0.876016 0.120906 255 125 0 92 7
-1.426151 -0.884460 0.117958 255 125 0 92 7
-1.377629 -0.815031 -0.031094 255 125 0 92 7
-1.362653 -0.840705 0.098906 255 125 0 92 7
-1.353561 -0.846727 0.102906 255 125 0 92 7
-1.441540 -0.841431 0.112906 255 125 0 92 7
-1.426614 -0.857780 0.051932 255 125 0 92 7
-1.375428 -0.809364 -0.054096 255 125 0 92 7
-1.367727 -0.821225 0.051673 255 125 0 92 7
-1.425461 -0.794640 0.093910 255 125 0 92 7
-1.379833 -0.801229 -0.065094 255 125 0 92 7
-1.364659 -0.838234 0.004906 255 125 0 92 7
-1.423239 -0.870766 -0.036141 255 125 0 92 7
-1.394603 -0.870718 -0.046083 255 125 0 92 7
-1.384826 -0.858485 0.022906 255 125 0 92 7
-1.403251 -0.791182 -0.065094 255 125 0 92 7
-1.393451 -0.807578 0.011919 255 125 0 92 7
-1.407948 -0.875779 -0.033094 255 125 0 92 7
-1.348825 -0.847734 -0.081136 255 125 0 92 7
-1.432578 -0.799262 0.130913 255 125 0 92 7
-1.367141 -0.837707 -0.046069 255 125 0 92 7
-1.423038 -0.869819 -0.063094 255 125 0 92 7
-1.373694 -0.791587 -0.079094 255 125 0 92 7
-1.408559 -0.878651 -0.045094 255 125 0 92 7
-1.370713 -0.825655 -0.037094 255 125 0 92 7
-1.378295 -0.803612 0.098906 255 125 0 92 7
-1.392930 -0.872461 -0.001094 255 125 0 92 7
-1.419034 -0.879838 0.115809 255 125 0 92 7
-1.358382 -0.815741 -0.077094 255 125 0 92 7
-1.421319 -0.861727 -0.001094 255 125 0 92 7
-1.395585 -0.875333 -0.017094 255 125 0 92 7
-1.394418 -0.874847 0.092906 255 125 0 92 7
-1.405864 -0.875595 0.090906 255 125 0 92 7
-1.435766 -0.814268 0.112906 255 125 0 92 7
-1.369173 -0.876124 -0.083697 255 125 0 92 7
-1.372962 -0.865095 0.056160 255 125 0 92 7
-1.367604 -0.811028 0.083116 255 125 0 92 7
-1.367263 -0.849949 0.016906 255 125 0 92 7
-1.405740 -0.865390 0.038906 255 125 0 92 7
-1.365252 -0.838108 0.014906 255 125 0 92 7
-1.456186 -0.852613 0.134906 255 125 0 92 7
-1.366977 -0.868412 -0.053094 255 125 0 92 7
-1.353226 -0.844754 0.126906 255 125 0 92 7
-1.351320 -0.859473 0.133959 255 125 0 92 7
-1.426666 -0.806652 0.102906 255 125 0 92 7
-1.440708 -0.813891 0.126906 255 125 0 92 7
-1.362595 -0.842763 0.056906 255 125 0 92 7
-1.352425 -0.836746 0.104906 255 125 0 92 7
-1.369827 -0.811866 0.072906 255 125 0 92 7
-1.401825 -0.875834 0.060906 255 125 0 92 7
-1.379911 -0.816590 0.040906 255 125 0 92 7
-1.416662 -0.878298 0.095824 255 125 0 92 7
-1.419064 -0.860741 0.014906 255 125 0 92 7
-1.378643 -0.805246 -0.027094 255 125 0 92 7
-1.365077 -0.852458 0.058906 255 125 0 92 7
-1.367383 -0.843789 0.082906 255 125 0 92 7
-1.404610 -0.869700 -0.037094 255 125 0 92 7
-1.452291 -0.829831 0.116906 255 125 0 92 7
-1.374490 -0.848413 0.046906 255 125 0 92 7
-1.372339 -0.838647 -0.003094 255 125 0 92 7
-1.372277 -0.828436 0.056906 255 125 0 92 7
-1.372967 -0.850781 -0.035094 255 125 0 92 7
-1.362690 -0.812073 0.118906 255 125 0 92 7
-1.448303 -0.820455 0.106906 255 125 0 92 7
-1.367646 -0.884627 0.128906 255 125 0 92 7
-1.379880 -0.868789 0.090906 255 125 0 92 7
-1.424287 -0.875693 -0.081094 255 125 0 92 7
-1.456129 -0.833105 0.135738 255 125 0 92 7
-1.349288 -0.821055 0.121734 255 125 0 92 7
-1.387018 -0.806171 0.020906 255 125 0 92 7
-1.366970 -0.856145 0.052906 255 125 0 92 7
-1.421283 -0.871181 0.087116 255 125 0 92 7
-1.374207 -0.828026 0.034906 255 125 0 92 7
-1.403189 -0.897519 0.134906 255 125 0 92 7
-1.364712 -0.850491 -0.063094 255 125 0 92 7
-1.385840 -0.800632 -0.033094 255 125 0 92 7
-1.358115 -0.868251 0.114906 255 125 0 92 7
-1.373192 -0.798841 0.100906 255 125 0 92 7
-1.430274 -0.871315 0.104906 255 125 0 92 7
-1.387100 -0.806556 0.032906 255 125 0 92 7
-1.450013 -0.813958 0.135580 255 125 0 92 7
-1.413278 -0.775802 0.128906 255 125 0 92 7
-1.409352 -0.872764 0.084906 255 125 0 92 7
-1.395114 -0.863499 0.012906 255 125 0 92 7
-1.391536 -0.798572 -0.045094 255 125 0 92 7
-1.368850 -0.816896 -0.016393 255 125 0 92 7
-1.431104 -0.869094 -0.063094 255 125 0 92 7
-1.430223 -0.855520 -0.031094 255 125 0 92 7
-1.366400 -0.863087 -0.039094 255 125 0 92 7
-1.360487 -0.859568 0.120906 255 125 0 92 7
-1.374124 -0.803222 -0.049094 255 125 0 92 7
-1.373969 -0.802495 -0.075094 255 125 0 92 7
-1.427917 -0.867727 0.092906 255 125 0 92 7
-1.388112 -0.869032 -0.051094 255 125 0 92 7
-1.411086 -0.871305 0.043975 255 125 0 92 7
-1.401154 -0.877505 0.098906 255 125 0 92 7
-1.371820 -0.859725 0.032906 255 125 0 92 7
-1.366071 -0.866560 -0.083094 255 125 0 92 7
-1.359778 -0.812691 -0.062452 255 125 0 92 7
-1.387438 -0.880420 0.116906 255 125 0 92 7
-1.380372 -0.861475 -0.036092 255 125 0 92 7
-1.350137 -0.837232 -0.073094 255 125 0 92 7
-1.390930 -0.776480 0.128906 255 125 0 92 7
-1.378838 -0.815780 0.056906 255 125 0 92 7
-1.420094 -0.788628 0.100906 255 125 0 92 7
-1.354158 -0.832287 0.098906 255 125 0 92 7
-1.370513 -0.872814 0.118906 255 125 0 92 7
-1.390870 -0.805051 0.054906 255 125 0 92 7
-1.363153 -0.799706 0.133817 255 125 0 92 7
-1.376704 -0.878612 -0.059094 255 125 0 92 7
-1.368963 -0.818918 -0.003094 255 125 0 92 7
-1.422590 -0.864770 0.062906 255 125 0 92 7
-1.379064 -0.792234 0.106906 255 125 0 92 7
-1.363529 -0.818028 -0.041094 255 125 0 92 7
-1.396518 -0.783531 0.134906 255 125 0 92 7
-1.380248 -0.803178 0.090906 255 125 0 92 7
-1.403526 -0.797258 -0.044182 255 125 0 92 7
-1.366216 -0.819501 0.094906 255 125 0 92 7
-1.364166 -0.838339 -0.059094 255 125 0 92 7
-1.414459 -0.790981 0.122906 255 125 0 92 7
-1.363342 -0.800596 -0.079094 255 125 0 92 7
-1.396574 -0.879986 0.084906 255 125 0 92 7
-1.392792 -0.804473 -0.023094 255 125 0 92 7
-1.378979 -0.874168 0.076906 255 125 0 92 7
-1.387789 -0.809795 -0.009094 255 125 0 92 7
-1.448373 -0.830664 0.106906 255 125 0 92 7
-1.421669 -0.863377 -0.013094 255 125 0 92 7
-1.375617 -0.810247 -0.045094 255 125 0 92 7
-1.374440 -0.809574 0.090906 255 125 0 92 7
-1.402508 -0.792468 -0.057094 255 125 0 92 7
-1.441998 -0.853203 0.120906 255 125 0 92 7
-1.399906 -0.789849 0.098230 255 125 0 92 7
-1.434657 -0.809043 0.094071 255 125 0 92 7
-1.389050 -0.806111 0.004906 255 125 0 92 7
-1.349232 -0.833335 -0.083094 255 125 0 92 7
-1.353529 -0.821772 -0.069094 255 125 0 92 7
-1.358723 -0.841541 -0.069094 255 125 0 92 7
-1.377342 -0.876081 -0.049094 255 125 0 92 7
-1.360904 -0.866088 0.102906 255 125 0 92 7
-1.376807 -0.883186 -0.083094 255 125 0 92 7
-1.406606 -0.792514 0.109993 255 125 0 92 7
-1.384448 -0.890272 0.120906 255 125 0 92 7
-1.436101 -0.863942 0.108431 255 125 0 92 7
-1.390541 -0.793885 -0.058569 255 125 0 92 7
-1.375880 -0.869202 -0.029094 255 125 0 92 7
-1.383426 -0.875850 -0.037094 255 125 0 92 7
-1.366024 -0.811363 -0.049094 255 125 0 92 7
-1.390173 -0.878736 0.078906 255 125 0 92 7
-1.431499 -0.799491 0.098906 255 125 0 92 7
-1.380415 -0.818528 0.022906 255 125 0 92 7
-1.371877 -0.865326 0.096906 255 125 0 92 7
-1.426708 -0.800509 0.118499 255 125 0 92 7
-1.382970 -0.864078 0.064906 255 125 0 92 7
-1.421133 -0.793516 0.123850 255 125 0 92 7
-1.402061 -0.886559 0.124906 255 125 0 92 7
-1.412255 -0.886421 -0.075094 255 125 0 92 7
-1.385699 -0.799963 -0.055094 255 125 0 92 7
-1.417073 -0.865942 -0.035094 255 125 0 92 7
-1.373923 -0.831136 -0.003094 255 125 0 92 7
-1.382332 -0.812982 -0.005094 255 125 0 92 7
-1.429100 -0.787733 0.116906 255 125 0 92 7
-1.436137 -0.883348 0.128906 255 125 0 92 7
-1.445514 -0.831271 0.125986 255 125 0 92 7
-1.393420 -0.894007 0.128906 255 125 0 92 7
-1.385196 -0.787980 0.104906 255 125 0 92 7
-1.366282 -0.848113 0.094906 255 125 0 92 7
-1.374779 -0.840173 0.024906 255 125 0 92 7
-1.367645 -0.864181 0.110906 255 125 0 92 7
-1.389236 -0.864707 0.060906 255 125 0 92 7
-1.413127 -0.861671 0.024906 255 125 0 92 7
-1.387218 -0.787872 -0.077094 255 125 0 92 7
-1.395111 -0.863482 0.004906 255 125 0 92 7
-1.441715 -0.870928 0.136906 255 125 0 92 7
-1.351892 -0.818457 -0.077094 255 125 0 92 7
-1.375258 -0.827803 0.003924 255 125 0 92 7
-1.387753 -0.790387 0.115874 255 125 0 92 7
-1.426620 -0.882315 -0.081094 255 125 0 92 7
-1.374327 -0.794565 -0.071094 255 125 0 92 7
-1.424459 -0.882775 0.128906 255 125 0 92 7
-1.398458 -0.783033 0.106906 255 125 0 92 7
-1.354278 -0.844530 -0.088050 255 125 0 92 7
-1.397240 -0.796549 -0.054081 255 125 0 92 7
-1.379343 -0.856633 -0.015094 255 125 0 92 7
-1.417732 -0.892952 0.132906 255 125 0 92 7
-1.388462 -0.784103 0.109958 255 125 0 92 7
-1.357291 -0.849082 -0.079094 255 125 0 92 7
-1.443191 -0.801095 0.135591 255 125 0 92 7
-1.420919 -0.877393 -0.061094 255 125 0 92 7
-1.390692 -0.871550 0.021626 255 125 0 92 7
-1.422873 -0.859421 0.020906 255 125 0 92 7
-1.388928 -0.871925 0.006906 255 125 0 92 7
-1.395627 -0.875528 0.056906 255 125 0 92 7
-1.413580 -0.883042 -0.086021 255 125 0 92 7
-1.416121 -0.875752 0.084906 255 125 0 92 7
-1.359376 -0.820419 0.092906 255 125 0 92 7
-1.354307 -0.819988 0.108906 255 125 0 92 7
-1.359267 -0.868006 -0.083440 255 125 0 92 7
-1.351991 -0.814532 0.134906 255 125 0 92 7
-1.370308 -0.794896 0.130906 255 125 0 92 7
-1.410897 -0.880037 0.090906 255 125 0 92 7
-1.397336 -0.787376 -0.075094 255 125 0 92 7
-1.424731 -0.781588 0.128906 255 125 0 92 7
-1.374290 -0.794389 0.122906 255 125 0 92 7
-1.362722 -0.874642 0.134906 255 125 0 92 7
-1.365607 -0.830493 0.030906 255 125 0 92 7
-1.385164 -0.874407 -0.025094 255 125 0 92 7
-1.369683 -0.820809 0.022158 255 125 0 92 7
-1.360928 -0.869698 -0.073094 255 125 0 92 7
-1.411086 -0.871305 -0.048061 255 125 0 92 7
-1.421101 -0.879943 0.108906 255 125 0 92 7
-1.372853 -0.850806 0.054906 255 125 0 92 7
-1.402674 -0.889450 -0.085926 255 125 0 92 7
-1.395852 -0.876587 -0.066050 255 125 0 92 7
-1.445406 -0.823116 0.128906 255 125 0 92 7
-1.379450 -0.866757 0.014906 255 125 0 92 7
-1.372220 -0.871387 -0.045094 255 125 0 92 7
-1.365307 -0.848320 -0.004400 255 125 0 92 7
-1.420674 -0.868312 -0.053094 255 125 0 92 7
-1.370505 -0.810411 -0.065094 255 125 0 92 7
-1.360765 -0.861554 0.094906 255 125 0 92 7
-1.372819 -0.840589 -0.013094 255 125 0 92 7
-1.433635 -0.876735 0.112906 255 125 0 92 7
-1.425461 -0.794640 0.129057 255 125 0 92 7
-1.365835 -0.802712 0.108906 255 125 0 92 7
-1.369199 -0.833180 -0.037094 255 125 0 92 7
-1.404316 -0.877934 -0.069094 255 125 0 92 7
-1.356415 -0.809316 -0.081094 255 125 0 92 7
-1.359628 -0.824991 -0.043094 255 125 0 92 7
-1.392148 -0.878399 0.106906 255 125 0 92 7
-1.369021 -0.851620 -0.051094 255 125 0 92 7
-1.380078 -0.855404 -0.001094 255 125 0 92 7
-1.372427 -0.838628 0.048906 255 125 0 92 7
-1.441884 -0.871902 0.116906 255 125 0 92 7
-1.452073 -0.809430 0.128906 255 125 0 92 7
-1.420270 -0.799082 0.108906 255 125 0 92 7
-1.451024 -0.852592 0.116906 255 125 0 92 7
-1.412729 -0.795302 0.094906 255 125 0 92 7
-1.372812 -0.806671 0.078906 255 125 0 92 7
-1.383089 -0.874257 -0.071094 255 125 0 92 7
-1.364670 -0.828009 0.050906 255 125 0 92 7
-1.351336 -0.859468 0.120906 255 125 0 92 7
-1.361394 -0.849152 0.107901 255 125 0 92 7
-1.396578 -0.889622 -0.075094 255 125 0 92 7
-1.370673 -0.859447 -0.005094 255 125 0 92 7
-1.357249 -0.833675 -0.047094 255 125 0 92 7
-1.379193 -0.812654 0.068906 255 125 0 92 7
-1.375914 -0.869360 0.066906 255 125 0 92 7
-1.409650 -0.864548 0.032906 255 125 0 92 7
-1.388593 -0.775107 0.134906 255 125 0 92 7
-1.415796 -0.883840 0.120906 255 125 0 92 7
-1.379563 -0.867293 0.002906 255 125 0 92 7
-1.365814 -0.879564 0.120906 255 125 0 92 7
-1.384964 -0.786891 0.128199 255 125 0 92 7
-1.371041 -0.875297 -0.061094 255 125 0 92 7
-1.383301 -0.779065 0.135616 255 125 0 92 7
-1.375957 -0.811849 -0.007094 255 125 0 92 7
-1.351130 -0.845199 -0.073094 255 125 0 92 7
-1.379851 -0.801307 -0.045094 255 125 0 92 7
-1.381398 -0.871481 0.096906 255 125 0 92 7
-1.431869 -0.863266 -0.053094 255 125 0 92 7
-1.411618 -0.864189 0.016906 255 125 0 92 7
-1.386842 -0.868279 0.076906 255 125 0 92 7
-1.398442 -0.879153 0.104906 255 125 0 92 7
-1.397656 -0.798506 -0.034600 255 125 0 92 7
-1.430473 -0.871273 0.116906 255 125 0 92 7
-1.441602 -0.832103 0.102468 255 125 0 92 7
-1.411606 -0.864127 -0.005094 255 125 0 92 7
-1.378724 -0.867960 0.042906 255 125 0 92 7
-1.372513 -0.882221 0.114906 255 125 0 92 7
-1.402868 -0.885319 -0.065094 255 125 0 92 7
-1.372669 -0.825243 -0.025094 255 125 0 92 7
-1.355771 -0.870794 0.135464 255 125 0 92 7
-1.389812 -0.896273 0.136674 255 125 0 92 7
-1.381730 -0.790908 -0.073094 255 125 0 92 7
-1.362741 -0.865223 -0.059094 255 125 0 92 7
-1.413340 -0.872288 -0.027094 255 125 0 92 7
-1.412333 -0.877173 -0.070077 255 125 0 92 7
-1.380016 -0.782846 0.122906 255 125 0 92 7
-1.435551 -0.864059 0.114906 255 125 0 92 7
-1.440480 -0.863012 0.126906 255 125 0 92 7
-1.417949 -0.886203 0.132906 255 125 0 92 7
-1.375088 -0.846241 0.037904 255 125 0 92 7
-1.355643 -0.842196 -0.055094 255 125 0 92 7
-1.405346 -0.868435 -0.029094 255 125 0 92 7
-1.371800 -0.850013 0.068906 255 125 0 92 7
-1.365403 -0.829534 -0.005094 255 125 0 92 7
-1.422532 -0.857814 0.036906 255 125 0 92 7
-1.386952 -0.805863 -0.027094 255 125 0 92 7
-1.442733 -0.844131 0.118906 255 125 0 92 7
-1.353880 -0.828257 0.128906 255 125 0 92 7
-1.359288 -0.847555 0.080906 255 125 0 92 7
-1.379544 -0.809482 0.010906 255 125 0 92 7
-1.361594 -0.849109 0.070906 255 125 0 92 7
-1.383949 -0.887927 -0.077094 255 125 0 92 7
-1.362082 -0.828559 0.104906 255 125 0 92 7
-1.407589 -0.874092 -0.058081 255 125 0 92 7
-1.351393 -0.826741 -0.073094 255 125 0 92 7
-1.373009 -0.807602 -0.035094 255 125 0 92 7
-1.441063 -0.819949 0.098072 255 125 0 92 7
-1.364326 -0.860796 0.080906 255 125 0 92 7
-1.376381 -0.871563 -0.035094 255 125 0 92 7
-1.366833 -0.874743 0.106906 255 125 0 92 7
-1.359067 -0.804663 0.120906 255 125 0 92 7
-1.365892 -0.831838 0.085816 255 125 0 92 7
-1.382158 -0.879498 -0.086036 255 125 0 92 7
-1.414011 -0.865827 0.050906 255 125 0 92 7
-1.429401 -0.861277 -0.044166 255 125 0 92 7
-1.368566 -0.810823 0.104906 255 125 0 92 7
-1.358913 -0.855814 -0.055094 255 125 0 92 7
-1.441210 -0.824008 0.116906 255 125 0 92 7
-1.361196 -0.841015 0.068906 255 125 0 92 7
-1.408885 -0.870565 0.028906 255 125 0 92 7
-1.412852 -0.793034 0.114906 255 125 0 92 7
-1.357944 -0.823304 -0.054254 255 125 0 92 7
-1.375107 -0.878953 0.100906 255 125 0 92 7
-1.434206 -0.817318 0.104906 255 125 0 92 7
-1.387410 -0.798400 0.082906 255 125 0 92 7
-1.371823 -0.869427 0.080906 255 125 0 92 7
-1.370740 -0.816168 0.032906 255 125 0 92 7
-1.390937 -0.891945 0.122438 255 125 0 92 7
-1.415669 -0.798766 0.100906 255 125 0 92 7
-1.362372 -0.844854 -0.023094 255 125 0 92 7
-1.378571 -0.795285 -0.081094 255 125 0 92 7
-1.363323 -0.836474 -0.015094 255 125 0 92 7
-1.357456 -0.847944 -0.051094 255 125 0 92 7
-1.417212 -0.880888 -0.065094 255 125 0 92 7
-1.363105 -0.828341 -0.023283 255 125 0 92 7
-1.373795 -0.862873 0.002906 255 125 0 92 7
-1.403467 -0.795226 0.098906 255 125 0 92 7
-1.381721 -0.858203 0.036906 255 125 0 92 7
-1.396457 -0.879438 -0.039094 255 125 0 92 7
-1.389740 -0.799737 0.070906 255 125 0 92 7
-1.405073 -0.871878 0.014906 255 125 0 92 7
-1.395206 -0.883174 0.094906 255 125 0 92 7
-1.365576 -0.844174 0.018906 255 125 0 92 7
-1.384779 -0.805261 0.042906 255 125 0 92 7
-1.405308 -0.872979 -0.009094 255 125 0 92 7
-1.415415 -0.872429 -0.033387 255 125 0 92 7
-1.387393 -0.875271 0.064906 255 125 0 92 7
-1.366829 -0.826627 0.014906 255 125 0 92 7
-1.366040 -0.876790 -0.077094 255 125 0 92 7
-1.409401 -0.872998 -0.019094 255 125 0 92 7
-1.364940 -0.842264 0.038906 255 125 0 92 7
-1.421959 -0.874365 0.100906 255 125 0 92 7
-1.437180 -0.865758 -0.075094 255 125 0 92 7
-1.377866 -0.811212 0.022906 255 125 0 92 7
-1.391614 -0.866273 -0.027094 255 125 0 92 7
-1.381188 -0.807603 0.034906 255 125 0 92 7
-1.394080 -0.791300 0.110906 255 125 0 92 7
-1.388858 -0.882163 -0.086066 255 125 0 92 7
-1.408926 -0.870764 0.074906 255 125 0 92 7
-1.380429 -0.818525 0.034906 255 125 0 92 7
-1.433799 -0.881964 0.136906 255 125 0 92 7
-1.406465 -0.878421 0.078637 255 125 0 92 7
-1.385633 -0.862402 -0.017094 255 125 0 92 7
-1.368381 -0.839489 0.064906 255 125 0 92 7
-1.410607 -0.782474 0.108906 255 125 0 92 7
-1.456537 -0.820750 0.128906 255 125 0 92 7
-1.351172 -0.826788 0.110906 255 125 0 92 7
-1.397095 -0.872819 0.018906 255 125 0 92 7
-1.377259 -0.851914 0.010906 255 125 0 92 7
-1.407259 -0.862921 0.008906 255 125 0 92 7
-1.373493 -0.834312 0.010906 255 125 0 92 7
-1.369437 -0.800414 -0.086079 255 125 0 92 7
-1.441478 -0.807593 0.102906 255 125 0 92 7
-1.370595 -0.815480 -0.055094 255 125 0 92 7
-1.396051 -0.877529 0.072906 255 125 0 92 7
-1.354780 -0.837274 -0.081094 255 125 0 92 7
-1.387825 -0.877307 -0.075094 255 125 0 92 7
-1.370470 -0.839044 -0.033094 255 125 0 92 7
-1.454253 -0.829414 0.122906 255 125 0 92 7
-1.452410 -0.840029 0.116906 255 125 0 92 7
-1.369752 -0.845330 -0.037094 255 125 0 92 7
-1.372392 -0.867261 0.106906 255 125 0 92 7
-1.358730 -0.855852 -0.086078 255 125 0 92 7
-1.374871 -0.850376 -0.009094 255 125 0 92 7
-1.372253 -0.823284 0.064906 255 125 0 92 7
-1.365770 -0.821641 -0.064091 255 125 0 92 7
-1.401021 -0.867310 0.054906 255 125 0 92 7
-1.384617 -0.871828 -0.065094 255 125 0 92 7
-1.413816 -0.787955 0.096906 255 125 0 92 7
-1.380439 -0.784838 0.116906 255 125 0 92 7
-1.347202 -0.856258 0.128906 255 125 0 92 7
-1.375955 -0.874682 0.112906 255 125 0 92 7
-1.360682 -0.830901 -0.035094 255 125 0 92 7
-1.343724 -0.840639 0.130906 255 125 0 92 7
-1.376458 -0.862307 -0.050087 255 125 0 92 7
-1.388496 -0.872016 0.032906 255 125 0 92 7
-1.367253 -0.860175 0.068906 255 125 0 92 7
-1.395371 -0.882823 -0.055094 255 125 0 92 7
-1.365417 -0.810359 0.110906 255 125 0 92 7
-1.413600 -0.786938 0.131954 255 125 0 92 7
-1.365345 -0.805374 0.118906 255 125 0 92 7
-1.358179 -0.805167 0.134906 255 125 0 92 7
-1.405339 -0.882749 0.097581 255 125 0 92 7
-1.359556 -0.812738 0.102906 255 125 0 92 7
-1.370596 -0.815489 0.092906 255 125 0 92 7
-1.378776 -0.882825 -0.067094 255 125 0 92 7
-1.450675 -0.836309 0.136978 255 125 0 92 7
-1.354863 -0.828048 -0.080051 255 125 0 92 7
-1.410487 -0.868490 0.062906 255 125 0 92 7
-1.370656 -0.859451 0.088906 255 125 0 92 7
-1.376874 -0.821325 0.012906 255 125 0 92 7
-1.376940 -0.797235 0.110906 255 125 0 92 7
-1.380101 -0.869712 0.052906 255 125 0 92 7
-1.379591 -0.882088 0.126906 255 125 0 92 7
-1.412873 -0.889327 0.120390 255 125 0 92 7
-1.373208 -0.862998 0.044906 255 125 0 92 7
-1.441801 -0.881133 0.135872 255 125 0 92 7
-1.374707 -0.809518 -0.023094 255 125 0 92 7
-1.370610 -0.857416 0.018906 255 125 0 92 7
-1.412560 -0.878238 0.104906 255 125 0 92 7
-1.420027 -0.863270 0.040906 255 125 0 92 7
-1.368068 -0.825242 0.008906 255 125 0 92 7
-1.397245 -0.796569 -0.047094 255 125 0 92 7
-1.366643 -0.852125 0.046906 255 125 0 92 7
-1.387336 -0.788431 0.121748 255 125 0 92 7
-1.371382 -0.861342 0.050906 255 125 0 92 7
-1.369858 -0.857576 0.038906 255 125 0 92 7
-1.430326 -0.793606 0.106906 255 125 0 92 7
-1.379122 -0.807498 -0.015094 255 125 0 92 7
-1.377266 -0.851912 0.032906 255 125 0 92 7
-1.371895 -0.883724 0.134906 255 125 0 92 7
-1.404500 -0.864525 0.020906 255 125 0 92 7
-1.377232 -0.851919 0.018906 255 125 0 92 7
-1.408705 -0.882034 -0.059094 255 125 0 92 7
-1.397392 -0.874215 -0.058083 255 125 0 92 7
-1.356699 -0.841971 0.114906 255 125 0 92 7
-1.415708 -0.864188 -0.024083 255 125 0 92 7
-1.367340 -0.843799 -0.045094 255 125 0 92 7
-1.360979 -0.847195 -0.068076 255 125 0 92 7
-1.379940 -0.816584 0.016906 255 125 0 92 7
-1.410773 -0.873416 0.066906 255 125 0 92 7
-1.397945 -0.872053 0.080906 255 125 0 92 7
-1.377297 -0.818157 -0.017094 255 125 0 92 7
-1.452801 -0.817454 0.123926 255 125 0 92 7
-1.372925 -0.861014 0.010906 255 125 0 92 7
-1.377017 -0.860144 0.072906 255 125 0 92 7
-1.373264 -0.808798 0.096906 255 125 0 92 7
-1.369765 -0.806479 -0.045094 255 125 0 92 7
-1.447839 -0.861447 0.113908 255 125 0 92 7
-1.403425 -0.873739 0.026906 255 125 0 92 7
-1.390776 -0.862331 -0.005094 255 125 0 92 7
-1.379844 -0.868618 -0.003094 255 125 0 92 7
-1.440903 -0.790339 0.130906 255 125 0 92 7
-1.367604 -0.811028 -0.074061 255 125 0 92 7
-1.442679 -0.856411 0.106137 255 125 0 92 7
-1.374625 -0.872921 -0.082070 255 125 0 92 7
-1.364891 -0.846364 -0.058070 255 125 0 92 7
-1.385329 -0.865560 -0.039094 255 125 0 92 7
-1.386240 -0.860228 0.013892 255 125 0 92 7
-1.414568 -0.878070 -0.053094 255 125 0 92 7
-1.373301 -0.824129 -0.019094 255 125 0 92 7
-1.359580 -0.794331 0.134906 255 125 0 92 7
-1.374738 -0.868807 -0.073094 255 125 0 92 7
-1.439065 -0.826508 0.108906 255 125 0 92 7
-1.422806 -0.878345 -0.069094 255 125 0 92 7
-1.413748 -0.778013 0.134906 255 125 0 92 7
-1.376965 -0.855069 -0.023094 255 125 0 92 7
-1.409400 -0.890065 -0.079094 255 125 0 92 7
-1.384408 -0.883109 0.100906 255 125 0 92 7
-1.378438 -0.818949 -0.005094 255 125 0 92 7
-1.386245 -0.812151 0.012906 255 125 0 92 7
-1.269720 -0.648724 -0.069094 0 255 255 77 8
-1.288457 -0.573347 -0.031094 0 255 255 77 8
-1.322648 -0.628383 -0.038031 0 255 255 77 8
-1.238079 -0.607510 -0.037094 0 255 255 77 8
-1.275697 -0.638363 -0.019956 0 255 255 77 8
-1.253191 -0.609441 -0.077094 0 255 255 77 8
-1.297859 -0.656060 -0.045094 0 255 255 77 8
-1.299634 -0.606694 -0.018505 0 255 255 77 8
-1.247812 -0.642245 -0.041094 0 255 255 77 8
-1.254477 -0.577010 -0.043094 0 255 255 77 8
-1.266963 -0.597281 -0.018746 0 255 255 77 8
-1.253932 -0.622543 -0.021467 0 255 255 77 8
-1.239821 -0.623497 -0.058600 0 255 255 77 8
-1.271485 -0.657028 -0.041094 0 255 255 77 8
-1.302376 -0.638826 -0.024300 0 255 255 77 8
-1.287961 -0.633711 -0.081094 0 255 255 77 8
-1.240700 -0.598774 -0.058049 0 255 255 77 8
-1.296420 -0.649282 -0.067094 0 255 255 77 8
-1.254514 -0.632643 -0.073094 0 255 255 77 8
-1.278948 -0.615181 -0.023779 0 255 255 77 8
-1.305470 -0.587052 -0.025094 0 255 255 77 8
-1.318705 -0.609835 -0.029094 0 255 255 77 8
-1.249337 -0.591311 -0.029094 0 255 255 77 8
-1.269090 -0.578427 -0.028067 0 255 255 77 8
-1.286110 -0.591166 -0.019836 0 255 255 77 8
-1.313821 -0.644572 -0.045862 0 255 255 77 8
-1.286144 -0.644321 -0.035094 0 255 255 77 8
-1.281873 -0.657802 -0.057094 0 255 255 77 8
-1.252880 -0.645258 -0.059094 0 255 255 77 8
-1.248063 -0.623791 -0.040052 0 255 255 77 8
-1.260878 -0.645602 -0.028260 0 255 255 77 8
-1.293286 -0.624401 -0.019094 0 255 255 77 8
-1.311565 -0.624346 -0.023094 0 255 255 77 8
-1.253948 -0.608226 -0.031094 0 255 255 77 8
-1.269021 -0.631603 -0.081094 0 255 255 77 8
-1.242949 -0.590117 -0.044122 0 255 255 77 8
-1.273711 -0.571310 -0.042043 0 255 255 77 8
-1.268125 -0.646107 -0.053094 0 255 255 77 8
-1.283103 -0.605872 -0.011094 0 255 255 77 8
-1.265791 -0.630245 -0.028060 0 255 255 77 8
-1.264005 -0.612222 -0.018740 0 255 255 77 8
-1.301045 -0.642190 -0.039094 0 255 255 77 8
-1.248745 -0.633868 -0.029094 0 255 255 77 8
-1.243407 -0.611506 -0.051094 0 255 255 77 8
-1.283385 -0.645675 -0.073094 0 255 255 77 8
-1.249945 -0.632648 -0.053094 0 255 255 77 8
-1.243139 -0.610524 -0.067094 0 255 255 77 8
-1.271606 -0.643322 -0.037094 0 255 255 77 8
-1.314529 -0.638288 -0.031263 0 255 255 77 8
-1.258095 -0.651747 -0.045094 0 255 255 77 8
-1.259030 -0.621459 -0.081094 0 255 255 77 8
-1.310540 -0.600286 -0.023641 0 255 255 77 8
-1.286649 -0.603320 -0.026022 0 255 255 77 8
-1.288682 -0.641737 -0.021688 0 255 255 77 8
-1.285820 -0.657133 -0.039094 0 255 255 77 8
-1.243362 -0.616610 -0.029094 0 255 255 77 8
-1.262304 -0.590093 -0.029094 0 255 255 77 8
-1.279944 -0.648731 -0.047094 0 255 255 77 8
-1.284230 -0.630415 -0.026081 0 255 255 77 8
-1.326235 -0.616404 -0.041094 0 255 255 77 8
-1.276134 -0.650038 -0.027094 0 255 255 77 8
-1.248137 -0.621730 -0.071094 0 255 255 77 8
-1.270413 -0.623129 -0.018449 0 255 255 77 8
-1.259214 -0.637777 -0.038058 0 255 255 77 8
-1.239250 -0.629752 -0.047094 0 255 255 77 8
-1.296305 -0.648746 -0.029094 0 255 255 77 8
-1.274426 -0.589561 -0.025094 0 255 255 77 8
-1.255227 -0.599777 -0.022047 0 255 255 77 8
-1.293057 -0.614226 -0.026037 0 255 255 77 8
-1.305962 -0.650332 -0.053094 0 255 255 77 8
-1.293549 -0.655015 -0.056586 0 255 255 77 8
-1.265291 -0.637511 -0.071094 0 255 255 77 8
-1.297337 -0.595881 -0.023094 0 255 255 77 8
-1.246985 -0.599483 -0.038007 0 255 255 77 8
-1.237392 -0.617879 -0.043094 0 255 255 77 8
-1.309308 -0.612817 -0.021094 0 255 255 77 8
-1.294269 -0.581450 -0.025094 0 255 255 77 8
-1.281660 -0.579844 -0.024347 0 255 255 77 8
-1.246222 -0.632360 -0.065094 0 255 255 77 8
-1.238297 -0.601330 -0.047094 0 255 255 77 8
-1.279732 -0.647729 -0.062132 0 255 255 77 8
-1.274497 -0.603859 -0.024053 0 255 255 77 8
-1.257893 -0.641181 -0.049094 0 255 255 77 8
-1.259121 -0.579623 -0.033094 0 255 255 77 8
-1.256304 -0.624083 -0.032080 0 255 255 77 8
-1.310323 -0.647360 -0.035794 0 255 255 77 8
-1.271019 -0.654833 -0.059094 0 255 255 77 8
-1.252517 -0.587029 -0.039094 0 255 255 77 8
-1.302253 -0.628629 -0.028057 0 255 255 77 8
-1.277653 -0.637947 -0.078058 0 255 255 77 8
-1.317071 -0.621390 -0.032072 0 255 255 77 8
-1.243905 -0.604227 -0.028964 0 255 255 77 8
-1.253495 -0.610873 -0.021094 0 255 255 77 8
-1.278311 -0.573705 -0.033094 0 255 255 77 8
-1.245691 -0.622250 -0.050095 0 255 255 77 8
-1.275280 -0.636407 -0.030093 0 255 255 77 8
-1.257564 -0.634039 -0.023094 0 255 255 77 8
-1.264374 -0.642814 -0.062110 0 255 255 77 8
-1.313920 -0.635422 -0.041094 0 255 255 77 8
-1.264298 -0.603981 -0.026035 0 255 255 77 8
-1.302670 -0.620362 -0.019094 0 255 255 77 8
-1.263712 -0.620463 -0.026061 0 255 255 77 8
-1.293303 -0.634621 -0.028048 0 255 255 77 8
-1.263931 -0.573390 -0.043916 0 255 255 77 8
-1.260049 -0.651912 -0.055094 0 255 255 77 8
-1.255817 -0.636454 -0.063094 0 255 255 77 8
-1.247524 -0.611636 -0.038083 0 255 255 77 8
-1.267620 -0.652348 -0.033094 0 255 255 77 8
-1.242736 -0.633101 -0.037094 0 255 255 77 8
-1.247337 -0.642347 -0.051094 0 255 255 77 8
-1.290344 -0.649562 -0.044019 0 255 255 77 8
-1.279906 -0.625201 -0.019094 0 255 255 77 8
-1.251894 -0.632199 -0.043094 0 255 255 77 8
-1.286356 -0.611561 -0.018637 0 255 255 77 8
-1.284892 -0.652766 -0.030486 0 255 255 77 8
-1.246814 -0.617921 -0.062101 0 255 255 77 8
-1.252882 -0.643214 -0.033094 0 255 255 77 8
-1.300977 -0.651487 -0.037094 0 255 255 77 8
-1.238420 -0.611527 -0.059094 0 255 255 77 8
-1.279272 -0.597466 -0.019094 0 255 255 77 8
-1.286943 -0.652800 -0.065094 0 255 255 77 8
-1.268703 -0.643939 -0.023540 0 255 255 77 8
-1.305872 -0.636038 -0.034083 0 255 255 77 8
-1.304455 -0.648608 -0.062084 0 255 255 77 8
-1.264599 -0.643867 -0.043094 0 255 255 77 8
-1.255764 -0.597617 -0.031094 0 255 255 77 8
-1.240340 -0.623387 -0.035094 0 255 255 77 8
-1.267016 -0.656566 -0.049094 0 255 255 77 8
-1.311630 -0.628680 -0.031094 0 255 255 77 8
-1.266623 -0.634157 -0.019889 0 255 255 77 8
-1.290931 -0.633080 -0.019632 0 255 255 77 8
-1.286479 -0.621758 -0.024039 0 255 255 77 8
-1.268008 -0.573332 -0.035094 0 255 255 77 8
-1.275573 -0.628166 -0.026082 0 255 255 77 8
-1.290147 -0.600532 -0.018532 0 255 255 77 8
-1.242215 -0.633211 -0.057094 0 255 255 77 8
-1.275412 -0.642514 -0.071094 0 255 255 77 8
-1.266515 -0.585554 -0.023094 0 255 255 77 8
-1.287086 -0.653472 -0.051094 0 255 255 77 8
-1.243366 -0.592073 -0.035584 0 255 255 77 8
-1.275718 -0.657705 -0.051094 0 255 255 77 8
-1.261463 -0.629120 -0.077996 0 255 255 77 8
-1.306928 -0.650629 -0.043094 0 255 255 77 8
-1.277329 -0.655666 -0.035094 0 255 255 77 8
-1.284889 -0.638454 -0.029094 0 255 255 77 8
-1.300297 -0.629045 -0.019629 0 255 255 77 8
-1.316240 -0.617477 -0.024480 0 255 255 77 8
-1.294766 -0.641507 -0.033094 0 255 255 77 8
-1.257560 -0.615637 -0.029094 0 255 255 77 8
-1.246481 -0.624126 -0.027094 0 255 255 77 8
-1.237180 -0.609746 -0.045094 0 255 255 77 8
-1.293375 -0.654202 -0.035094 0 255 255 77 8
-1.305579 -0.644279 -0.029702 0 255 255 77 8
-1.259867 -0.650471 -0.037094 0 255 255 77 8
-1.272247 -0.612515 -0.019521 0 255 255 77 8
-1.261048 -0.627164 -0.020065 0 255 255 77 8
-1.237178 -0.619970 -0.051094 0 255 255 77 8
-1.253344 -0.648638 -0.051094 0 255 255 77 8
-1.248478 -0.625746 -0.060096 0 255 255 77 8
-1.266455 -0.638283 -0.033094 0 255 255 77 8
-1.281086 -0.644484 -0.023094 0 255 255 77 8
-1.300883 -0.612563 -0.024063 0 255 255 77 8
-1.311770 -0.591846 -0.027094 0 255 255 77 8
-1.275819 -0.648560 -0.054114 0 255 255 77 8
-1.279536 -0.646814 -0.039094 0 255 255 77 8
-1.242956 -0.637143 -0.045094 0 255 255 77 8
-1.294300 -0.605783 -0.025094 0 255 255 77 8
-1.308934 -0.633343 -0.025094 0 255 255 77 8
-1.247618 -0.613661 -0.073094 0 255 255 77 8
-1.285433 -0.611758 -0.027094 0 255 255 77 8
-1.268627 -0.605106 -0.018438 0 255 255 77 8
-1.280560 -0.613147 -0.013094 0 255 255 77 8
-1.274033 -0.630538 -0.018648 0 255 255 77 8
-1.255471 -0.620170 -0.074107 0 255 255 77 8
-1.317645 -0.600821 -0.027094 0 255 255 77 8
-1.302716 -0.601950 -0.024032 0 255 255 77 8
-1.283106 -0.634744 -0.019565 0 255 255 77 8
-1.272449 -0.647232 -0.045094 0 255 255 77 8
-1.271286 -0.646470 -0.061094 0 255 255 77 8
-1.322800 -0.616083 -0.033094 0 255 255 77 8
-1.268505 -0.594909 -0.026084 0 255 255 77 8
-1.245413 -0.616174 -0.045094 0 255 255 77 8
-1.258924 -0.631705 -0.033094 0 255 255 77 8
-1.257690 -0.592131 -0.023094 0 255 255 77 8
-1.258348 -0.643322 -0.067094 0 255 255 77 8
-1.256227 -0.585250 -0.028149 0 255 255 77 8
-1.295429 -0.615767 -0.018774 0 255 255 77 8
-1.319150 -0.631171 -0.031691 0 255 255 77 8
-1.240284 -0.596818 -0.040875 0 255 255 77 8
-1.282854 -0.604700 -0.019094 0 255 255 77 8
-1.275990 -0.582033 -0.029094 0 255 255 77 8
-1.260386 -0.604813 -0.019351 0 255 255 77 8
-1.264081 -0.651055 -0.061579 0 255 255 77 8
-1.265963 -0.611807 -0.026087 0 255 255 77 8
-1.251749 -0.627096 -0.067094 0 255 255 77 8
-1.238879 -0.615518 -0.035094 0 255 255 77 8
-1.315361 -0.642200 -0.038014 0 255 255 77 8
-1.247114 -0.638569 -0.059094 0 255 255 77 8
-1.248467 -0.606455 -0.071094 0 255 255 77 8
-1.250727 -0.617090 -0.034030 0 255 255 77 8
-1.278151 -0.649912 -0.069094 0 255 255 77 8
-1.289726 -0.646652 -0.069094 0 255 255 77 8
-1.269604 -0.638561 -0.077094 0 255 255 77 8
-1.253052 -0.647266 -0.039418 0 255 255 77 8
-1.255095 -0.637635 -0.055094 0 255 255 77 8
-1.238035 -0.605475 -0.053259 0 255 255 77 8
-1.252979 -0.594121 -0.037094 0 255 255 77 8
-1.297641 -0.587690 -0.023094 0 255 255 77 8
-1.312205 -0.608112 -0.025971 0 255 255 77 8
-1.305381 -0.595249 -0.022172 0 255 255 77 8
-1.247330 -0.610725 -0.025094 0 255 255 77 8
-1.258806 -0.587761 -0.035094 0 255 255 77 8
-1.261400 -0.643447 -0.055094 0 255 255 77 8
-1.285062 -0.586231 -0.025094 0 255 255 77 8
-1.258969 -0.617382 -0.019302 0 255 255 77 8
-1.287972 -0.648022 -0.025172 0 255 255 77 8
-1.278702 -0.642887 -0.033094 0 255 255 77 8
-1.248941 -0.599067 -0.025516 0 255 255 77 8
-1.279411 -0.588501 -0.019991 0 255 255 77 8
-1.273910 -0.620341 -0.024032 0 255 255 77 8
-1.264946 -0.583397 -0.031094 0 255 255 77 8
-1.247061 -0.638316 -0.034953 0 255 255 77 8
-1.243593 -0.624740 -0.065094 0 255 255 77 8
-1.279855 -0.657926 -0.042720 0 255 255 77 8
-1.287945 -0.580553 -0.028024 0 255 255 77 8
-1.264869 -0.654764 -0.041094 0 255 255 77 8
-1.248771 -0.617505 -0.024209 0 255 255 77 8
-1.299252 -0.652989 -0.053094 0 255 255 77 8
-1.293649 -0.645872 -0.039094 0 255 255 77 8
-1.260849 -0.578134 -0.039841 0 255 255 77 8
-1.262852 -0.639048 -0.023094 0 255 255 77 8
-1.253153 -0.580400 -0.037094 0 255 255 77 8
-1.296091 -0.638117 -0.021417 0 255 255 77 8
-1.308044 -0.641711 -0.039094 0 255 255 77 8
-1.241077 -0.610168 -0.031094 0 255 255 77 8
-1.255440 -0.639258 -0.027094 0 255 255 77 8
-1.283340 -0.651051 -0.057094 0 255 255 77 8
-1.272002 -0.592121 -0.019155 0 255 255 77 8
-1.253222 -0.628827 -0.036043 0 255 255 77 8
-1.305134 -0.622943 -0.025094 0 255 255 77 8
-1.289315 -0.596619 -0.024072 0 255 255 77 8
-1.292063 -0.657642 -0.049094 0 255 255 77 8
-1.284343 -0.638570 -0.077094 0 255 255 77 8
-1.251729 -0.602564 -0.034085 0 255 255 77 8
-1.299799 -0.636328 -0.031094 0 255 255 77 8
-1.247848 -0.627925 -0.047094 0 255 255 77 8
-1.291049 -0.628965 -0.025094 0 255 255 77 8
-1.298218 -0.619263 -0.024049 0 255 255 77 8
-1.244596 -0.597867 -0.031094 0 255 255 77 8
-1.299160 -0.652559 -0.061094 0 255 255 77 8
-1.291627 -0.607500 -0.019094 0 255 255 77 8
-1.251266 -0.629243 -0.025007 0 255 255 77 8
-1.243769 -0.618569 -0.039094 0 255 255 77 8
-1.260755 -0.635405 -0.075500 0 255 255 77 8
-1.241733 -0.603631 -0.041094 0 255 255 77 8
-1.238743 -0.625771 -0.041094 0 255 255 77 8
-1.264143 -0.591746 -0.021094 0 255 255 77 8
-1.258013 -0.603273 -0.028008 0 255 255 77 8
-1.300760 -0.650465 -0.047094 0 255 255 77 8
-1.277066 -0.654429 -0.061609 0 255 255 77 8
-1.321106 -0.630755 -0.043947 0 255 255 77 8
-1.319983 -0.635084 -0.038654 0 255 255 77 8
-1.250220 -0.585841 -0.033094 0 255 255 77 8
-1.323357 -0.622099 -0.039633 0 255 255 77 8
-1.285770 -0.628043 -0.018819 0 255 255 77 8
-1.250943 -0.604776 -0.023094 0 255 255 77 8
-1.307998 -0.617184 -0.026083 0 255 255 77 8
-1.254762 -0.626455 -0.075622 0 255 255 77 8
-1.243758 -0.618571 -0.055094 0 255 255 77 8
-1.269831 -0.625297 -0.025094 0 255 255 77 8
-1.277699 -0.609312 -0.020882 0 255 255 77 8
-1.274251 -0.583464 -0.022941 0 255 255 77 8
-1.263622 -0.647064 -0.067094 0 255 255 77 8
-1.237611 -0.613744 -0.053094 0 255 255 77 8
-1.293397 -0.577349 -0.029989 0 255 255 77 8
-1.281708 -0.599308 -0.025094 0 255 255 77 8
-1.267577 -0.648268 -0.028140 0 255 255 77 8
-1.251805 -0.641397 -0.064093 0 255 255 77 8
-1.307461 -0.605031 -0.020645 0 255 255 77 8
-1.256726 -0.638306 -0.071094 0 255 255 77 8
-1.297178 -0.643231 -0.025094 0 255 255 77 8
-1.296432 -0.601241 -0.019306 0 255 255 77 8
-1.289977 -0.618970 -0.019497 0 255 255 77 8
-1.246277 -0.605768 -0.035957 0 255 255 77 8
-1.291828 -0.656541 -0.041094 0 255 255 77 8
-1.263052 -0.598113 -0.028085 0 255 255 77 8
-1.268699 -0.643923 -0.073094 0 255 255 77 8
-1.240530 -0.617212 -0.062380 0 255 255 77 8
-1.242299 -0.635239 -0.051094 0 255 255 77 8
-1.292396 -0.591875 -0.020008 0 255 255 77 8
-1.267210 -0.617676 -0.018634 0 255 255 77 8
-1.238997 -0.627762 -0.053094 0 255 255 77 8
-1.281197 -0.606524 -0.025885 0 255 255 77 8
-1.275204 -0.597574 -0.023995 0 255 255 77 8
-1.251682 -0.631199 -0.062153 0 255 255 77 8
-1.246249 -0.586404 -0.039094 0 255 255 77 8
-1.265616 -0.654818 -0.055094 0 255 255 77 8
-1.241462 -0.611979 -0.041094 0 255 255 77 8
-1.244714 -0.628591 -0.031094 0 255 255 77 8
-1.297508 -0.625548 -0.023980 0 255 255 77 8
-1.253864 -0.636870 -0.047094 0 255 255 77 8
-1.282784 -0.575516 -0.028672 0 255 255 77 8
-1.274900 -0.644240 -0.023094 0 255 255 77 8
-1.244565 -0.612265 -0.059094 0 255 255 77 8
-1.291148 -0.586006 -0.022366 0 255 255 77 8
-1.260233 -0.608935 -0.027094 0 255 255 77 8
-1.250837 -0.646461 -0.045094 0 255 255 77 8
-1.315947 -0.625718 -0.027157 0 255 255 77 8
-1.306165 -0.627797 -0.021499 0 255 255 77 8
-1.247694 -0.593198 -0.040052 0 255 255 77 8
-1.291646 -0.651331 -0.061094 0 255 255 77 8
-1.273664 -0.599946 -0.018580 0 255 255 77 8
-1.250704 -0.636215 -0.067094 0 255 255 77 8
-1.258790 -0.648091 -0.061094 0 255 255 77 8
-1.269213 -0.588624 -0.028072 0 255 255 77 8
-1.261095 -0.598528 -0.019665 0 255 255 77 8
-1.272770 -0.576504 -0.033094 0 255 255 77 8
-1.241070 -0.600740 -0.035094 0 255 255 77 8
-1.268533 -0.643139 -0.067094 0 255 255 77 8
-1.244442 -0.616381 -0.067788 0 255 255 77 8
-1.287602 -0.655902 -0.057094 0 255 255 77 8
-1.280195 -0.621049 -0.023986 0 255 255 77 8
-1.260632 -0.625208 -0.028052 0 255 255 77 8
-1.315824 -0.615521 -0.030059 0 255 255 77 8
-1.313282 -0.632419 -0.036038 0 255 255 77 8
-1.269042 -0.607062 -0.024004 0 255 255 77 8
-1.309314 -0.647575 -0.049094 0 255 255 77 8
-1.287362 -0.606670 -0.015094 0 255 255 77 8
-1.282104 -0.649269 -0.026385 0 255 255 77 8
-1.270365 -0.651764 -0.064071 0 255 255 77 8
-1.267445 -0.628401 -0.019094 0 255 255 77 8
-1.242891 -0.628979 -0.061094 0 255 255 77 8
-1.308414 -0.619141 -0.020610 0 255 255 77 8
-1.280164 -0.635369 -0.027094 0 255 255 77 8
-1.258636 -0.639946 -0.059094 0 255 255 77 8
-1.264582 -0.643797 -0.049094 0 255 255 77 8
-1.308661 -0.639535 -0.028338 0 255 255 77 8
-1.321832 -0.624550 -0.033094 0 255 255 77 8
-1.285820 -0.647517 -0.041094 0 255 255 77 8
-1.250912 -0.623184 -0.035094 0 255 255 77 8
-1.282198 -0.591998 -0.023956 0 255 255 77 8
-1.254452 -0.615375 -0.077094 0 255 255 77 8
-1.304379 -0.609775 -0.019672 0 255 255 77 8
-1.290761 -0.651519 -0.030764 0 255 255 77 8
-1.283504 -0.617379 -0.021094 0 255 255 77 8
-1.426974 -0.724800 -0.013167 255 255 0 89 9
-1.408314 -0.588923 -0.057094 255 255 0 89 9
-1.367297 -0.646056 0.018906 255 255 0 89 9
-1.461468 -0.641814 0.014906 255 255 0 89 9
-1.377328 -0.674011 -0.070003 255 255 0 89 9
-1.428711 -0.771458 -0.076050 255 255 0 89 9
-1.436508 -0.702326 -0.074036 255 255 0 89 9
-1.368195 -0.700489 -0.013094 255 255 0 89 9
-1.412031 -0.606409 0.014906 255 255 0 89 9
-1.415303 -0.674119 0.008906 255 255 0 89 9
-1.378377 -0.630850 -0.033573 255 255 0 89 9
-1.458991 -0.697547 0.016906 255 255 0 89 9
-1.394717 -0.717343 -0.051513 255 255 0 89 9
-1.396259 -0.714971 0.021120 255 255 0 89 9
-1.401362 -0.638233 -0.069094 255 255 0 89 9
-1.413662 -0.754210 -0.041094 255 255 0 89 9
