ply
format ascii 1.0
element vertex 1074
property float x
property float y
property float z
property uchar red
property uchar green
property uchar blue
property uchar semantic_label
property uchar instance_label
end_header
-0.783969 -0.165724 -0.969192 77 69 61 7 2
-0.777582 -0.171974 -0.959692 79 70 63 7 2
-0.772495 -0.169413 -0.965880 80 70 61 7 2
-0.524369 -0.209386 -1.154384 76 61 48 2 1
-0.539964 -0.197506 -1.150596 82 66 51 2 1
-0.519359 -0.200327 -1.151595 89 69 49 2 1
-0.524802 -0.219880 -1.155379 21 17 13 2 1
-0.768834 -0.173679 -0.755632 103 61 49 7 2
-0.800665 -0.171590 -0.760098 100 59 50 7 2
-0.788947 -0.166452 -0.754904 123 87 70 7 2
-0.541718 -0.082596 -0.727607 178 170 165 7 2
-0.538809 -0.065365 -0.716323 186 184 181 7 2
-0.522594 -0.056151 -0.724070 184 172 169 7 2
-0.553994 -0.080461 -0.716825 182 182 183 7 2
-0.166341 -0.068983 -0.760571 155 129 112 7 2
-0.164078 -0.052589 -0.752758 182 164 148 7 2
-0.160625 -0.066212 -1.052961 136 102 84 7 2
-0.155241 0.095655 -1.058614 154 121 92 7 2
-0.160541 0.077055 -1.058918 139 110 79 7 2
-0.126684 0.068714 -1.055489 147 110 95 7 2
-0.151178 0.082510 -1.050761 150 119 85 7 2
-0.132297 0.098398 -1.058436 152 118 89 7 2
-0.339050 -0.277999 -0.917399 106 84 63 7 2
-0.331567 -0.280759 -0.915673 108 84 67 7 2
-0.358049 -0.280044 -0.905179 99 82 65 7 2
-0.259850 0.117723 -0.742976 242 230 214 7 2
-0.243524 0.121284 -0.743312 242 230 215 7 2
-0.143833 0.072394 -1.048725 155 121 92 7 2
-0.137738 0.098930 -1.043321 151 115 92 7 2
-0.132651 0.101444 -1.046144 154 120 94 7 2
-0.138233 0.078770 -1.048830 153 118 87 7 2
-0.143102 0.086348 -1.041965 142 111 82 7 2
-0.530464 -0.196228 -1.146356 84 67 49 2 1
-0.170538 -0.113327 -0.844571 137 110 92 7 2
-0.164076 -0.089327 -0.846071 140 109 96 7 2
-0.567221 -0.165577 -0.746019 237 228 209 7 2
-0.137785 -0.021577 -0.963571 143 110 97 7 2
-0.131512 -0.001411 -0.967696 143 110 92 7 2
-0.360971 -0.008077 -0.744412 244 236 218 7 2
-0.322340 0.004821 -0.743870 243 235 219 7 2
-0.389793 -0.269656 -0.910177 99 80 64 7 2
-0.386510 -0.271778 -0.893808 104 82 66 7 2
-0.413200 -0.260804 -0.895862 108 85 65 7 2
-0.402986 -0.266445 -0.907381 102 81 65 7 2
-0.406282 -0.263700 -0.922168 98 79 64 7 2
-0.396311 -0.267081 -0.895107 108 86 64 7 2
-0.165361 0.043423 -1.146525 34 15 10 2 1
-0.329771 -0.285236 -0.890365 104 84 67 7 2
-0.339180 -0.284646 -0.877562 104 82 64 7 2
-0.332762 -0.283970 -0.859791 107 85 68 7 2
-0.326805 -0.287916 -0.865599 105 83 65 7 2
-0.719635 -0.183694 -1.000591 81 71 60 7 2
-0.735157 -0.178255 -1.003090 77 67 59 7 2
-0.712791 -0.183621 -1.008867 81 69 60 7 2
-0.724373 -0.179629 -1.003779 82 69 61 7 2
-0.156630 -0.079577 -0.903571 134 105 87 7 2
-0.146271 -0.042398 -0.918821 140 106 93 7 2
-0.417287 -0.255309 -0.831756 132 106 82 7 2
-0.387263 -0.260049 -0.845121 119 93 75 7 2
-0.399592 -0.257575 -0.845923 122 96 75 7 2
-0.420288 -0.263125 -0.835532 109 85 66 7 2
-0.815275 0.092227 -0.759676 115 69 53 7 2
-0.572275 -0.209819 -0.746866 238 226 209 7 2
-0.577971 -0.186671 -0.747025 236 225 209 7 2
-0.351666 -0.262738 -1.155069 76 40 28 2 1
-0.318419 -0.265412 -1.155753 94 58 40 2 1
-0.340514 -0.260730 -1.155567 88 56 37 2 1
-0.336994 -0.254963 -1.153695 105 69 47 2 1
-0.679721 -0.073327 -0.749186 227 216 198 7 2
-0.195207 -0.099597 -1.143612 27 13 8 2 1
-0.171804 -0.062818 -1.147030 56 47 41 2 1
-0.181391 -0.079760 -1.142299 28 14 11 2 1
-0.586630 -0.014350 -0.725255 152 168 179 7 2
-0.518221 -0.100787 -0.745566 217 204 191 7 2
-0.499535 -0.106064 -0.745153 229 217 202 7 2
-0.485858 -0.100455 -0.745555 234 222 205 7 2
-0.466484 -0.034943 -0.744896 239 227 211 7 2
-0.715504 -0.187664 -0.838332 89 80 69 7 2
-0.154673 -0.052967 -1.052095 135 102 86 7 2
-0.149190 -0.035077 -1.050632 136 102 88 7 2
-0.132663 0.037423 -0.817571 149 120 103 7 2
-0.196290 -0.218675 -1.050183 132 100 83 7 2
-0.438174 -0.150457 -0.745072 240 232 213 7 2
-0.425357 -0.147757 -0.745243 241 232 210 7 2
-0.451869 -0.133523 -0.745205 242 232 212 7 2
-0.188105 -0.198577 -0.907571 138 109 88 7 2
-0.193511 -0.207569 -0.862633 138 109 88 7 2
-0.851862 -0.139553 -0.750864 131 93 75 7 2
-0.857446 -0.116807 -0.754323 95 50 35 7 2
-0.846115 -0.152213 -0.751162 96 52 38 7 2
-0.841259 -0.140250 -0.747140 80 41 30 7 2
-0.833463 -0.146440 -0.748318 145 111 95 7 2
-0.207857 0.071560 -0.742447 241 231 214 7 2
-0.466236 0.050643 -0.725403 220 214 211 7 2
-0.457762 0.063788 -0.722465 226 218 213 7 2
-0.463521 0.035649 -0.728970 220 211 208 7 2
-0.552907 -0.226953 -0.946611 106 78 60 7 2
-0.557255 -0.226837 -0.971112 108 81 61 7 2
-0.567825 -0.222338 -0.982864 110 83 62 7 2
-0.271612 -0.083312 -0.742911 244 236 217 7 2
-0.287830 -0.081961 -0.743497 245 236 219 7 2
-0.215221 0.018423 -0.743062 240 229 213 7 2
-0.786145 -0.025852 -0.751252 207 189 170 7 2
-0.790489 0.004855 -0.749668 176 155 139 7 2
-0.220711 -0.186598 -0.742930 242 232 214 7 2
-0.192757 -0.153604 -0.749490 222 210 191 7 2
-0.208750 -0.191651 -0.744734 236 226 209 7 2
-0.475150 -0.255088 -0.750038 219 210 196 7 2
-0.830421 -0.017255 -0.753464 106 60 48 7 2
-0.815795 -0.016957 -0.747070 123 81 66 7 2
-0.806934 -0.017709 -0.744984 133 93 78 7 2
-0.215277 -0.019708 -0.742549 241 230 213 7 2
-0.200221 0.006423 -0.742191 242 231 212 7 2
-0.112794 -0.022237 -1.156559 90 35 17 2 1
-0.129692 -0.013798 -1.157954 68 24 15 2 1
-0.108684 -0.009798 -1.155218 101 38 24 2 1
-0.129094 0.077906 -0.759342 156 128 114 7 2
-0.124961 0.126603 -0.743658 219 202 188 7 2
-0.300047 -0.292341 -0.891335 114 88 71 7 2
-0.301014 -0.290286 -0.879155 111 86 66 7 2
-0.318940 -0.288963 -0.877653 105 84 66 7 2
-0.301394 -0.292638 -0.860215 108 88 68 7 2
-0.749391 -0.184395 -0.775975 193 180 158 7 2
-0.742993 -0.186694 -0.770534 84 78 80 7 2
-0.754070 -0.181889 -0.760923 92 80 79 7 2
-0.765899 -0.179341 -0.783789 154 143 136 7 2
-0.705465 -0.187110 -1.001469 82 70 61 7 2
-0.360564 -0.200616 -0.745656 242 234 216 7 2
-0.388379 -0.215083 -0.745947 242 233 217 7 2
-0.238808 -0.075472 -1.154672 129 95 75 2 1
-0.220356 -0.058942 -1.155398 117 86 71 2 1
-0.236141 -0.059606 -1.155956 119 88 69 2 1
-0.253874 -0.050664 -1.150653 143 108 77 2 1
-0.639064 -0.076579 -0.748271 231 221 203 7 2
-0.664189 -0.060139 -0.748808 230 218 203 7 2
-0.594290 -0.221235 -0.805013 92 82 70 7 2
-0.210181 -0.177563 -1.142904 33 14 7 2 1
-0.205148 -0.187352 -1.146387 45 38 33 2 1
-0.199278 -0.156438 -1.142675 41 32 29 2 1
-0.219568 0.104907 -1.156036 146 114 85 2 1
-0.202254 0.099190 -1.155436 151 118 89 2 1
-0.229101 0.118882 -1.156429 143 116 87 2 1
-0.216930 0.132558 -1.154238 98 75 51 2 1
-0.691525 -0.177362 -0.748968 231 219 204 7 2
-0.299717 -0.006509 -0.743921 242 230 215 7 2
-0.301472 0.020574 -0.743865 242 232 215 7 2
-0.677471 -0.147077 -0.748548 232 221 204 7 2
-0.145871 -0.049695 -0.953071 139 104 87 7 2
-0.139679 -0.025952 -0.946195 140 107 91 7 2
-0.151023 -0.062361 -0.931071 139 106 92 7 2
-0.109679 0.085742 -0.966290 145 110 99 7 2
-0.108030 0.084999 -0.992946 143 108 97 7 2
-0.103279 0.109682 -0.979375 145 110 94 7 2
-0.190810 -0.180351 -0.788258 144 115 98 7 2
-0.606857 -0.216058 -0.867936 90 81 70 7 2
-0.613020 -0.213551 -0.859866 87 79 67 7 2
-0.588681 -0.218712 -0.884797 92 82 73 7 2
-0.518166 -0.251475 -1.159541 85 35 19 2 1
-0.250001 -0.288396 -0.788480 148 121 98 7 2
-0.246076 -0.263029 -0.776199 229 219 201 7 2
-0.249790 -0.258835 -0.769433 242 231 212 7 2
-0.260595 -0.279893 -0.768481 234 225 208 7 2
-0.249075 -0.253523 -0.777532 193 176 152 7 2
-0.245622 -0.267882 -0.789365 254 252 246 7 2
-0.783791 0.078304 -0.744536 136 96 77 7 2
-0.788811 0.099753 -0.747362 116 68 51 7 2
-0.770067 0.078290 -0.748340 178 156 133 7 2
-0.792755 0.085713 -0.746985 112 64 48 7 2
-0.808373 0.095427 -0.754772 110 60 44 7 2
-0.255489 -0.261883 -0.790315 255 254 250 7 2
-0.115220 0.062788 -0.973571 143 109 92 7 2
-0.613721 0.121423 -0.747086 230 218 202 7 2
-0.147314 0.096365 -1.048378 143 112 84 7 2
-0.135499 0.111086 -1.045220 156 122 88 7 2
-0.128251 0.132086 -1.044752 154 119 94 7 2
-0.220778 -0.119077 -1.152207 77 47 39 2 1
-0.212767 -0.105133 -1.150907 64 37 29 2 1
-0.220097 -0.087113 -1.155885 82 54 44 2 1
-0.162976 -0.136343 -1.030956 135 100 85 7 2
-0.167074 -0.147572 -1.017998 136 101 84 7 2
-0.181531 -0.167917 -1.047397 133 98 86 7 2
-0.169984 -0.140289 -1.041213 135 102 85 7 2
-0.129649 0.096648 -0.745142 225 208 194 7 2
-0.141260 0.092932 -0.742139 243 230 216 7 2
-0.487972 -0.241142 -0.987435 94 79 63 7 2
-0.490988 -0.243149 -0.970625 95 76 65 7 2
-0.512396 -0.239109 -0.972725 93 77 65 7 2
-0.470610 -0.248375 -0.960723 93 76 61 7 2
-0.497806 -0.242188 -0.957581 95 76 60 7 2
-0.501888 -0.238695 -0.987024 91 77 62 7 2
-0.222543 -0.267783 -1.070353 133 94 80 7 2
-0.220366 -0.282389 -1.061880 129 96 81 7 2
-0.219433 -0.269333 -1.071436 126 93 78 7 2
-0.213657 -0.274873 -1.062346 134 101 82 7 2
-0.655413 -0.206583 -0.796153 167 154 138 7 2
-0.678943 -0.200372 -0.783783 189 175 157 7 2
-0.666782 -0.204989 -0.780588 189 175 157 7 2
-0.654976 -0.212327 -0.773432 165 155 150 7 2
-0.537533 -0.235340 -0.804206 99 89 71 7 2
-0.514428 -0.241591 -0.798709 98 85 72 7 2
-0.509695 -0.240199 -0.828791 102 91 76 7 2
-0.535915 -0.121281 -0.746161 235 224 208 7 2
-0.529971 -0.156577 -0.745569 237 226 206 7 2
-0.503198 -0.138783 -0.745795 238 225 207 7 2
-0.313469 -0.293746 -0.746646 240 218 201 7 2
-0.293023 -0.295300 -0.745090 244 230 215 7 2
-0.288517 -0.288550 -0.743973 245 232 219 7 2
-0.299151 -0.306213 -0.760854 177 139 122 7 2
-0.719548 -0.184373 -0.981637 80 70 61 7 2
-0.727181 -0.181499 -0.974303 84 73 65 7 2
-0.706072 -0.186713 -0.964216 80 70 60 7 2
-0.198662 -0.229341 -0.863571 142 108 94 7 2
-0.251709 -0.299423 -0.784092 166 144 127 7 2
-0.255331 -0.298102 -0.775431 220 208 190 7 2
-0.254012 -0.289020 -0.776682 216 202 180 7 2
-0.259101 -0.289660 -0.794371 149 123 99 7 2
-0.233988 -0.316349 -0.766387 198 181 168 7 2
-0.257183 -0.287480 -0.782173 170 146 120 7 2
-0.231054 -0.315768 -0.790136 148 121 106 7 2
-0.249960 -0.316840 -0.810232 162 137 126 7 2
-0.226410 -0.303504 -0.787082 145 117 101 7 2
-0.255364 -0.305374 -0.786368 113 90 72 7 2
-0.637983 -0.066266 -0.747115 227 216 200 7 2
-0.673435 -0.037511 -0.747916 230 217 201 7 2
-0.659873 -0.030168 -0.743289 226 216 201 7 2
-0.656069 -0.045277 -0.746204 228 219 201 7 2
-0.626721 0.067923 -0.748129 228 218 202 7 2
-0.177375 -0.136577 -0.829071 143 112 97 7 2
-0.179767 -0.137313 -0.801071 143 113 99 7 2
-0.175038 -0.122577 -0.817070 140 112 96 7 2
-0.200175 -0.112341 -0.742784 241 232 215 7 2
-0.208539 -0.133120 -0.743279 242 233 212 7 2
-0.215704 -0.097767 -0.743106 242 233 217 7 2
-0.655433 -0.201105 -0.935060 85 77 65 7 2
-0.650917 -0.203397 -0.904010 82 74 66 7 2
-0.718694 -0.149422 -1.152258 90 66 46 2 1
-0.739588 -0.144954 -1.151221 103 72 52 2 1
-0.244340 -0.287709 -0.741742 241 230 214 7 2
-0.283436 -0.309479 -0.757457 168 134 117 7 2
-0.273640 -0.309658 -0.749178 117 78 64 7 2
-0.299271 -0.301521 -0.748816 185 147 130 7 2
-0.270974 -0.301522 -0.743695 236 224 199 7 2
-0.122090 0.075577 -0.836571 148 116 100 7 2
-0.122545 0.044816 -0.929758 143 110 97 7 2
-0.140941 0.096034 -1.143620 34 19 15 2 1
-0.211042 -0.277577 -0.886821 139 108 92 7 2
-0.405086 -0.127562 -0.743955 242 232 214 7 2
-0.427471 -0.126327 -0.744590 243 231 216 7 2
-0.797384 0.016667 -0.746050 150 142 124 7 2
-0.780382 0.009653 -0.751184 189 173 154 7 2
-0.770294 0.032072 -0.750293 184 173 155 7 2
-0.448621 -0.255143 -0.983398 89 75 62 7 2
-0.448776 -0.254420 -0.952563 95 78 63 7 2
-0.335655 -0.185829 -0.745153 243 233 216 7 2
-0.370069 -0.176495 -0.745611 245 232 216 7 2
-0.338579 -0.158812 -0.744750 244 233 215 7 2
-0.130542 0.015934 -0.918571 143 110 95 7 2
-0.129593 0.024423 -0.903571 141 110 96 7 2
-0.547931 0.107798 -0.728728 189 181 173 7 2
-0.533826 0.118738 -0.723029 212 205 195 7 2
-0.516473 0.107148 -0.718350 215 209 199 7 2
-0.512614 0.114347 -0.719581 221 213 203 7 2
-0.415246 -0.215727 -0.771210 244 232 216 7 2
-0.395382 -0.212104 -0.768831 242 233 217 7 2
-0.402579 -0.208063 -0.771640 242 234 216 7 2
-0.387942 -0.208218 -0.773284 242 234 217 7 2
-0.396580 -0.209467 -0.778616 252 252 250 7 2
-0.389043 -0.215717 -0.782696 246 247 244 7 2
-0.421254 0.011621 -0.745290 237 228 209 7 2
-0.424746 0.037406 -0.743136 230 217 202 7 2
-0.434625 0.038067 -0.740030 206 195 189 7 2
-0.439941 0.018823 -0.744232 222 211 204 7 2
-0.395780 -0.269208 -0.980785 92 74 59 7 2
-0.383017 -0.268598 -0.958538 99 80 62 7 2
-0.396520 -0.266029 -0.964720 98 80 62 7 2
-0.411294 -0.264309 -0.970808 94 78 62 7 2
-0.405036 -0.264254 -0.981628 96 78 61 7 2
-0.237352 -0.054090 -0.742562 242 234 216 7 2
-0.319138 -0.259186 -0.766923 242 232 217 7 2
-0.300398 -0.256794 -0.766546 242 231 215 7 2
-0.318227 -0.284033 -0.773540 221 206 177 7 2
-0.282711 -0.279431 -0.767531 240 230 209 7 2
-0.320474 -0.280570 -0.769607 241 232 214 7 2
-0.319990 -0.271228 -0.768376 243 232 214 7 2
-0.294904 -0.274097 -0.768151 241 231 213 7 2
-0.661667 -0.193737 -1.158020 24 22 19 2 1
-0.650476 -0.184922 -1.158520 33 33 31 2 1
-0.476984 -0.218422 -0.745800 239 230 213 7 2
-0.493179 -0.192590 -0.745692 238 227 211 7 2
-0.470793 -0.191727 -0.745486 236 225 211 7 2
-0.453643 0.100113 -0.743035 218 206 192 7 2
-0.427044 0.108868 -0.745411 237 222 204 7 2
-0.437076 0.073082 -0.736941 178 170 159 7 2
-0.427723 0.079995 -0.743317 227 217 201 7 2
-0.556169 -0.045775 -0.715870 179 192 204 7 2
-0.539582 -0.048086 -0.715204 204 202 197 7 2
-0.199246 -0.185565 -0.751163 208 195 176 7 2
-0.211989 -0.183856 -0.743420 241 230 214 7 2
-0.220085 -0.207368 -0.743394 240 231 215 7 2
-0.220928 -0.226392 -0.744076 240 229 214 7 2
-0.204621 -0.194141 -0.747282 232 223 206 7 2
-0.775849 0.109926 -0.745703 142 102 86 7 2
-0.796132 0.113219 -0.751665 132 89 72 7 2
-0.771527 0.124746 -0.743985 147 109 94 7 2
-0.783011 0.122939 -0.747212 130 84 68 7 2
-0.435573 -0.231116 -0.744852 243 230 212 7 2
-0.414477 -0.235782 -0.745394 242 230 213 7 2
-0.236239 0.027636 -1.151080 142 107 77 2 1
-0.249364 0.024980 -1.151983 131 99 69 2 1
-0.234017 0.011507 -1.154757 147 112 86 2 1
-0.250979 0.034940 -1.155949 112 86 63 2 1
-0.238793 0.017243 -1.149999 95 70 45 2 1
-0.254024 0.016897 -1.156433 53 40 26 2 1
-0.131678 0.038315 -0.838821 145 114 102 7 2
-0.136768 0.014594 -0.846821 145 113 101 7 2
-0.249097 -0.298983 -0.816825 142 113 94 7 2
-0.255740 -0.307066 -0.810266 112 86 65 7 2
-0.251272 -0.304253 -0.816936 140 114 96 7 2
-0.255403 -0.286508 -0.828278 147 117 92 7 2
-0.560694 -0.112569 -0.746727 233 220 204 7 2
-0.583648 -0.113485 -0.746053 232 220 202 7 2
-0.155034 -0.063718 -0.865571 141 108 92 7 2
-0.142359 -0.022386 -0.898196 143 112 94 7 2
-0.149609 -0.043577 -0.875571 142 110 96 7 2
-0.574059 -0.102156 -0.743250 209 197 181 7 2
-0.577990 -0.094420 -0.737593 216 207 190 7 2
-0.216630 -0.283876 -0.817487 146 115 99 7 2
-0.215444 -0.273466 -0.800238 143 117 100 7 2
-0.255926 -0.219066 -1.118981 136 102 75 2 1
-0.266816 -0.212593 -1.140530 124 94 71 2 1
-0.711430 -0.188410 -0.907624 81 73 65 7 2
-0.436137 -0.229011 -1.153581 69 34 21 2 1
-0.446318 -0.238488 -1.155576 92 59 46 2 1
-0.424238 -0.225607 -1.152068 99 68 48 2 1
-0.450770 -0.249159 -1.155316 63 24 14 2 1
-0.435891 -0.253327 -1.156187 62 27 14 2 1
-0.431309 -0.220667 -1.146326 98 67 50 2 1
-0.110342 0.128423 -0.807571 152 120 102 7 2
-0.475565 -0.251041 -0.835872 110 87 69 7 2
-0.473483 -0.248784 -0.851289 109 87 71 7 2
-0.475363 -0.244661 -0.861530 113 89 73 7 2
-0.624394 -0.198751 -0.748015 199 188 183 7 2
-0.638855 -0.210010 -0.753392 139 130 135 7 2
-0.835694 -0.107227 -0.747223 116 75 62 7 2
-0.808828 -0.074346 -0.749094 168 141 121 7 2
-0.818452 -0.065827 -0.743772 134 98 81 7 2
-0.832006 -0.074324 -0.747800 112 69 53 7 2
-0.812430 -0.096564 -0.749301 198 180 160 7 2
-0.822292 -0.087282 -0.745614 173 146 127 7 2
-0.106329 0.103836 -0.944571 144 110 100 7 2
-0.751090 -0.170723 -0.752030 151 126 121 7 2
-0.742967 -0.160558 -0.750005 205 189 181 7 2
-0.739759 -0.180077 -0.754044 95 84 84 7 2
-0.161531 -0.101223 -0.936071 137 104 85 7 2
-0.166540 -0.115577 -0.905571 137 104 85 7 2
-0.196556 -0.156482 -1.057235 140 104 77 7 2
-0.465012 -0.209682 -1.143615 95 68 43 2 1
-0.720221 0.078423 -0.750557 221 211 193 7 2
-0.725515 0.105008 -0.750550 219 211 193 7 2
-0.106595 0.125423 -0.865571 146 116 97 7 2
-0.111221 0.104274 -0.883571 146 114 99 7 2
-0.179906 -0.065912 -1.059193 136 101 73 7 2
-0.164521 -0.087100 -1.053264 136 102 80 7 2
-0.175168 -0.069260 -1.056882 138 104 73 7 2
-0.230759 -0.138805 -1.154840 53 28 21 2 1
-0.219976 -0.173944 -1.146500 33 15 9 2 1
-0.816992 0.064900 -0.757308 63 38 26 7 2
-0.818599 0.044047 -0.754620 51 40 32 7 2
-0.814982 0.054689 -0.754104 102 84 69 7 2
-0.808126 0.077957 -0.753530 91 56 43 7 2
-0.130519 -0.002994 -0.992071 139 107 91 7 2
-0.133886 -0.019577 -1.007571 139 108 92 7 2
-0.505042 -0.238415 -1.158046 67 24 16 2 1
-0.503035 -0.231082 -1.155980 46 36 29 2 1
-0.497938 -0.226446 -1.156533 46 31 27 2 1
-0.533729 0.086542 -0.723992 179 173 165 7 2
-0.515577 0.089007 -0.720993 180 174 171 7 2
-0.485260 -0.249730 -0.798964 115 102 82 7 2
-0.747068 -0.170279 -1.005780 80 70 62 7 2
-0.743011 -0.175733 -0.998736 80 70 61 7 2
-0.748839 -0.170715 -0.990444 77 68 58 7 2
-0.766120 -0.170442 -0.988511 77 68 60 7 2
-0.522166 -0.172943 -0.745123 238 225 210 7 2
-0.230128 -0.289688 -0.744473 228 218 199 7 2
-0.551736 -0.238120 -0.768396 162 152 149 7 2
-0.587011 -0.224087 -0.780107 191 183 174 7 2
-0.568770 -0.229245 -0.779902 151 138 122 7 2
-0.222777 -0.288191 -0.755310 194 178 161 7 2
-0.258104 -0.221164 -0.743755 240 232 214 7 2
-0.236133 -0.231023 -0.742743 239 231 213 7 2
-0.768531 -0.133613 -1.149178 107 72 52 2 1
-0.760278 -0.144475 -1.155012 105 70 55 2 1
-0.198159 -0.138697 -0.743937 241 231 213 7 2
-0.210956 -0.152639 -0.742209 242 231 213 7 2
-0.644878 -0.216388 -1.158211 27 28 23 2 1
-0.624630 -0.220167 -1.159955 49 48 44 2 1
-0.597190 -0.256401 -1.157950 35 35 34 2 1
-0.620453 -0.245158 -1.160438 37 40 38 2 1
-0.612002 -0.229541 -1.160730 30 33 30 2 1
-0.645038 -0.210474 -0.780310 164 151 135 7 2
-0.621706 -0.216503 -0.779006 125 112 97 7 2
-0.750730 -0.139054 -1.144790 105 71 51 2 1
-0.234977 -0.280600 -1.058395 139 104 81 7 2
-0.228362 -0.267645 -1.062678 142 105 85 7 2
-0.146021 0.028013 -0.747020 206 190 175 7 2
-0.143187 0.026714 -0.754112 196 178 162 7 2
-0.152148 0.024969 -0.743451 233 218 203 7 2
-0.144028 0.009712 -0.772698 154 128 109 7 2
-0.839160 -0.164290 -0.761783 133 96 80 7 2
-0.832289 -0.163886 -0.752452 80 54 42 7 2
-0.845709 -0.160875 -0.757771 116 84 69 7 2
-0.114603 0.096423 -0.857571 147 115 100 7 2
-0.116078 0.100423 -0.819571 146 116 98 7 2
-0.109799 0.121247 -0.841834 144 116 97 7 2
-0.163436 0.014096 -1.142359 29 14 10 2 1
-0.172496 0.013270 -1.146054 31 14 9 2 1
-0.183046 -0.181203 -0.916571 134 104 88 7 2
-0.268189 -0.032435 -0.743154 243 235 216 7 2
-0.276133 -0.061236 -0.743454 244 235 218 7 2
-0.258550 -0.064261 -0.743394 244 234 220 7 2
-0.771596 -0.090639 -0.750877 226 212 193 7 2
-0.376479 -0.214070 -0.772312 255 254 253 7 2
-0.254206 -0.248269 -0.769962 242 230 216 7 2
-0.410966 -0.266181 -0.793212 121 99 81 7 2
-0.398086 -0.261755 -0.791668 189 172 141 7 2
-0.421231 -0.258840 -0.796118 196 177 150 7 2
-0.400263 -0.272250 -0.774482 244 230 213 7 2
-0.417094 -0.268802 -0.777582 241 221 202 7 2
-0.396312 -0.270173 -0.792536 131 111 92 7 2
-0.412985 -0.255999 -0.791476 194 175 149 7 2
-0.789647 -0.043958 -0.749918 214 197 179 7 2
-0.796634 -0.022836 -0.749983 186 162 141 7 2
-0.796221 -0.082702 -0.750535 218 202 183 7 2
-0.337636 -0.275991 -0.932643 103 80 58 7 2
-0.346990 -0.274733 -0.945850 104 81 60 7 2
-0.336614 -0.279014 -0.950678 106 81 61 7 2
-0.324319 -0.278682 -0.934099 106 80 62 7 2
-0.350004 -0.275786 -0.928403 105 83 62 7 2
-0.200682 -0.208021 -1.056089 131 99 83 7 2
-0.204807 -0.174041 -1.057652 143 108 82 7 2
-0.203472 -0.221380 -1.054430 135 100 84 7 2
-0.209580 -0.207679 -1.056718 137 103 74 7 2
-0.119284 0.103173 -0.775321 152 121 104 7 2
-0.152975 0.039416 -1.141613 30 14 13 2 1
-0.162317 -0.000275 -1.141280 29 16 13 2 1
-0.108057 0.101423 -0.935571 143 112 98 7 2
-0.108034 0.110986 -0.898571 145 114 97 7 2
-0.540444 -0.005739 -0.728562 109 107 97 7 2
-0.241403 -0.110763 -0.743846 243 233 217 7 2
-0.160648 -0.093827 -0.911071 136 104 87 7 2
-0.169425 -0.123232 -0.896321 137 105 93 7 2
-0.164348 -0.102577 -0.892570 135 106 88 7 2
-0.166145 -0.137577 -1.005571 136 102 81 7 2
-0.618218 -0.085871 -0.744771 231 219 203 7 2
-0.605486 -0.084771 -0.740569 227 218 200 7 2
-0.620157 -0.067227 -0.740939 222 216 203 7 2
-0.324275 -0.296461 -0.752963 210 180 161 7 2
-0.363602 -0.284229 -0.751117 195 166 148 7 2
-0.339689 -0.290236 -0.750145 210 186 168 7 2
-0.430229 -0.004541 -0.744780 241 230 213 7 2
-0.147583 0.023334 -1.144938 57 48 39 2 1
-0.142864 0.055482 -1.142015 40 30 25 2 1
-0.145016 0.073686 -1.141986 38 26 22 2 1
-0.150791 0.057242 -1.141484 32 13 10 2 1
-0.137570 0.068031 -1.142938 66 51 43 2 1
-0.383510 -0.123526 -0.743662 245 234 219 7 2
-0.363721 -0.091952 -0.744087 245 235 215 7 2
-0.277193 -0.302266 -0.898461 106 80 58 7 2
-0.268651 -0.305311 -0.913663 102 75 55 7 2
-0.279104 -0.291389 -0.904296 114 87 66 7 2
-0.287071 -0.296321 -0.907642 114 87 66 7 2
-0.294538 -0.293339 -0.915855 112 83 65 7 2
-0.288976 -0.292246 -0.901138 114 87 68 7 2
-0.263713 -0.307526 -0.885872 101 76 59 7 2
-0.536547 -0.234415 -0.829599 95 84 72 7 2
-0.530013 -0.235001 -0.837680 95 87 74 7 2
-0.529651 -0.234486 -0.851202 97 88 74 7 2
-0.533079 -0.226975 -0.747133 237 226 209 7 2
-0.542178 -0.208394 -0.746029 239 222 207 7 2
-0.532211 -0.238901 -0.752158 110 105 104 7 2
-0.519443 -0.246095 -0.759687 163 152 149 7 2
-0.125388 0.016923 -0.980071 142 109 92 7 2
-0.119214 0.036673 -0.993821 144 110 96 7 2
-0.124290 0.011695 -1.014922 143 107 89 7 2
-0.169300 -0.057989 -0.747229 217 203 187 7 2
-0.192379 -0.043457 -0.742311 242 231 215 7 2
-0.176363 -0.021283 -0.741598 243 231 215 7 2
-0.165965 -0.023020 -0.742926 233 221 204 7 2
-0.630857 -0.210490 -0.852627 87 78 67 7 2
-0.627727 -0.212832 -0.833063 91 79 67 7 2
-0.152702 -0.025524 -0.784805 151 120 104 7 2
-0.148201 -0.005077 -0.779070 150 121 105 7 2
-0.650890 -0.206570 -0.841375 88 80 69 7 2
-0.194426 -0.168247 -1.152642 61 47 39 2 1
-0.194734 -0.184563 -1.155931 61 47 38 2 1
-0.267897 -0.241894 -0.771666 241 232 214 7 2
-0.283424 -0.248698 -0.784170 255 254 254 7 2
-0.283665 -0.237974 -0.771649 255 255 255 7 2
-0.563435 -0.227451 -0.909218 106 84 67 7 2
-0.837939 0.020659 -0.763816 86 65 59 7 2
-0.840505 0.005727 -0.763653 101 56 45 7 2
-0.839666 0.028970 -0.767549 54 43 37 7 2
-0.196700 -0.182383 -0.755576 183 164 149 7 2
-0.452128 -0.065448 -0.744853 240 228 212 7 2
-0.510233 -0.239598 -0.897749 112 81 69 7 2
-0.540704 -0.232237 -0.906574 111 82 67 7 2
-0.526920 -0.235182 -0.989655 91 76 58 7 2
-0.517043 -0.228765 -0.993028 102 83 59 7 2
-0.537939 -0.231552 -1.001256 98 80 63 7 2
-0.523357 -0.231759 -1.002203 100 80 62 7 2
-0.533674 -0.226976 -1.003003 100 81 56 7 2
-0.549769 -0.224562 -1.005105 94 76 58 7 2
-0.184230 -0.103964 -1.058092 142 107 80 7 2
-0.176213 -0.096374 -1.055533 146 110 83 7 2
-0.169965 -0.113007 -1.050272 137 100 87 7 2
-0.181242 -0.092610 -1.058424 135 100 73 7 2
-0.627396 -0.094035 -0.747514 232 221 207 7 2
-0.812315 -0.168377 -0.831591 91 78 67 7 2
-0.811191 -0.166517 -0.847798 84 75 64 7 2
-0.802658 -0.169517 -0.844040 94 75 63 7 2
-0.820227 -0.164814 -0.840456 86 72 60 7 2
-0.549959 -0.234587 -0.779726 112 101 81 7 2
-0.533010 -0.238525 -0.780131 179 167 146 7 2
-0.529897 -0.244173 -0.769291 110 100 93 7 2
-0.513719 -0.244229 -0.777596 233 221 207 7 2
-0.186845 -0.202083 -1.041363 136 100 83 7 2
-0.177395 -0.195115 -1.028380 133 99 84 7 2
-0.182933 -0.216213 -1.027231 132 99 84 7 2
-0.501021 -0.161623 -0.746219 241 230 210 7 2
-0.548668 -0.211972 -1.156470 65 58 47 2 1
-0.578143 -0.198558 -1.159893 76 61 45 2 1
-0.502605 -0.197361 -1.146563 84 64 44 2 1
-0.530287 -0.192257 -1.138187 76 63 44 2 1
-0.836658 -0.034490 -0.753766 106 60 44 7 2
-0.849439 -0.039554 -0.762666 95 49 34 7 2
-0.844730 -0.052232 -0.757099 93 46 33 7 2
-0.519297 0.003851 -0.735126 173 170 163 7 2
-0.506215 -0.022601 -0.732375 206 197 191 7 2
-0.496669 -0.005085 -0.735278 203 194 189 7 2
-0.488707 -0.016473 -0.739033 219 209 200 7 2
-0.191221 0.054423 -0.742016 243 232 215 7 2
-0.260236 -0.087827 -1.150887 137 105 78 2 1
-0.257513 -0.077737 -1.151041 138 103 76 2 1
-0.717520 -0.188757 -0.849699 90 82 74 7 2
-0.688971 -0.195946 -0.840787 87 79 69 7 2
-0.688137 -0.194680 -0.870373 89 78 69 7 2
-0.395066 -0.231696 -1.147717 105 73 51 2 1
-0.797560 -0.168667 -0.917885 81 73 59 7 2
-0.772848 -0.175002 -0.906295 83 74 64 7 2
-0.799600 -0.169068 -0.902508 81 74 64 7 2
-0.816767 -0.117487 -0.750532 171 147 131 7 2
-0.832023 -0.121477 -0.746603 147 115 96 7 2
-0.596344 -0.224085 -0.756111 125 115 121 7 2
-0.514540 0.063249 -0.726449 215 208 197 7 2
-0.781997 -0.167795 -0.951987 79 71 61 7 2
-0.772732 -0.172874 -0.937492 80 73 63 7 2
-0.792539 -0.167338 -0.939516 79 70 59 7 2
-0.789419 -0.170225 -0.926059 64 59 57 7 2
-0.596971 -0.156327 -0.747114 236 226 205 7 2
-0.456221 -0.153577 -0.745862 239 228 214 7 2
-0.124541 0.055921 -0.861571 146 113 101 7 2
-0.126646 0.042673 -0.884571 145 113 97 7 2
-0.222589 -0.225575 -1.143909 38 21 15 2 1
-0.199134 -0.249827 -0.946571 134 102 87 7 2
-0.210021 -0.286548 -0.933428 138 106 88 7 2
-0.206290 -0.280567 -0.951552 138 106 89 7 2
-0.611090 0.063582 -0.746746 206 196 181 7 2
-0.600061 0.080986 -0.744877 216 206 190 7 2
-0.148863 -0.071077 -0.995071 134 103 89 7 2
-0.143642 -0.055577 -1.011571 136 103 86 7 2
-0.172651 -0.148519 -1.158386 63 22 14 2 1
-0.162000 -0.124256 -1.159607 65 23 16 2 1
-0.701396 -0.191394 -0.804029 101 90 75 7 2
-0.689451 -0.195366 -0.796844 95 83 72 7 2
-0.673428 -0.200753 -0.813325 97 85 74 7 2
-0.688953 -0.195656 -0.826079 98 86 73 7 2
-0.702621 -0.191262 -0.822837 107 96 79 7 2
-0.182994 -0.162827 -0.853070 139 109 92 7 2
-0.572824 0.058753 -0.738099 188 179 167 7 2
-0.577694 0.079673 -0.738505 218 210 195 7 2
-0.370560 -0.264100 -0.793684 94 84 68 7 2
-0.381511 -0.275996 -0.791967 111 89 71 7 2
-0.368114 -0.275022 -0.793902 114 94 74 7 2
-0.381555 -0.271904 -0.794152 117 95 75 7 2
-0.378563 -0.277802 -0.776579 124 104 86 7 2
-0.139657 -0.021754 -0.931571 141 109 93 7 2
-0.133743 -0.007105 -0.946277 143 109 94 7 2
-0.136754 -0.006577 -0.925570 142 111 94 7 2
-0.360029 -0.280513 -0.792121 117 99 78 7 2
-0.324918 -0.279180 -0.777120 189 171 144 7 2
-0.321970 -0.287192 -0.793558 189 171 144 7 2
-0.325751 -0.276529 -0.794026 151 140 117 7 2
-0.344571 -0.284053 -0.792284 120 103 81 7 2
-0.351154 -0.275803 -0.794531 190 175 147 7 2
-0.349782 -0.271420 -0.793278 149 137 115 7 2
-0.336913 -0.277391 -0.792202 152 140 119 7 2
-0.371541 -0.285875 -0.767888 232 212 195 7 2
-0.359398 -0.283191 -0.776996 196 179 159 7 2
-0.180425 -0.130577 -0.773571 152 125 111 7 2
-0.440221 0.101923 -0.744603 213 201 189 7 2
-0.475221 0.120423 -0.744053 204 190 181 7 2
-0.487786 0.121118 -0.741714 205 191 182 7 2
-0.602778 -0.218608 -0.832442 91 82 68 7 2
-0.248786 -0.300148 -0.839603 141 113 95 7 2
-0.248194 -0.290896 -0.822710 145 116 95 7 2
-0.252627 -0.307810 -0.841996 126 99 79 7 2
-0.253998 -0.305618 -0.849793 108 81 62 7 2
-0.625063 -0.201559 -0.996733 106 79 58 7 2
-0.631969 -0.201894 -0.987687 106 78 61 7 2
-0.617864 -0.207637 -0.990824 105 77 60 7 2
-0.156724 -0.043577 -0.795570 145 113 99 7 2
-0.161703 -0.074546 -0.823384 145 115 95 7 2
-0.500563 -0.241621 -0.881451 112 85 66 7 2
-0.492808 -0.242488 -0.875268 116 90 69 7 2
-0.499627 -0.244349 -0.864147 112 85 68 7 2
-0.194520 -0.196185 -1.053223 134 100 86 7 2
-0.264971 -0.188952 -0.744395 240 230 212 7 2
-0.131996 0.090808 -1.144843 67 53 42 2 1
-0.125337 0.109381 -1.148818 66 53 45 2 1
-0.380976 -0.269611 -0.992270 102 79 60 7 2
-0.361719 -0.274150 -0.975839 106 80 62 7 2
-0.369477 -0.272129 -0.961107 100 76 63 7 2
-0.382517 -0.271489 -0.972602 98 77 60 7 2
-0.520999 -0.043311 -0.720502 176 171 161 7 2
-0.540140 -0.033161 -0.717757 155 151 144 7 2
-0.134420 0.002838 -0.902117 143 113 95 7 2
-0.129918 0.028423 -0.891571 142 112 94 7 2
-0.309744 -0.088944 -0.742890 247 236 219 7 2
-0.293221 -0.049952 -0.743348 246 236 220 7 2
-0.595482 0.009899 -0.730550 153 146 140 7 2
-0.465032 -0.250633 -1.007246 83 69 56 7 2
-0.457040 -0.252062 -1.011914 87 72 58 7 2
-0.486015 -0.242003 -0.997941 91 75 60 7 2
-0.476649 -0.243943 -1.004250 92 76 60 7 2
-0.464634 -0.239434 -1.004632 86 75 53 7 2
-0.306221 0.083423 -0.744395 241 229 215 7 2
-0.308753 0.104981 -0.743582 241 229 213 7 2
-0.300620 -0.288356 -0.949458 111 81 63 7 2
-0.295806 -0.290759 -0.936378 107 79 61 7 2
-0.306466 -0.288691 -0.937736 109 80 57 7 2
-0.315416 -0.282993 -0.934376 109 82 63 7 2
-0.312152 -0.284278 -0.937540 108 82 60 7 2
-0.465162 -0.250310 -0.941211 97 77 64 7 2
-0.455119 -0.252584 -0.945379 98 78 63 7 2
-0.481614 -0.247172 -0.930977 101 79 61 7 2
-0.687710 -0.192116 -0.944462 84 76 66 7 2
-0.672912 -0.196111 -0.967219 84 75 62 7 2
-0.702630 -0.189201 -0.940168 82 71 64 7 2
-0.684339 -0.195774 -0.752621 127 123 121 7 2
-0.715143 -0.187956 -0.753365 86 84 83 7 2
-0.699511 -0.188856 -0.751240 91 89 89 7 2
-0.694654 -0.197990 -0.758730 68 65 70 7 2
-0.672761 -0.202502 -0.756064 144 136 136 7 2
-0.506990 -0.231515 -0.745986 239 226 209 7 2
-0.499209 -0.247052 -0.749013 225 207 199 7 2
-0.479818 -0.238734 -0.746116 232 222 205 7 2
-0.393197 -0.265794 -1.155107 78 30 15 2 1
-0.357163 -0.274794 -1.156796 66 23 16 2 1
-0.486454 -0.244356 -0.911695 110 82 66 7 2
-0.497335 -0.243332 -0.904270 112 83 64 7 2
-0.182798 -0.193077 -0.977695 136 102 85 7 2
-0.188436 -0.217077 -0.976827 135 102 85 7 2
-0.411220 0.048637 -0.745095 226 215 198 7 2
-0.233951 -0.320442 -0.805932 123 97 81 7 2
-0.245758 -0.320552 -0.795718 157 131 118 7 2
-0.246165 -0.319655 -0.775835 155 128 115 7 2
-0.252672 -0.316112 -0.781007 188 171 157 7 2
-0.243401 -0.319700 -0.760568 207 186 170 7 2
-0.237899 -0.319886 -0.779741 199 187 171 7 2
-0.426581 -0.270565 -0.759091 168 128 121 7 2
-0.425227 -0.265977 -0.748641 146 105 94 7 2
-0.423554 -0.254546 -0.745236 242 232 213 7 2
-0.453993 -0.255576 -0.854496 117 93 72 7 2
-0.461021 -0.252680 -0.840036 115 90 73 7 2
-0.456141 -0.261114 -0.752838 86 67 68 7 2
-0.451187 -0.251167 -0.746229 202 186 174 7 2
-0.643065 -0.165449 -1.147128 81 69 49 2 1
-0.713698 -0.187242 -0.815889 98 87 73 7 2
-0.175483 -0.022565 -1.143185 29 13 8 2 1
-0.168923 -0.024503 -1.141034 29 15 13 2 1
-0.160031 -0.009700 -1.142338 31 19 17 2 1
-0.428757 -0.269002 -1.158056 79 30 17 2 1
-0.456700 -0.262548 -1.157146 89 33 17 2 1
-0.717798 -0.186130 -0.883270 83 76 65 7 2
-0.659533 -0.200975 -0.982858 91 73 62 7 2
-0.673637 -0.196814 -0.987718 82 70 62 7 2
-0.106557 0.082923 -1.015571 142 107 93 7 2
-0.135344 0.012070 -1.157503 65 46 40 2 1
-0.139613 0.032549 -1.151291 63 51 44 2 1
-0.119777 0.048341 -1.043105 136 103 90 7 2
-0.114096 0.040985 -1.023275 143 106 90 7 2
-0.114475 0.039925 -1.029086 142 108 91 7 2
-0.107647 0.059659 -1.027272 143 107 90 7 2
-0.688090 -0.151868 -1.148522 93 74 52 2 1
-0.275471 0.018798 -0.743929 241 231 216 7 2
-0.453721 -0.252340 -0.923438 107 83 66 7 2
-0.426622 -0.258959 -0.906841 109 84 67 7 2
-0.418578 -0.260080 -0.915454 102 81 65 7 2
-0.440045 -0.254321 -0.908580 106 82 65 7 2
-0.440419 -0.255729 -0.897750 108 83 65 7 2
-0.599355 -0.210559 -1.158359 24 24 23 2 1
-0.572392 -0.216566 -1.157539 33 32 32 2 1
-0.585485 -0.204930 -1.159525 26 24 18 2 1
-0.608877 -0.198244 -1.158573 32 28 22 2 1
-0.602315 -0.187279 -1.154103 48 39 31 2 1
-0.568805 -0.192021 -1.154023 68 60 46 2 1
-0.230190 0.065894 -0.743102 242 229 214 7 2
-0.258096 0.082767 -0.743259 243 229 214 7 2
-0.226876 -0.300362 -0.768198 155 129 115 7 2
-0.262926 -0.298816 -0.986522 119 89 67 7 2
-0.315889 -0.014254 -0.743632 242 234 216 7 2
-0.182236 -0.181135 -1.044216 133 99 78 7 2
-0.169007 -0.165849 -1.025826 132 100 84 7 2
-0.808580 -0.166016 -0.868966 81 72 65 7 2
-0.546961 0.090727 -0.727836 217 209 199 7 2
-0.188148 -0.210676 -0.956071 137 104 90 7 2
-0.721792 -0.175898 -1.160267 28 30 25 2 1
-0.723789 -0.157280 -1.159523 85 70 56 2 1
-0.573429 -0.068582 -0.716893 160 170 180 7 2
-0.559472 -0.094975 -0.738026 186 183 176 7 2
-0.556827 -0.087407 -0.722995 186 183 176 7 2
-0.557026 -0.063682 -0.714254 176 184 195 7 2
-0.564437 -0.084978 -0.720371 172 172 170 7 2
-0.518110 -0.239791 -0.878376 112 83 66 7 2
-0.541377 -0.231703 -0.876407 102 84 72 7 2
-0.522218 -0.237282 -0.871279 112 88 72 7 2
-0.519026 -0.236439 -0.855223 110 90 75 7 2
-0.543846 -0.232315 -0.898746 111 85 67 7 2
-0.802831 -0.167926 -0.882957 81 71 64 7 2
-0.421044 -0.271539 -0.767419 233 206 195 7 2
-0.439598 -0.261681 -0.790991 122 102 80 7 2
-0.449794 -0.261161 -0.775817 112 93 73 7 2
-0.428080 -0.266062 -0.775408 137 118 96 7 2
-0.514968 0.122308 -0.723903 225 219 213 7 2
-0.197173 -0.266442 -1.028224 133 100 85 7 2
-0.198648 -0.259776 -1.036795 132 99 83 7 2
-0.205567 -0.256549 -1.051002 133 99 82 7 2
-0.493240 0.115699 -0.734739 159 152 146 7 2
-0.204529 -0.276996 -1.042204 137 99 82 7 2
-0.190221 0.095923 -0.742321 244 232 218 7 2
-0.177217 0.099887 -0.741619 244 232 219 7 2
-0.184881 0.119638 -0.742483 245 233 219 7 2
-0.166546 0.121071 -0.741911 244 232 220 7 2
-0.535898 -0.233627 -0.918822 110 80 63 7 2
-0.565890 -0.222566 -0.956871 109 80 63 7 2
-0.571269 -0.223819 -0.939741 108 78 64 7 2
-0.472687 -0.249829 -0.997005 84 71 59 7 2
-0.459542 -0.256973 -0.998459 81 68 56 7 2
-0.453673 -0.256675 -1.007845 81 68 54 7 2
-0.189449 -0.123726 -1.143373 39 30 26 2 1
-0.186583 -0.103966 -1.142703 27 14 11 2 1
-0.180390 -0.096431 -1.146267 37 28 23 2 1
-0.117032 0.038423 -1.015571 144 108 92 7 2
-0.308374 -0.258833 -1.154011 122 87 66 2 1
-0.321201 -0.254571 -1.152603 120 85 64 2 1
-0.227760 -0.320015 -0.900447 120 83 64 7 2
-0.233452 -0.321546 -0.875510 119 81 66 7 2
-0.494321 -0.251628 -0.756310 119 113 114 7 2
-0.353787 -0.265524 -0.839434 137 115 96 7 2
-0.381437 -0.271015 -0.858537 113 89 69 7 2
-0.371929 -0.271312 -0.851397 115 89 71 7 2
-0.368502 -0.259892 -0.837027 115 89 69 7 2
-0.363527 -0.267684 -0.846341 115 91 63 7 2
-0.563638 -0.225994 -0.874126 91 82 72 7 2
-0.572643 -0.224138 -0.900645 104 81 68 7 2
-0.659504 -0.201432 -0.866687 87 77 70 7 2
-0.648830 -0.203182 -0.883659 83 74 68 7 2
-0.666749 -0.199618 -0.891959 89 79 69 7 2
-0.647619 -0.205377 -0.871112 89 79 69 7 2
-0.320742 -0.283270 -0.901783 108 86 66 7 2
-0.301088 -0.288037 -0.924004 109 81 59 7 2
-0.304897 -0.289762 -0.899217 111 87 65 7 2
-0.313841 -0.287319 -0.886967 108 87 69 7 2
-0.290852 -0.288884 -0.912701 115 84 63 7 2
-0.580767 -0.222318 -0.891472 88 79 69 7 2
-0.244723 -0.002834 -1.148056 134 101 74 2 1
-0.240646 0.006969 -1.148820 141 109 84 2 1
-0.252233 0.004952 -1.148398 64 49 36 2 1
-0.247124 -0.015435 -1.151675 117 84 63 2 1
-0.237019 -0.017677 -1.155841 135 103 78 2 1
-0.247243 -0.027290 -1.153602 142 106 78 2 1
-0.258191 -0.003166 -1.153998 88 63 47 2 1
-0.233791 -0.003731 -1.155279 142 109 82 2 1
-0.181203 -0.163577 -0.877571 138 108 90 7 2
-0.233173 -0.304310 -0.745938 226 214 196 7 2
-0.245402 -0.304832 -0.742668 240 231 216 7 2
-0.229684 -0.311597 -0.755527 202 187 172 7 2
-0.245703 -0.315618 -0.747584 215 191 173 7 2
-0.179240 -0.167895 -0.933571 137 105 87 7 2
-0.183310 -0.187827 -0.941133 136 103 85 7 2
-0.178021 -0.159579 -0.904446 137 103 92 7 2
-0.800734 0.035436 -0.746278 100 82 67 7 2
-0.790130 0.044284 -0.744611 144 125 107 7 2
-0.796690 0.062943 -0.746516 133 101 87 7 2
-0.782365 0.035008 -0.747935 195 179 164 7 2
-0.784894 0.062411 -0.746577 194 173 158 7 2
-0.760221 -0.025577 -0.751496 228 216 197 7 2
-0.239890 -0.031510 -0.743189 241 233 213 7 2
-0.238403 -0.011420 -0.742803 241 231 212 7 2
-0.253774 0.002313 -0.743164 239 231 214 7 2
-0.287242 -0.181219 -1.146198 135 101 73 2 1
-0.579325 -0.076458 -0.721248 204 204 196 7 2
-0.445400 -0.214396 -1.146334 97 67 44 2 1
-0.210752 -0.018962 -1.154458 77 49 38 2 1
-0.223820 0.008865 -1.156281 107 77 65 2 1
-0.604011 -0.220732 -0.781076 114 102 85 7 2
-0.581396 -0.229620 -0.771222 162 147 148 7 2
-0.586914 -0.229052 -0.765102 146 138 138 7 2
-0.144467 0.112468 -0.741253 244 232 220 7 2
-0.168990 0.086022 -0.741871 243 232 216 7 2
-0.218318 -0.311276 -0.908558 131 98 76 7 2
-0.222594 -0.317734 -0.908486 129 97 80 7 2
-0.168790 -0.140577 -0.980571 138 104 85 7 2
-0.163584 -0.123202 -0.985071 136 104 85 7 2
-0.675449 -0.199170 -0.842297 90 78 70 7 2
-0.667361 -0.201345 -0.852350 90 79 70 7 2
-0.580969 -0.040402 -0.719671 171 186 197 7 2
-0.603682 -0.042063 -0.724470 139 161 181 7 2
-0.809454 -0.171208 -0.808095 102 78 61 7 2
-0.832465 -0.158906 -0.821344 98 73 56 7 2
-0.825941 -0.166306 -0.808076 102 76 55 7 2
-0.806423 -0.171647 -0.787217 107 83 63 7 2
-0.831675 -0.164370 -0.795920 112 92 70 7 2
-0.819174 -0.164563 -0.819144 100 78 61 7 2
-0.803167 -0.171449 -0.817881 99 77 59 7 2
-0.832852 -0.156631 -0.814046 102 81 65 7 2
-0.826513 -0.162207 -0.811205 117 96 73 7 2
-0.185971 0.028923 -0.742660 243 230 213 7 2
-0.163829 0.018624 -0.742043 242 232 214 7 2
-0.823693 -0.146495 -0.751092 169 136 120 7 2
-0.851113 -0.028129 -0.765800 106 61 47 7 2
-0.687318 -0.192032 -0.914422 82 74 64 7 2
-0.676459 -0.196553 -0.924298 81 70 62 7 2
-0.688153 -0.193941 -0.898231 81 73 64 7 2
-0.359784 -0.244699 -0.744395 243 234 215 7 2
-0.361254 -0.223541 -0.744637 242 234 215 7 2
-0.386601 -0.224192 -0.744601 240 235 216 7 2
-0.412268 -0.264007 -0.939676 96 79 64 7 2
-0.389827 -0.267918 -0.948693 102 83 65 7 2
-0.408252 -0.263642 -0.955824 94 76 62 7 2
-0.394765 -0.268938 -0.928619 99 79 63 7 2
-0.420057 -0.259956 -0.940916 100 80 64 7 2
-0.554461 -0.222458 -1.001296 105 79 56 7 2
-0.271613 -0.288820 -0.982626 109 79 56 7 2
-0.260556 -0.304368 -0.990191 97 70 51 7 2
-0.267758 -0.297156 -0.979048 101 73 55 7 2
-0.277625 -0.298156 -0.966058 109 80 62 7 2
-0.287927 -0.287567 -0.962062 54 39 27 7 2
-0.269593 -0.301913 -0.954872 105 77 59 7 2
-0.278702 -0.296079 -0.977576 110 82 64 7 2
-0.270618 -0.291782 -0.970051 83 59 41 7 2
-0.278286 -0.288453 -0.966161 57 41 33 7 2
-0.268080 -0.303078 -0.974207 97 70 54 7 2
-0.275394 -0.292916 -0.956724 116 87 58 7 2
-0.285476 -0.291804 -0.958331 111 82 60 7 2
-0.786334 -0.105009 -0.751250 210 196 175 7 2
-0.614226 -0.213529 -0.930725 96 79 65 7 2
-0.184413 -0.136374 -0.757571 183 163 149 7 2
-0.187800 -0.132820 -0.748143 233 223 208 7 2
-0.183221 -0.058577 -0.742730 242 233 215 7 2
-0.194287 -0.092466 -0.742921 242 233 215 7 2
-0.174290 -0.095908 -0.752860 197 179 162 7 2
-0.173740 -0.081348 -0.748442 212 198 180 7 2
-0.175669 -0.056082 -0.743708 231 222 203 7 2
-0.181453 -0.077387 -0.743504 241 233 214 7 2
-0.752971 0.092423 -0.750230 220 207 188 7 2
-0.673596 -0.124577 -0.748670 229 220 203 7 2
-0.389061 -0.245575 -1.155164 94 62 46 2 1
-0.409136 -0.227316 -1.146726 99 66 47 2 1
-0.409434 -0.241317 -1.155545 59 26 14 2 1
-0.188280 -0.179577 -0.839571 139 109 93 7 2
-0.185917 -0.168157 -0.829696 137 109 89 7 2
-0.443444 0.049934 -0.729147 217 208 202 7 2
-0.274336 -0.191414 -1.154395 135 101 76 2 1
-0.279428 -0.172916 -1.153164 138 103 78 2 1
-0.273441 -0.161831 -1.153893 139 106 79 2 1
-0.277304 -0.153943 -1.152189 135 100 73 2 1
-0.119688 0.114836 -0.752146 171 143 132 7 2
-0.677740 -0.196905 -0.881553 85 76 68 7 2
-0.700375 -0.191082 -0.867589 88 77 69 7 2
-0.388082 -0.233591 -0.768155 241 233 213 7 2
-0.373846 -0.221290 -0.768193 242 233 217 7 2
-0.370870 -0.227815 -0.788169 255 254 252 7 2
-0.378699 -0.247137 -0.767323 242 234 215 7 2
-0.361908 -0.247458 -0.768250 242 234 215 7 2
-0.373832 -0.223460 -0.783988 254 252 251 7 2
-0.203407 0.018279 -1.155447 80 51 40 2 1
-0.217177 0.025502 -1.156633 108 77 63 2 1
-0.137006 0.004423 -0.875571 142 112 97 7 2
-0.742372 -0.179278 -0.975525 81 72 57 7 2
-0.755082 -0.173835 -0.980958 79 71 62 7 2
-0.742959 -0.180154 -0.959615 79 71 61 7 2
-0.752431 -0.175510 -0.985444 78 69 58 7 2
-0.615468 -0.210505 -0.966853 107 78 63 7 2
-0.603175 -0.210028 -0.988528 110 79 62 7 2
-0.590169 -0.215634 -0.979822 109 81 59 7 2
-0.605211 -0.213638 -0.976243 104 77 55 7 2
-0.586731 -0.219133 -0.956238 109 80 65 7 2
-0.722971 -0.007827 -0.750620 228 216 198 7 2
-0.137887 -0.049377 -1.025208 136 101 88 7 2
-0.142846 -0.037530 -1.042428 137 102 85 7 2
-0.138823 -0.049111 -1.029742 139 103 86 7 2
-0.130457 -0.023896 -1.023790 137 103 87 7 2
-0.807526 -0.147960 -0.751978 221 208 188 7 2
-0.772388 -0.156786 -0.751257 228 217 197 7 2
-0.811419 -0.163286 -0.910767 79 70 56 7 2
-0.804971 -0.167323 -0.900949 79 70 62 7 2
-0.187338 -0.222588 -1.013749 136 101 90 7 2
-0.192432 -0.236749 -0.998902 134 105 83 7 2
-0.452103 -0.015391 -0.745306 244 233 218 7 2
-0.421909 -0.064046 -0.744612 245 237 219 7 2
-0.445944 -0.039501 -0.744243 245 233 217 7 2
-0.322940 0.075008 -0.745045 239 228 214 7 2
-0.639774 -0.203891 -0.980640 106 80 63 7 2
-0.625558 -0.207815 -0.983728 106 77 62 7 2
-0.633635 -0.202846 -0.978840 105 79 62 7 2
-0.633824 -0.207164 -0.969665 100 78 61 7 2
-0.621272 -0.210832 -0.960351 105 80 63 7 2
-0.637139 -0.206825 -0.942402 94 75 63 7 2
-0.628329 0.029716 -0.745414 177 167 154 7 2
-0.626329 0.009423 -0.738383 184 176 166 7 2
-0.321042 -0.282196 -0.943413 109 82 63 7 2
-0.725221 -0.123577 -0.749979 231 220 201 7 2
-0.462835 -0.249196 -0.976762 96 80 66 7 2
-0.246681 -0.311119 -0.989388 92 52 37 7 2
-0.251729 -0.310116 -0.970083 99 67 54 7 2
-0.220935 0.086057 -1.153638 106 78 51 2 1
-0.224294 0.062415 -1.153905 146 113 85 2 1
-0.210849 0.069984 -1.156510 140 110 85 2 1
-0.234674 -0.181523 -0.743589 242 232 213 7 2
-0.451412 0.002472 -0.743356 219 210 199 7 2
-0.487676 0.014958 -0.732465 215 207 199 7 2
-0.358990 -0.278104 -0.895499 101 81 67 7 2
-0.354271 -0.276036 -0.915478 101 81 65 7 2
-0.362337 -0.274584 -0.925187 104 83 68 7 2
-0.377206 -0.273876 -0.902035 99 79 64 7 2
-0.152742 -0.089577 -1.002571 135 100 85 7 2
-0.161224 -0.111134 -0.977321 136 102 90 7 2
-0.154711 -0.088590 -0.978196 138 104 86 7 2
-0.156634 -0.086327 -0.943071 135 103 88 7 2
-0.735627 -0.091233 -0.749984 229 216 202 7 2
-0.763971 -0.136452 -0.751006 228 216 199 7 2
-0.745721 -0.121077 -0.750895 227 216 196 7 2
-0.787667 -0.174910 -0.795346 105 85 70 7 2
-0.785214 -0.176304 -0.825509 89 74 62 7 2
-0.774284 -0.178102 -0.800037 106 86 71 7 2
-0.426264 0.056649 -0.740597 205 195 186 7 2
-0.154659 -0.049139 -0.825196 142 111 96 7 2
-0.720047 -0.188266 -0.868088 84 76 67 7 2
-0.661281 -0.188342 -0.749488 234 221 206 7 2
-0.644721 -0.173952 -0.748507 234 221 206 7 2
-0.664218 -0.197878 -0.993476 105 76 59 7 2
-0.666885 -0.193601 -0.998059 101 78 57 7 2
-0.652663 -0.197291 -0.988392 104 80 59 7 2
-0.470041 -0.250982 -0.821496 112 90 71 7 2
-0.479031 -0.245879 -0.809015 119 104 84 7 2
-0.655897 -0.171001 -1.157673 82 70 51 2 1
-0.661709 -0.161594 -1.150283 83 71 51 2 1
-0.678149 -0.156079 -1.152660 87 73 57 2 1
-0.749820 0.002833 -0.751278 225 211 195 7 2
-0.842622 -0.097744 -0.750614 103 61 50 7 2
-0.860628 -0.098258 -0.759587 101 57 44 7 2
-0.872391 -0.115369 -0.765233 90 42 33 7 2
-0.412206 0.024216 -0.745008 242 234 215 7 2
-0.400596 0.000173 -0.744842 239 231 209 7 2
-0.416221 -0.085577 -0.744700 245 233 216 7 2
-0.394975 -0.099924 -0.744022 246 234 216 7 2
-0.238508 -0.162751 -1.156201 77 49 38 2 1
-0.253614 -0.156181 -1.155102 110 83 67 2 1
-0.252983 -0.199165 -1.154770 98 73 57 2 1
-0.243721 -0.192799 -1.153641 78 50 39 2 1
-0.146439 -0.040327 -0.902570 140 110 96 7 2
-0.296130 -0.247236 -0.744678 242 232 215 7 2
-0.303988 -0.228903 -0.745288 243 232 215 7 2
-0.372434 -0.141374 -0.744181 245 232 214 7 2
-0.507748 -0.250502 -0.768406 159 154 147 7 2
-0.485924 -0.250694 -0.777657 172 166 156 7 2
-0.705221 0.121923 -0.749328 221 210 192 7 2
-0.229724 0.002869 -0.743178 240 229 208 7 2
-0.226472 0.023198 -0.742568 241 229 210 7 2
-0.485096 0.054611 -0.725707 226 218 212 7 2
-0.193450 -0.233577 -0.967571 137 104 91 7 2
-0.212330 -0.150077 -1.144754 41 21 14 2 1
-0.197815 -0.123192 -1.141597 28 14 10 2 1
-0.207042 -0.159598 -1.142075 31 13 7 2 1
-0.239221 -0.133327 -0.743311 241 231 217 7 2
-0.245721 -0.152389 -0.743633 242 231 212 7 2
-0.705221 0.064423 -0.750542 227 214 199 7 2
-0.393212 -0.277483 -0.752400 236 216 198 7 2
-0.408665 -0.275822 -0.765813 225 197 179 7 2
-0.407797 -0.271747 -0.749321 186 154 143 7 2
-0.385839 -0.270163 -0.746022 245 229 211 7 2
-0.537095 0.007167 -0.734981 133 131 120 7 2
-0.536408 0.023487 -0.736409 153 151 142 7 2
-0.511833 0.018139 -0.733912 142 139 129 7 2
-0.514708 0.033604 -0.732452 157 153 146 7 2
-0.225724 -0.278855 -0.749372 227 214 196 7 2
-0.229382 -0.254109 -0.743409 239 230 213 7 2
-0.377746 -0.071097 -0.744299 246 238 219 7 2
-0.393737 -0.258423 -1.007931 102 77 59 7 2
-0.400739 -0.265063 -1.006312 96 75 60 7 2
-0.411923 -0.258476 -1.009202 96 76 60 7 2
-0.404498 -0.254079 -1.001758 93 73 53 7 2
-0.415267 -0.252925 -0.996849 95 77 61 7 2
-0.389030 -0.267534 -1.004865 99 78 63 7 2
-0.388666 -0.259923 -0.997779 93 73 51 7 2
-0.471250 -0.242207 -1.157207 57 21 12 2 1
-0.470190 -0.228652 -1.157238 63 30 18 2 1
-0.450698 -0.221501 -1.154049 94 64 46 2 1
-0.574610 -0.230213 -0.756851 147 134 138 7 2
-0.559092 -0.229162 -0.750354 160 147 146 7 2
-0.585405 -0.221430 -0.750372 191 180 174 7 2
-0.151446 -0.046237 -1.158185 62 29 19 2 1
-0.139222 -0.048060 -1.159122 66 23 13 2 1
-0.161577 -0.050903 -1.155257 58 47 39 2 1
-0.154404 -0.024145 -1.151759 61 46 39 2 1
-0.665742 -0.018124 -0.744153 212 206 195 7 2
-0.657752 -0.005744 -0.742985 209 204 194 7 2
-0.674238 0.001703 -0.747717 212 207 199 7 2
-0.144132 0.048961 -1.053720 154 120 91 7 2
-0.139959 0.060640 -1.053410 150 118 87 7 2
-0.134560 0.068017 -1.054834 153 118 87 7 2
-0.158734 -0.039577 -0.759571 155 129 113 7 2
-0.156700 -0.011666 -0.747009 211 198 181 7 2
-0.161169 -0.006014 -0.743578 241 228 209 7 2
-0.156472 -0.024960 -0.753018 192 175 158 7 2
-0.146300 0.012409 -0.753784 186 168 151 7 2
-0.321719 -0.291201 -0.792755 134 116 95 7 2
-0.329829 -0.288626 -0.792737 114 95 76 7 2
-0.351195 -0.292259 -0.766634 186 154 135 7 2
-0.335751 -0.289730 -0.774166 183 161 140 7 2
-0.433843 -0.259164 -0.849425 116 90 72 7 2
-0.443079 -0.256816 -0.847188 117 90 74 7 2
-0.422433 -0.264076 -0.847508 113 88 68 7 2
-0.438437 -0.259860 -0.841060 108 86 68 7 2
-0.451083 -0.253340 -0.843188 118 92 73 7 2
-0.439776 -0.257647 -0.831621 114 89 71 7 2
-0.126464 0.108310 -1.055138 150 113 93 7 2
-0.114680 0.098599 -1.053004 141 108 92 7 2
-0.117611 0.113726 -1.054746 140 107 90 7 2
-0.119889 0.126816 -1.052788 140 108 91 7 2
-0.196995 -0.204670 -0.800153 144 113 98 7 2
-0.173588 -0.024252 -1.043837 115 85 68 7 2
-0.731660 -0.182579 -0.839760 87 79 69 7 2
-0.738362 -0.182567 -0.856377 90 81 73 7 2
-0.281867 -0.229534 -0.745032 242 231 216 7 2
-0.129841 0.012048 -0.942571 142 110 95 7 2
-0.305831 -0.165651 -0.744435 243 231 215 7 2
-0.422995 0.068748 -0.743309 225 216 200 7 2
-0.408381 0.064016 -0.744576 236 226 208 7 2
-0.391751 0.084298 -0.745215 237 227 209 7 2
-0.410237 0.089766 -0.745547 237 227 207 7 2
-0.870371 -0.135136 -0.760916 86 38 23 7 2
-0.334871 0.086346 -0.744682 240 229 211 7 2
-0.685097 -0.020163 -0.748502 227 217 202 7 2
-0.701221 -0.023577 -0.749858 229 216 199 7 2
-0.692221 0.000798 -0.750049 230 216 200 7 2
-0.227498 -0.319871 -0.942842 116 78 64 7 2
-0.223009 -0.316630 -0.937850 128 90 74 7 2
-0.725531 -0.184687 -0.951904 82 73 65 7 2
-0.723352 -0.183829 -0.934264 80 71 65 7 2
-0.339221 -0.023577 -0.743388 245 237 221 7 2
-0.312488 -0.068613 -0.743689 246 238 219 7 2
-0.356221 -0.048827 -0.743870 247 239 221 7 2
-0.493813 -0.258169 -1.158895 84 32 18 2 1
-0.523724 -0.271670 -1.160535 86 33 19 2 1
-0.511517 -0.264898 -1.159135 85 33 18 2 1
-0.495746 -0.278329 -1.157804 86 33 16 2 1
-0.717673 -0.191490 -0.780847 130 118 99 7 2
-0.725444 -0.191554 -0.775017 86 84 85 7 2
-0.153516 0.012758 -1.141507 56 45 41 2 1
-0.129299 0.062423 -0.797571 150 118 106 7 2
-0.138004 0.033423 -0.778571 156 124 108 7 2
-0.126297 0.075923 -0.780571 154 123 108 7 2
