ply
format ascii 1.0
element vertex 1098
property float x
property float y
property float z
property uchar red
property uchar green
property uchar blue
property uchar semantic_label
property uchar instance_label
end_header
0.851600 0.293342 -0.197671 10 8 3 40 14
0.765284 0.156647 0.228622 85 66 42 15 1
0.775736 0.143325 0.231659 110 88 60 15 1
0.770042 0.140548 0.236464 186 163 138 15 1
0.785974 0.148537 0.229263 158 142 120 15 1
0.506709 -0.286263 -0.025389 230 220 217 39 5
0.499862 -0.285990 -0.043650 225 215 210 39 5
0.489514 -0.285564 -0.029027 227 218 213 39 5
0.523678 -0.274468 -0.018117 124 122 122 39 5
0.490233 -0.279413 -0.021514 222 221 220 39 5
0.509239 -0.278202 -0.039018 123 120 119 39 5
0.510299 -0.277032 -0.046636 123 120 119 39 5
0.512005 -0.277212 -0.029810 251 250 248 39 5
0.491460 -0.283953 -0.052773 223 213 211 39 5
0.740406 0.281667 -0.255209 34 30 23 40 14
0.913269 0.408258 -0.237953 63 53 33 12 12
0.733187 0.287360 -0.257854 43 32 27 40 14
0.917094 0.574496 -0.262943 99 84 62 12 12
0.915304 0.544537 -0.259558 98 80 61 12 12
0.914659 0.552140 -0.241277 98 79 62 12 12
0.917827 0.572576 -0.243636 99 83 63 12 12
0.576663 0.254222 -0.176823 41 33 29 0 0
0.583426 0.250691 -0.198174 41 31 21 0 0
0.571419 0.253728 -0.194547 53 53 48 0 0
0.554305 0.267187 -0.186174 201 168 156 0 0
0.657470 -0.222026 0.236750 191 177 167 15 1
0.817188 -0.026610 0.246435 163 146 122 15 1
0.558825 0.263266 -0.160611 76 59 64 0 0
0.560410 0.262858 -0.148722 212 156 62 0 0
0.571518 0.255799 -0.155151 48 32 19 0 0
0.892340 0.202042 -0.067833 14 11 6 40 14
0.898656 0.193908 -0.058065 17 12 5 40 14
0.881233 0.213638 -0.061953 18 10 7 40 14
0.868796 0.193792 -0.059016 18 11 7 40 14
0.888133 0.219135 -0.066054 16 10 7 40 14
0.806619 0.318168 -0.125101 47 43 33 40 14
0.806285 0.292561 -0.124038 42 41 33 40 14
0.787167 0.321960 -0.122336 51 48 40 40 14
0.792201 0.307104 -0.128413 70 64 53 40 14
0.767540 0.235493 -0.046207 26 19 14 40 14
0.740412 0.233938 -0.042585 33 28 18 40 14
0.734203 0.248916 -0.045546 38 31 21 40 14
0.633773 0.005747 -0.315615 89 75 54 12 12
0.662185 0.009982 -0.309198 85 75 53 12 12
0.747018 0.454593 0.228075 125 107 80 15 1
0.776003 0.451283 0.227679 116 97 73 15 1
0.778261 0.435417 0.217534 132 116 96 15 1
0.778216 0.431990 0.208574 159 143 116 15 1
0.769319 0.302051 -0.186583 26 21 18 40 14
0.820732 0.316591 -0.196471 41 24 2 40 14
0.793752 0.312141 -0.190561 56 38 6 40 14
0.778310 0.318540 -0.188102 125 100 17 40 14
0.790503 0.302225 -0.200541 29 23 17 40 14
0.808569 0.300620 -0.199490 29 23 17 40 14
0.792077 0.312485 -0.208475 29 23 19 40 14
0.784814 0.323195 -0.207357 27 24 17 40 14
0.787120 0.300832 -0.190403 50 37 10 40 14
0.796345 0.294728 -0.194166 72 57 9 40 14
0.783236 0.294580 -0.194043 76 61 26 40 14
0.825971 0.436013 -0.326486 78 65 47 12 12
0.767702 0.322942 -0.275450 142 97 38 40 14
0.778092 0.336432 -0.275527 166 124 39 40 14
0.752110 0.335602 -0.269510 24 17 14 40 14
0.906770 0.348360 0.096580 52 40 27 1 10
0.906787 0.327544 0.095966 57 40 30 1 10
0.911506 0.334200 0.101821 54 40 29 1 10
0.677392 0.202062 0.250188 37 35 32 15 1
0.688633 0.225057 0.246835 25 23 17 15 1
0.673793 0.219686 0.249157 28 26 19 15 1
0.765347 0.131329 -0.118476 70 64 45 40 14
0.684887 0.216552 0.268660 54 55 50 15 1
0.789778 0.133300 -0.125748 72 66 48 40 14
0.779780 0.128614 -0.121469 78 69 59 40 14
0.764684 0.127568 -0.122720 86 78 66 40 14
0.781610 0.138384 -0.123969 77 72 52 40 14
0.616218 0.123142 -0.318279 110 93 68 12 12
0.713256 0.494020 0.250849 89 78 64 15 1
0.697275 0.494928 0.248239 90 81 67 15 1
0.738062 0.089471 -0.312144 55 41 30 12 12
0.734091 0.073692 -0.312632 81 62 44 12 12
0.763892 0.097180 -0.311982 33 24 22 12 12
0.649002 -0.090666 0.229950 243 229 208 15 1
0.655677 -0.100807 0.233900 243 230 210 15 1
0.673747 0.282150 -0.313664 140 129 119 12 12
0.656072 0.279872 -0.315336 143 128 111 12 12
0.661828 0.272462 -0.316940 136 129 112 12 12
0.659606 0.293369 -0.318225 114 102 91 12 12
0.650522 0.288344 -0.319158 106 93 81 12 12
0.920580 0.046158 -0.233615 64 53 33 12 12
0.921988 0.051500 -0.221226 67 53 34 12 12
0.735284 0.363062 -0.129563 84 77 65 40 14
0.728066 0.324755 -0.117937 98 90 83 40 14
0.736426 0.351070 -0.116918 85 80 69 40 14
0.728056 0.346037 -0.118101 103 94 85 40 14
0.738371 0.335206 -0.126890 94 85 74 40 14
0.728431 0.347872 -0.122378 97 90 80 40 14
0.893368 0.138542 -0.062278 16 13 8 40 14
0.908469 0.153739 -0.056716 16 11 5 40 14
0.933862 0.641174 0.185737 144 136 119 1 10
0.648971 0.388743 0.206934 236 228 210 15 1
0.648885 0.379602 0.186747 239 230 215 15 1
0.649089 0.399507 0.187042 239 230 215 15 1
0.888364 0.389952 -0.287939 65 42 11 12 12
0.880724 0.380985 -0.287925 55 37 10 12 12
0.769328 0.219227 -0.268945 29 23 18 40 14
0.807316 0.234802 -0.260550 22 18 16 40 14
0.784069 0.221671 -0.257424 24 20 17 40 14
0.949292 -0.319094 0.156597 255 252 240 1 10
0.947581 -0.361828 0.144131 253 249 234 1 10
0.949471 -0.347048 0.165972 254 249 236 1 10
0.882844 0.118615 -0.267533 13 9 5 40 14
0.868886 0.116341 -0.268769 17 10 7 40 14
0.888141 0.106218 -0.269001 16 11 8 40 14
0.531884 0.184505 -0.296685 75 67 50 40 15
0.510244 0.195994 -0.266429 38 37 32 40 15
0.554013 0.189144 -0.285494 38 37 28 40 15
0.536464 0.206416 -0.277211 30 27 23 40 15
0.537253 0.195176 -0.279713 42 37 31 40 15
0.525428 0.189619 -0.281467 66 60 47 40 15
0.880161 -0.024186 0.236476 139 127 113 15 1
0.881928 -0.007305 0.239071 82 77 75 15 1
0.771541 0.533617 -0.324477 91 74 59 12 12
0.884593 0.154583 -0.296089 30 22 19 12 12
0.881345 0.147843 -0.295933 27 22 18 12 12
0.858222 0.162960 -0.286636 31 22 16 40 14
0.877014 0.150646 -0.290446 30 22 18 40 14
0.916516 -0.258034 -0.201048 233 212 200 12 12
0.931029 0.089322 0.055773 53 44 32 1 10
0.940144 0.074848 0.071033 146 130 102 1 10
0.648858 0.558065 0.177740 193 180 165 15 1
0.653960 0.543180 0.173716 158 147 130 15 1
0.662273 0.555543 0.169815 162 153 134 15 1
0.618580 0.299198 -0.114364 85 64 14 0 0
0.614401 0.287676 -0.113437 110 85 14 0 0
0.682881 0.440225 0.225087 82 70 50 15 1
0.673239 0.448533 0.229421 93 79 60 15 1
0.662417 0.457663 0.236387 111 98 77 15 1
0.682841 0.456155 0.235971 119 105 78 15 1
0.705759 0.457463 0.235071 118 102 76 15 1
0.656293 0.442503 0.225313 112 99 81 15 1
0.674906 0.368026 -0.321729 131 117 101 12 12
0.920907 0.400119 -0.055986 30 21 12 40 14
0.920257 0.400386 -0.044182 21 13 10 40 14
0.922661 0.403918 -0.070972 30 24 16 40 14
0.935821 0.412366 -0.056504 29 23 13 40 14
0.745008 0.433780 0.221893 115 102 82 15 1
0.751572 0.429656 0.217670 130 115 93 15 1
0.742240 0.426595 0.212397 156 141 114 15 1
0.785367 0.459435 0.235301 134 114 86 15 1
0.771298 0.462841 0.236630 126 105 81 15 1
0.751449 0.469193 0.236906 121 108 81 15 1
0.755981 0.300319 -0.271790 43 34 30 40 14
0.762523 0.328505 -0.264261 163 120 35 40 14
0.749686 0.301997 -0.256178 26 20 15 40 14
0.750166 0.289022 -0.255342 30 23 23 40 14
0.733997 0.293394 -0.255133 30 24 20 40 14
0.751928 0.321685 -0.255149 142 100 24 40 14
0.539614 -0.308783 -0.245393 252 245 245 39 5
0.535100 -0.312841 -0.257313 250 246 241 39 5
0.534324 -0.322678 -0.258759 233 197 190 39 5
0.906031 0.165788 0.013436 27 19 13 0 0
0.898760 0.152897 0.009926 22 16 12 0 0
0.914870 0.142614 -0.008513 27 22 15 1 10
0.898723 0.150589 0.001938 26 21 14 1 10
0.903760 0.137485 0.013513 20 16 12 0 0
0.916309 0.157252 -0.014803 24 19 15 40 14
0.631428 0.286039 -0.117916 59 41 7 0 0
0.625538 0.270921 -0.118195 50 33 4 0 0
0.640168 0.294159 -0.128159 108 83 11 0 0
0.639094 0.287281 -0.121750 80 59 11 0 0
0.919430 -0.051075 0.248970 198 179 147 15 1
0.919191 -0.068813 0.254216 193 175 145 15 1
0.918861 -0.052218 0.261458 216 195 165 15 1
0.918158 -0.028645 0.246525 222 199 166 15 1
0.911162 0.423866 -0.302029 65 53 39 12 12
0.905653 0.421408 -0.313857 63 57 35 12 12
0.897156 0.416772 -0.318282 58 48 29 12 12
0.894254 0.429073 -0.321243 60 50 31 12 12
0.910082 0.443880 -0.318412 62 53 32 12 12
0.899958 0.447587 -0.323606 63 56 35 12 12
0.652849 0.453365 0.230230 79 68 53 15 1
0.647478 0.455993 0.228807 46 40 29 15 1
0.902505 0.315804 -0.031381 26 18 10 40 14
0.903409 0.295905 -0.035526 30 22 15 40 14
0.903619 0.300137 -0.026068 25 16 12 40 14
0.779143 0.238994 0.225877 148 133 113 15 1
0.944852 0.212143 0.167931 171 154 134 1 10
0.943897 0.208221 0.148767 167 152 129 1 10
0.941868 0.197142 0.159164 168 156 130 1 10
0.947058 0.187561 0.168689 170 152 132 1 10
0.943820 0.185897 0.152401 169 156 130 1 10
0.936681 0.589566 -0.103683 138 125 107 1 10
0.741023 0.261146 -0.051460 40 28 19 40 14
0.741820 0.244208 -0.051014 40 29 21 40 14
0.763697 0.255888 -0.054224 34 25 18 40 14
0.766261 0.271908 -0.054296 45 36 23 40 14
0.772730 0.259398 -0.050317 35 27 14 40 14
0.747005 0.250926 -0.044847 44 36 24 40 14
0.747807 0.273812 -0.055006 49 38 27 40 14
0.679958 0.121361 0.176855 228 214 197 15 1
0.916889 0.491016 -0.288678 83 67 50 12 12
0.916528 0.479133 -0.308317 81 66 48 12 12
0.917258 0.506118 -0.280370 92 74 50 12 12
0.657986 -0.292199 -0.290988 213 177 161 12 12
0.676130 -0.293798 -0.297489 220 191 178 12 12
0.840918 0.096482 -0.197972 18 12 9 40 14
0.535254 0.046098 -0.317046 109 90 68 12 12
0.546116 0.020776 -0.317618 108 87 63 12 12
0.536822 0.030085 -0.314938 109 88 65 12 12
0.724205 0.304005 0.221706 204 185 154 15 1
0.727564 0.292657 0.221816 203 184 153 15 1
0.851073 0.222417 -0.207466 15 9 6 40 14
0.864936 0.200399 -0.211047 14 10 5 40 14
0.861898 0.219294 -0.209871 16 10 7 40 14
0.848427 0.204150 -0.209274 16 11 6 40 14
0.823196 0.436076 0.217841 144 127 99 15 1
0.810367 0.450092 0.216085 132 115 92 15 1
0.836726 0.445760 0.221305 114 96 72 15 1
0.824337 0.441889 0.221854 112 95 69 15 1
0.579699 0.125995 -0.318675 113 98 73 12 12
0.743820 0.188331 -0.115006 70 63 53 40 14
0.776972 0.186036 -0.118512 59 57 50 40 14
0.770156 0.181402 -0.127245 81 74 61 40 14
0.775395 0.171299 -0.127590 51 47 36 40 14
0.760440 0.185725 -0.128691 67 60 47 40 14
0.747137 0.193672 -0.126368 43 39 31 40 14
0.750660 0.153006 -0.126718 30 25 18 40 14
0.941653 -0.260411 -0.039261 249 248 244 1 10
0.940221 -0.249707 -0.023487 255 254 250 1 10
0.758156 0.163755 -0.054736 50 37 24 40 14
0.763623 0.151053 -0.050113 50 37 24 40 14
0.758011 0.141077 -0.053185 50 37 23 40 14
0.741546 0.156894 -0.050386 26 18 10 40 14
0.744188 0.136551 -0.050762 20 15 6 40 14
0.766533 0.139285 -0.050327 36 28 20 40 14
0.801903 0.316167 -0.286420 24 18 14 40 14
0.783301 0.323366 -0.282174 45 34 30 40 14
0.793709 0.308841 -0.281656 26 24 18 40 14
0.808318 0.308101 -0.279903 30 23 20 40 14
0.632830 0.583104 -0.327886 173 152 139 12 12
0.949089 -0.190920 0.146158 251 243 225 1 10
0.948849 -0.184465 0.131419 248 238 220 1 10
0.943866 -0.178296 0.121872 247 237 217 1 10
0.944857 -0.197526 0.123863 247 237 218 1 10
0.685381 0.420385 0.181353 237 230 213 15 1
0.605064 0.258540 -0.237873 48 40 36 0 0
0.610420 0.263699 -0.210112 75 55 52 0 0
0.595756 0.254976 -0.222463 44 36 34 0 0
0.612389 0.266021 -0.226721 51 43 34 0 0
0.607950 0.258751 -0.224709 49 38 34 0 0
0.698016 0.077801 -0.315047 102 83 65 12 12
0.920930 -0.257413 -0.189321 218 213 213 12 12
0.926021 -0.252564 -0.176599 247 237 227 12 12
0.660268 0.526728 0.269442 202 187 168 15 1
0.653641 0.527335 0.235092 214 202 180 15 1
0.667321 0.524976 0.233346 233 216 196 15 1
0.861759 0.177824 -0.304274 46 36 29 12 12
0.848777 0.181208 -0.307528 46 38 29 12 12
0.850085 0.154134 -0.307338 46 37 31 12 12
0.671139 0.037829 0.231604 207 186 153 15 1
0.675739 0.021369 0.231692 215 194 162 15 1
0.844719 0.331374 -0.227336 13 10 10 40 14
0.838780 0.325281 -0.221706 13 10 9 40 14
0.857341 0.482288 0.235075 137 121 96 15 1
0.866801 0.491126 0.241938 137 121 96 15 1
0.910992 0.375210 0.233515 189 167 129 15 1
0.906878 0.384108 0.229390 196 169 133 15 1
0.888061 0.360617 0.221825 184 161 123 1 10
0.901811 0.356237 0.214323 192 168 130 1 10
0.900055 0.359432 0.226748 179 156 120 15 1
0.907085 0.333000 0.229806 178 157 118 15 1
0.907361 0.375009 0.211240 194 170 131 1 10
0.892729 0.377675 0.220885 192 166 131 1 10
0.893084 0.361341 0.218275 189 166 127 1 10
0.683432 0.569705 0.169107 186 174 159 15 1
0.671794 0.576917 0.166536 165 155 137 15 1
0.677393 0.580138 0.166414 175 164 146 15 1
0.682777 0.560426 0.176803 219 210 193 15 1
0.682178 0.584277 0.177022 228 217 201 15 1
0.683698 0.277711 0.226329 203 184 154 15 1
0.705355 0.302271 0.223357 218 202 178 15 1
0.678664 0.294355 0.226831 218 203 177 15 1
0.703088 0.290323 0.224725 212 196 168 15 1
0.709107 0.273554 0.221518 217 200 175 15 1
0.716453 0.298336 0.219145 210 191 161 15 1
0.708505 0.286339 0.218294 237 222 201 15 1
0.695742 0.271801 0.215273 240 227 207 15 1
0.921354 0.090323 -0.036234 37 28 20 1 10
0.923538 0.086421 -0.073189 20 16 9 40 14
0.906706 0.092475 -0.069581 13 11 6 40 14
0.895862 0.096099 -0.067831 14 11 6 40 14
0.927489 0.084381 -0.064580 25 20 13 1 10
0.946178 -0.020405 0.143604 206 191 167 1 10
0.946905 -0.029821 0.165120 211 197 172 1 10
0.946726 0.004435 0.156164 207 193 167 1 10
0.947363 -0.030438 0.154693 208 192 166 1 10
0.949555 -0.020221 0.173380 206 195 169 1 10
0.797016 0.122562 -0.275851 26 17 15 40 14
0.779642 0.119164 -0.272289 27 21 14 40 14
0.792771 0.108113 -0.271845 39 31 25 40 14
0.781904 0.440650 0.221930 105 90 64 15 1
0.799358 0.440925 0.221750 106 91 64 15 1
0.803950 0.439604 0.218271 120 104 80 15 1
0.787075 0.437271 0.215032 136 119 94 15 1
0.794942 0.440751 0.213246 149 133 105 15 1
0.942084 0.479763 -0.123265 111 102 81 1 10
0.941845 0.482231 -0.153893 111 99 81 1 10
0.857595 0.202640 -0.267230 10 5 2 40 14
0.849046 0.225111 -0.267379 12 9 5 40 14
0.827892 0.605214 -0.325087 77 67 47 12 12
0.566458 -0.299826 -0.200500 242 234 234 39 5
0.554575 -0.302491 -0.179014 251 244 244 39 5
0.550738 -0.310426 -0.192515 254 251 252 39 5
0.909399 0.118929 0.043753 29 20 13 0 0
0.910461 0.108016 0.022820 29 19 13 0 0
0.913872 0.097722 0.044249 23 16 9 0 0
0.910089 0.104903 0.042642 24 17 11 0 0
0.690310 -0.099245 0.200416 221 220 209 15 1
0.682456 -0.089165 0.185587 249 242 224 15 1
0.683789 -0.106680 0.185749 251 246 231 15 1
0.679016 -0.109897 0.184039 251 246 231 15 1
0.666686 -0.094928 0.185795 255 255 242 15 1
0.685064 -0.113731 0.192960 254 253 244 15 1
0.652660 -0.221317 0.127172 220 205 183 39 5
0.658520 -0.237869 0.128104 221 206 184 39 5
0.685476 -0.212439 0.128053 213 197 174 39 5
0.666289 -0.218378 0.126475 214 200 176 39 5
0.685711 -0.235811 0.134023 207 191 165 39 5
0.623297 -0.214051 0.133643 211 195 170 39 5
0.881578 0.245311 -0.198618 17 9 8 40 14
0.896667 0.233742 -0.197242 19 12 7 40 14
0.873861 0.230693 -0.199149 12 8 4 40 14
0.616205 -0.327557 -0.222674 233 85 89 40 20
0.627605 -0.320075 -0.224998 194 48 55 40 20
0.623948 -0.311062 -0.224407 233 87 106 40 20
0.936038 0.462368 0.017817 101 91 68 1 10
0.936479 0.457864 -0.013874 79 71 54 1 10
0.937808 0.468139 -0.012398 105 93 70 1 10
0.817545 0.216710 -0.054178 19 14 10 40 14
0.815840 0.205261 -0.055811 24 18 14 40 14
0.809208 0.213819 -0.050984 21 14 11 40 14
0.836203 0.192855 -0.053823 16 12 7 40 14
0.870790 0.390189 -0.045509 29 21 12 40 14
0.784988 0.182465 -0.311005 52 45 40 12 12
0.838029 0.644015 -0.328060 97 81 61 12 12
0.866313 0.617036 -0.326511 92 78 56 12 12
0.848330 0.610351 -0.325394 76 63 46 12 12
0.873228 0.112503 -0.283420 22 16 11 40 14
0.854131 0.111299 -0.280683 21 16 11 40 14
0.861420 0.103427 -0.282348 23 19 11 40 14
0.850498 0.099291 -0.278998 20 14 10 40 14
0.832034 0.107025 -0.277321 20 13 11 40 14
0.736526 0.227646 -0.124279 60 53 43 40 14
0.734254 0.226399 -0.114736 85 75 67 40 14
0.728502 0.227246 -0.118039 85 76 66 40 14
0.737164 0.212409 -0.115508 76 71 62 40 14
0.732492 0.209229 -0.118138 78 68 61 40 14
0.739523 0.196426 -0.122974 69 62 49 40 14
0.946757 -0.329679 0.081910 253 250 231 1 10
0.947884 -0.311900 0.092734 255 248 230 1 10
0.851032 0.065088 -0.315417 86 66 48 12 12
0.544554 0.319498 -0.242745 202 168 104 0 0
0.548248 0.331408 -0.258293 189 149 103 0 0
0.647215 0.034330 0.194172 254 253 235 15 1
0.646224 0.022074 0.220263 255 253 236 15 1
0.647881 0.042636 0.190581 255 253 236 15 1
0.655482 0.025175 0.186038 255 250 232 15 1
0.816106 0.338926 -0.216435 77 60 45 40 14
0.816036 0.329175 -0.217241 36 28 20 40 14
0.794119 0.338634 -0.209166 43 35 26 40 14
0.939870 0.432493 -0.049555 92 84 63 1 10
0.935862 0.416627 -0.078315 30 24 15 1 10
0.942169 0.430055 -0.065723 97 85 64 1 10
0.541170 0.317107 -0.319129 180 168 146 0 0
0.540239 0.295824 -0.311714 145 135 123 0 0
0.537250 0.293696 -0.319100 118 103 81 0 0
0.694395 0.161459 -0.311205 138 126 115 12 12
0.691869 0.150857 -0.312306 78 67 56 12 12
0.728166 0.522397 0.249845 102 88 73 15 1
0.762175 0.523242 0.257315 62 54 46 15 1
0.771341 0.526562 0.270900 156 138 117 15 1
0.908990 -0.061077 0.237513 204 180 146 15 1
0.896384 -0.045520 0.230075 196 173 140 15 1
0.890226 -0.065528 0.229933 193 172 137 15 1
0.902949 -0.052884 0.226285 214 190 158 15 1
0.887451 -0.055245 0.223715 226 204 174 15 1
0.899047 -0.069419 0.222518 213 190 160 15 1
0.908437 -0.048154 0.236552 209 189 159 15 1
0.916608 -0.055238 0.242821 212 191 158 15 1
0.906223 -0.040962 0.224719 215 194 165 15 1
0.849433 0.132166 -0.308146 17 12 13 12 12
0.684375 -0.310076 -0.298582 215 182 174 12 12
0.749618 0.168097 -0.114681 90 82 71 40 14
0.771060 0.388554 -0.044155 69 57 44 40 14
0.746383 0.379335 -0.044661 56 46 35 40 14
0.766948 0.384339 -0.042908 56 46 35 40 14
0.738228 0.159380 -0.115265 92 75 65 40 14
0.762137 0.149347 -0.118059 83 78 56 40 14
0.737255 0.155352 -0.121997 73 64 54 40 14
0.749724 0.140059 -0.126704 87 85 67 40 14
0.765276 0.157457 -0.125944 53 39 29 40 14
0.514000 -0.225400 0.133014 226 212 194 39 5
0.545401 -0.276994 0.134010 235 227 204 39 5
0.573049 -0.276709 0.133856 235 224 202 39 5
0.530988 -0.288881 -0.140110 225 217 218 39 5
0.530835 -0.290348 -0.127900 218 205 205 39 5
0.534635 -0.293738 -0.119819 228 218 217 39 5
0.523535 -0.287624 -0.123172 218 206 204 39 5
0.850940 0.386248 -0.252525 10 7 10 40 14
0.867533 0.385766 -0.248762 11 7 5 40 14
0.533689 -0.295185 -0.146224 227 215 217 39 5
0.877369 0.381206 -0.262356 9 6 6 40 14
0.879632 0.382153 -0.246670 12 7 4 40 14
0.943573 0.563475 0.130098 162 149 131 1 10
0.936507 0.565279 0.122143 149 140 122 1 10
0.935453 0.538740 0.121344 148 136 117 1 10
0.944196 0.541074 0.129419 166 156 137 1 10
0.556002 -0.012183 0.111806 210 201 178 39 5
0.560615 -0.029487 0.112904 210 202 185 39 5
0.948159 -0.202683 0.131478 251 243 225 1 10
0.945108 -0.215402 0.126304 247 238 220 1 10
0.946015 -0.232110 0.126462 248 239 220 1 10
0.949669 -0.204745 0.149142 252 243 225 1 10
0.721538 0.294609 -0.312451 110 101 93 12 12
0.683868 0.270496 -0.316837 136 125 117 12 12
0.694337 0.282147 -0.312646 113 107 93 12 12
0.748158 -0.272026 0.242700 130 108 83 15 1
0.767712 -0.261026 0.249698 66 52 52 15 1
0.746422 -0.254384 0.249802 91 75 71 15 1
0.755207 0.382421 -0.188848 48 38 26 1 10
0.748028 0.373965 -0.187193 42 32 21 40 14
0.727104 0.371823 -0.196973 54 42 29 1 10
0.595706 0.155494 -0.319067 115 96 76 12 12
0.579424 0.174930 -0.319710 114 96 74 12 12
0.526979 0.008640 0.110098 136 121 98 0 0
0.908207 0.244984 -0.122430 19 14 7 1 10
0.906414 0.240545 -0.126011 16 12 7 40 14
0.855364 -0.200900 0.253842 60 47 48 15 1
0.848397 -0.219958 0.253901 60 45 51 15 1
0.904360 0.066353 0.238344 198 170 131 15 1
0.778440 0.387892 0.099225 80 67 54 1 10
0.770807 0.388804 0.089085 78 64 54 1 10
0.775964 0.383764 0.089966 72 58 52 1 10
0.767426 0.391880 0.094481 75 61 49 1 10
0.755867 0.389394 0.095704 80 67 54 1 10
0.758470 0.384277 0.095316 73 58 48 1 10
0.781660 0.383204 0.093075 70 55 46 1 10
0.838907 0.346665 -0.264125 38 31 20 40 14
0.815191 0.328132 -0.263084 70 59 41 40 14
0.825013 0.353273 -0.263116 115 93 44 40 14
0.934624 0.562118 0.111211 144 131 112 1 10
0.936067 0.569765 0.100848 144 131 112 1 10
0.936451 0.537364 0.101297 140 128 105 1 10
0.936219 0.578698 0.088010 141 131 107 1 10
0.728613 0.291133 -0.186013 23 21 16 40 14
0.750803 0.286003 -0.186285 48 40 30 40 14
0.735547 0.294856 -0.192488 39 26 23 40 14
0.744936 0.278693 -0.185899 52 41 33 40 14
0.908101 0.173345 0.233926 97 79 51 15 1
0.911807 0.184859 0.235520 40 33 26 15 1
0.899435 0.177250 0.227060 87 71 41 15 1
0.903011 0.186318 0.227775 60 47 32 15 1
0.756271 0.186245 0.260949 37 33 24 15 1
0.614029 -0.036488 0.116355 208 196 173 39 5
0.756510 0.194290 0.265218 57 50 39 15 1
0.649918 -0.025112 0.124479 188 174 153 39 5
0.664725 -0.017495 0.115554 196 185 163 39 5
0.633287 -0.018614 0.115916 204 194 173 39 5
0.757816 0.182901 0.248990 36 29 20 15 1
0.753162 0.182428 0.266745 46 38 24 15 1
0.753542 0.175566 0.242472 47 37 24 15 1
0.658480 -0.039074 0.126062 179 166 143 39 5
0.940457 0.335079 0.185243 184 174 156 1 10
0.923448 0.338324 0.198057 139 126 105 1 10
0.927184 0.316915 0.198090 168 149 123 1 10
0.933515 0.323956 0.190059 136 124 109 1 10
0.924207 0.330005 0.193786 133 124 109 1 10
0.933938 0.342933 0.192263 132 122 108 1 10
0.912629 0.268767 0.240379 163 140 105 15 1
0.913289 0.276037 0.256952 166 142 107 15 1
0.723792 -0.324972 0.238298 152 132 101 15 1
0.721628 -0.339482 0.238492 177 159 133 15 1
0.730505 -0.335221 0.242308 159 140 110 15 1
0.596752 -0.291599 -0.137568 243 245 246 39 5
0.605971 -0.293756 -0.121225 237 233 237 39 5
0.590299 -0.290551 -0.115388 191 186 189 39 5
0.614232 -0.295285 -0.142314 246 243 245 39 5
0.602964 -0.289788 -0.132436 238 232 236 39 5
0.587369 -0.290768 -0.129031 236 235 236 39 5
0.941672 0.516952 0.165184 148 135 117 1 10
0.936038 0.512169 0.177001 173 164 144 1 10
0.938968 0.538746 0.155556 158 147 128 1 10
0.940727 0.510654 0.169796 172 161 141 1 10
0.516482 -0.279924 -0.090286 207 199 198 39 5
0.504058 -0.280187 -0.079327 188 185 184 39 5
0.509644 -0.284079 -0.107530 241 236 235 39 5
0.514303 -0.282017 -0.094848 227 215 210 39 5
0.498260 -0.284616 -0.098592 222 210 208 39 5
0.523710 -0.289881 -0.093744 233 223 219 39 5
0.523417 -0.289755 -0.073235 235 224 221 39 5
0.496242 -0.284221 -0.082635 237 225 226 39 5
0.773597 0.324122 -0.202253 39 30 20 40 14
0.766593 0.323460 -0.198013 31 25 21 40 14
0.760750 0.299619 -0.199257 42 30 25 40 14
0.733079 0.296526 -0.182595 28 24 17 40 14
0.770843 0.306580 -0.202552 34 26 19 40 14
0.754813 0.303814 -0.200231 36 27 23 40 14
0.759711 0.319304 -0.198153 57 44 20 40 14
0.758390 0.324746 -0.198285 102 85 44 40 14
0.745090 0.320672 -0.194450 40 33 19 40 14
0.735506 0.154336 -0.046371 32 25 15 40 14
0.937489 0.451035 -0.024927 101 91 72 1 10
0.936772 0.455812 -0.035391 80 70 57 1 10
0.940812 0.445557 -0.050849 91 83 65 1 10
0.938465 0.470509 -0.038481 103 95 74 1 10
0.616352 -0.185320 0.132809 225 215 192 39 5
0.571604 -0.188598 0.132941 226 215 196 39 5
0.549928 -0.194911 0.132761 226 216 196 39 5
0.936547 -0.077334 0.213545 118 113 104 1 10
0.577143 -0.200524 0.122709 231 220 198 39 5
0.732918 0.193990 -0.046001 32 24 16 40 14
0.818567 0.201902 -0.131959 49 42 34 40 14
0.830017 0.207343 -0.134479 47 41 32 40 14
0.828240 0.231375 -0.132836 48 42 32 40 14
0.817215 0.216438 -0.122903 40 36 27 40 14
0.906432 0.217693 0.035420 28 21 13 0 0
0.906561 0.215117 0.019393 28 20 13 0 0
0.907853 0.192653 0.035625 28 20 15 0 0
0.907726 0.203864 0.053497 33 22 15 0 0
0.578083 0.619228 -0.328924 156 143 135 12 12
0.597180 0.653411 -0.329627 160 139 131 12 12
0.937199 0.614569 0.175421 175 166 148 1 10
0.938157 0.619610 0.151155 164 155 137 1 10
0.941549 0.607611 0.162876 157 147 129 1 10
0.938215 0.642945 0.150263 166 154 138 1 10
0.943709 0.638116 0.160201 155 145 127 1 10
0.894080 0.208734 0.009300 27 19 15 0 0
0.891234 0.204891 0.004633 26 19 12 1 10
0.894265 0.221924 0.004684 26 19 13 1 10
0.937272 -0.234086 0.085059 251 241 221 1 10
0.944256 -0.228249 0.092402 254 245 227 1 10
0.645919 0.611858 0.199817 212 204 184 15 1
0.646916 0.589628 0.178631 213 206 185 15 1
0.646001 0.605013 0.178441 215 203 184 15 1
0.646390 0.592794 0.206317 217 207 189 15 1
0.908793 0.346948 -0.113121 24 16 11 1 10
0.906128 0.334443 -0.126060 19 15 8 1 10
0.901725 0.346677 -0.129995 33 28 20 40 14
0.897074 0.315323 -0.129780 23 20 13 40 14
0.939955 0.024776 0.084830 160 143 111 1 10
0.937291 0.018260 0.063920 154 139 108 1 10
0.936545 0.015576 0.044690 147 129 102 1 10
0.935575 -0.001753 0.072669 156 142 109 1 10
0.925371 0.526863 -0.210947 108 90 59 12 12
0.940110 0.057899 0.094015 166 150 123 1 10
0.940897 0.041286 0.091567 165 149 122 1 10
0.941095 0.040027 0.118480 170 153 125 1 10
0.927546 -0.326342 -0.307323 182 155 133 12 12
0.936922 -0.321585 -0.307662 157 134 116 12 12
0.939017 -0.310707 -0.315089 164 143 130 12 12
0.939770 -0.305517 -0.315149 121 117 115 12 12
0.942765 -0.297365 -0.322161 127 123 125 12 12
0.910725 0.067726 0.248808 219 189 149 15 1
0.918400 0.067703 0.256749 85 73 60 15 1
0.911948 0.062944 0.254628 215 190 147 15 1
0.846172 0.348889 -0.066323 33 25 18 40 14
0.834646 0.346741 -0.063650 34 28 18 40 14
0.808656 0.349619 -0.054567 31 26 16 40 14
0.841632 0.335127 -0.058950 28 20 17 40 14
0.835649 0.330638 -0.058270 30 25 17 40 14
0.820217 0.329980 -0.056387 30 24 16 40 14
0.832511 0.333146 -0.060463 28 24 14 40 14
0.836763 0.327651 -0.062044 27 22 13 40 14
0.825988 0.325298 -0.059800 37 30 21 40 14
0.937467 0.603544 -0.132683 141 128 107 1 10
0.937707 0.611598 -0.154474 139 126 107 1 10
0.921667 0.051701 -0.262040 55 46 30 12 12
0.921364 0.029887 -0.264355 69 54 37 12 12
0.920691 0.059228 -0.249267 55 43 28 12 12
0.889647 0.604133 -0.324138 40 34 21 12 12
0.888448 0.589272 -0.324191 59 49 33 12 12
0.855589 0.583954 -0.323232 40 31 25 12 12
0.515464 -0.219461 0.132581 227 216 196 39 5
0.618103 0.399661 -0.324312 124 103 82 12 12
0.933637 0.003890 -0.005533 134 118 93 1 10
0.935566 0.007231 0.017219 133 121 95 1 10
0.939788 0.033109 0.012581 134 118 93 1 10
0.904733 0.105055 -0.269846 16 12 8 40 14
0.898385 0.108566 -0.294004 22 17 11 12 12
0.698775 -0.054776 0.233823 211 187 157 15 1
0.674052 -0.098556 0.236203 212 190 160 15 1
0.685773 -0.067848 0.235230 212 190 160 15 1
0.836575 0.282846 -0.312518 28 24 19 12 12
0.856032 0.279884 -0.309464 27 23 21 12 12
0.845527 0.268258 -0.310713 28 24 24 12 12
0.846077 0.247344 -0.310506 26 25 23 12 12
0.858584 0.265531 -0.306189 31 26 21 12 12
0.587809 -0.214425 0.123027 232 222 201 39 5
0.935295 -0.226104 0.081512 231 218 195 1 10
0.939471 -0.222980 0.070623 204 187 164 1 10
0.935444 -0.208274 0.080504 239 226 205 1 10
0.935382 -0.202272 0.071994 197 181 158 1 10
0.869718 0.393689 0.090243 65 49 36 1 10
0.854085 0.391167 0.095241 70 56 42 1 10
0.876039 0.387653 0.092546 60 47 34 1 10
0.855587 0.391947 0.074575 62 50 40 1 10
0.866848 0.394423 0.083068 65 53 43 1 10
0.867027 0.125353 -0.134225 57 56 43 40 14
0.861829 0.122341 -0.129912 38 37 26 40 14
0.832921 0.128235 -0.126472 50 43 33 40 14
0.854320 0.119121 -0.129970 52 46 35 40 14
0.917322 0.574792 -0.278282 95 78 60 12 12
0.914574 0.552157 -0.275360 95 79 59 12 12
0.915795 0.552980 -0.296837 96 78 57 12 12
0.928726 0.036581 -0.197095 81 66 37 12 12
0.940056 0.069566 -0.180895 82 64 40 12 12
0.929900 0.056641 -0.198949 71 58 29 12 12
0.940974 0.055635 -0.183686 85 68 39 12 12
0.920075 -0.291530 0.256045 160 139 105 15 1
0.918535 -0.308655 0.266218 160 137 103 15 1
0.835752 0.384559 -0.046373 25 18 11 40 14
0.916448 -0.297276 0.248583 151 128 99 15 1
0.908198 -0.315706 0.244002 146 123 91 15 1
0.849924 0.353430 -0.130645 33 31 24 40 14
0.858435 0.333769 -0.137301 38 36 30 40 14
0.851826 0.336179 -0.131718 34 33 25 40 14
0.880119 0.345443 -0.141964 36 33 25 40 14
0.850698 0.360886 -0.138104 44 39 35 40 14
0.650019 0.387415 0.213687 222 209 185 15 1
0.649884 0.360467 0.215901 224 210 188 15 1
0.649052 0.348810 0.212194 238 228 210 15 1
0.609029 -0.243466 0.134837 225 209 187 39 5
0.640639 -0.251222 0.127611 228 216 194 39 5
0.613265 -0.236461 0.126464 228 216 194 39 5
0.645048 -0.249778 0.135256 219 207 180 39 5
0.652118 -0.272650 0.134016 225 212 186 39 5
0.771824 0.084933 -0.310554 56 44 31 12 12
0.764656 0.077537 -0.311462 85 67 52 12 12
0.812381 0.095232 -0.310095 26 21 16 12 12
0.685011 -0.142893 0.193656 253 251 240 15 1
0.660340 -0.158752 0.189615 255 253 239 15 1
0.680131 -0.166065 0.185270 255 253 244 15 1
0.663380 -0.172979 0.189497 255 250 237 15 1
0.610184 0.230899 -0.326672 83 68 46 12 12
0.587519 0.232096 -0.326306 85 73 50 12 12
0.936318 0.579788 0.175639 170 159 141 1 10
0.935701 0.570209 0.181318 170 159 142 1 10
0.937924 0.548132 0.175651 170 159 141 1 10
0.940945 0.575521 0.164256 170 159 141 1 10
0.753803 0.037262 -0.315884 111 90 68 12 12
0.708264 0.043957 -0.317639 111 90 67 12 12
0.940756 0.538768 0.165983 152 141 123 1 10
0.829110 0.090696 -0.309283 37 28 23 12 12
0.796443 0.082926 -0.309392 36 27 23 12 12
0.707038 0.012239 -0.315119 111 92 72 12 12
0.816657 0.079177 -0.312493 83 66 49 12 12
0.790474 0.072018 -0.312915 86 69 48 12 12
0.938059 0.571885 0.154056 156 146 129 1 10
0.939423 0.559205 0.153035 156 145 128 1 10
0.935927 0.476937 0.083975 125 113 91 1 10
0.934724 0.483982 0.105969 138 123 104 1 10
0.934119 0.491679 0.112831 153 139 120 1 10
0.913998 0.418105 0.241729 213 191 157 15 1
0.940716 0.632966 0.171631 171 159 142 1 10
0.700421 0.588675 -0.326903 140 120 99 12 12
0.821132 0.317677 -0.293292 23 16 14 40 14
0.813218 0.337509 -0.294470 86 62 20 40 14
0.824205 0.333271 -0.295258 39 30 25 40 14
0.677664 0.332256 0.172259 173 163 147 15 1
0.664227 0.306277 0.177893 194 184 168 15 1
0.711365 0.094398 -0.313858 86 72 54 12 12
0.912452 0.420788 -0.236976 65 52 34 12 12
0.865466 0.186225 -0.267911 12 8 5 40 14
0.818878 0.183077 -0.261713 13 9 5 40 14
0.856181 0.174169 -0.267233 13 9 6 40 14
0.950451 -0.322788 -0.021767 254 254 241 1 10
0.951521 -0.344543 -0.016842 255 250 237 1 10
0.952235 -0.357320 -0.033636 255 255 244 1 10
0.869637 0.198651 -0.127742 25 22 17 40 14
0.949109 -0.143361 0.165030 227 215 191 1 10
0.948505 -0.109752 0.161335 224 213 192 1 10
0.516444 -0.317338 -0.232598 251 241 240 39 5
0.501042 -0.320186 -0.212887 240 213 212 39 5
0.504098 -0.314748 -0.204034 250 237 237 39 5
0.813417 0.344326 -0.062998 40 30 24 40 14
0.907818 0.131693 0.088459 28 21 13 1 10
0.929681 0.132235 0.113863 112 98 78 1 10
0.813420 0.335740 -0.060935 39 32 22 40 14
0.804642 0.346565 -0.060927 43 34 25 40 14
0.781972 0.350763 -0.051959 39 30 19 40 14
0.794226 0.353687 -0.058866 43 34 23 40 14
0.905771 0.155757 0.083579 38 26 15 1 10
0.909872 0.132832 0.100210 41 29 20 1 10
0.587798 -0.292739 -0.273785 229 203 192 39 5
0.582664 -0.293230 -0.290183 250 228 220 39 5
0.608619 -0.290322 -0.299002 253 240 240 12 12
0.593406 -0.292017 -0.296578 243 215 196 39 5
0.579994 -0.297376 -0.304326 246 219 199 12 12
0.610364 -0.292249 -0.269970 220 183 167 39 5
0.646194 -0.170135 0.223547 255 255 252 15 1
0.645665 -0.150273 0.223219 255 255 250 15 1
0.648145 -0.154767 0.230091 255 255 250 15 1
0.836860 0.162465 -0.057761 23 17 12 40 14
0.824206 0.159915 -0.054291 19 18 11 40 14
0.805067 0.154646 -0.053621 26 17 12 40 14
0.827526 0.161872 -0.058687 26 20 13 40 14
0.656595 0.146120 -0.316187 108 92 67 12 12
0.656046 0.098671 -0.316745 107 90 62 12 12
0.656997 0.131419 -0.317898 105 92 69 12 12
0.899908 0.151812 -0.128892 31 26 18 40 14
0.913202 0.129475 -0.115509 26 18 13 1 10
0.913301 0.146106 -0.121106 16 12 6 1 10
0.907903 0.140787 -0.126663 20 14 8 40 14
0.743755 0.182142 0.254252 35 27 21 15 1
0.718037 0.179942 0.257984 33 26 18 15 1
0.738109 0.182992 0.265720 44 35 24 15 1
0.917619 0.215621 -0.254192 23 16 14 12 12
0.911155 0.222966 -0.238739 46 34 28 40 14
0.912644 0.189709 -0.243705 33 25 19 12 12
0.913651 0.188978 -0.266521 18 15 12 40 14
0.910777 0.203552 -0.238795 38 31 24 12 12
0.667995 0.367683 0.223941 196 180 151 15 1
0.604999 0.528388 -0.326682 163 142 119 12 12
0.933102 0.412418 0.073386 63 50 36 1 10
0.924162 0.396497 0.057020 67 56 48 1 10
0.920777 0.404611 0.078080 62 47 37 1 10
0.939567 0.409171 0.056818 75 66 52 40 14
0.815984 0.339908 -0.128781 49 44 34 40 14
0.794606 0.334009 -0.285814 66 37 26 40 14
0.810761 0.333501 -0.130566 53 48 39 40 14
0.847229 0.323688 -0.135573 42 41 31 40 14
0.809280 0.344655 -0.289262 160 126 73 40 14
0.783541 0.343882 -0.280415 33 26 22 40 14
0.828320 0.345074 -0.134399 55 48 35 40 14
0.819470 0.357499 -0.132824 55 50 42 40 14
0.823388 0.342288 -0.131396 58 54 46 40 14
0.794178 0.338943 -0.273352 116 97 63 40 14
0.794151 0.332978 -0.269585 123 84 28 40 14
0.800364 0.344156 -0.287187 86 78 74 40 14
0.638845 -0.000176 -0.314196 84 71 53 12 12
0.610182 0.000887 -0.314835 96 81 62 12 12
0.601407 0.000092 -0.316172 97 81 62 12 12
0.876097 0.285031 -0.306296 30 24 19 12 12
0.882449 0.261211 -0.303043 30 23 20 12 12
0.824868 -0.098058 0.233035 185 162 128 15 1
0.913532 0.313810 -0.103608 29 22 19 1 10
0.912771 0.316432 -0.087096 29 22 19 40 14
0.907083 0.326377 -0.081051 28 20 18 40 14
0.913008 0.286805 -0.104157 22 14 9 1 10
0.904488 0.278498 -0.110553 21 13 9 1 10
0.906494 0.294801 -0.079124 17 13 7 40 14
0.795454 0.371829 -0.313898 25 19 16 12 12
0.814039 0.373694 -0.312112 37 31 27 12 12
0.783473 0.378031 -0.307953 15 11 5 12 12
0.816000 0.385963 -0.314226 31 24 17 12 12
0.800672 0.382068 -0.309841 15 10 4 12 12
0.688845 -0.081478 0.200011 231 228 211 15 1
0.688291 -0.071662 0.198810 242 239 221 15 1
0.564073 -0.004721 0.111405 192 180 153 39 5
0.589293 -0.003527 0.112270 186 172 147 39 5
0.886249 0.142813 -0.140484 47 42 32 40 14
0.719653 -0.020322 0.232611 205 184 154 15 1
0.691376 -0.012464 0.233051 209 188 156 15 1
0.738433 -0.005501 0.232160 206 185 156 15 1
0.703746 -0.254130 0.130021 210 194 171 39 5
0.693825 -0.261031 0.133948 224 210 186 39 5
0.689232 -0.267498 0.129825 223 207 180 39 5
0.920707 -0.301392 -0.214421 173 150 134 12 12
0.550428 -0.303105 -0.069893 245 241 241 39 5
0.921348 -0.285286 -0.230908 207 180 158 12 12
0.922681 -0.294690 -0.234202 189 163 136 12 12
0.919407 -0.312870 -0.216718 206 180 156 12 12
0.940962 0.005950 0.119389 188 171 142 1 10
0.906890 0.107359 0.082776 22 17 10 1 10
0.910186 0.110937 0.099880 34 24 16 1 10
0.916184 0.129876 0.106151 41 31 21 1 10
0.913669 0.101194 0.098417 40 27 17 1 10
0.646215 0.633332 0.178003 188 177 158 15 1
0.648570 0.656812 0.173887 191 179 163 15 1
0.658009 0.650160 0.169367 160 149 131 15 1
0.884299 0.197783 -0.214239 19 15 10 40 14
0.902297 0.171461 -0.218340 30 24 19 40 14
0.886830 0.181299 -0.213035 28 21 16 40 14
0.885885 0.165944 -0.210933 15 11 7 40 14
0.826285 -0.031697 0.242737 170 152 129 15 1
0.920644 -0.257490 0.234349 127 106 89 15 1
0.909714 -0.260771 0.232453 152 130 106 15 1
0.905219 -0.270257 0.233812 110 90 78 15 1
0.907577 -0.279465 0.238318 123 101 81 15 1
0.766113 0.369569 0.018702 53 45 40 0 0
0.757318 0.391697 0.021439 73 66 51 40 14
0.766720 0.388940 0.028505 84 72 58 40 14
0.754741 0.383200 0.029924 65 53 45 0 0
0.866447 0.239780 -0.304745 32 25 20 12 12
0.829538 0.525692 0.263420 109 93 76 15 1
0.855876 0.523288 0.254217 57 49 39 15 1
0.870957 0.526026 0.262125 70 58 46 15 1
0.844701 0.525475 0.244116 73 67 54 15 1
0.802453 -0.271121 0.241548 133 111 90 15 1
0.785737 -0.274501 0.237529 135 114 92 15 1
0.616914 -0.293185 -0.118637 253 250 251 39 5
0.617843 -0.295478 -0.134706 252 248 250 39 5
0.638038 -0.296287 -0.144046 254 251 253 39 5
0.628626 -0.294595 -0.135600 252 249 252 39 5
0.899883 0.252538 0.223294 132 114 85 15 1
0.907390 0.242479 0.238176 110 94 69 15 1
0.909243 0.251382 0.212672 147 129 100 1 10
0.714586 -0.180977 0.252526 49 35 49 15 1
0.728017 -0.193996 0.249827 57 45 67 15 1
0.807672 0.320323 -0.213618 39 26 24 40 14
0.823930 0.321397 -0.216261 22 21 15 40 14
0.832775 0.317616 -0.210715 25 19 15 40 14
0.834762 0.311895 -0.206445 38 25 5 40 14
0.820472 0.313384 -0.207451 20 16 13 40 14
0.516744 -0.277559 -0.063391 223 215 213 39 5
0.518877 -0.288978 -0.057535 244 237 234 39 5
0.522453 -0.293797 -0.066351 236 227 225 39 5
0.771564 -0.162966 0.245855 59 47 56 15 1
0.778354 -0.175783 0.244365 59 44 57 15 1
0.758400 -0.162900 0.245931 49 37 51 15 1
0.755181 -0.173057 0.245500 52 41 53 15 1
0.829077 0.416579 -0.323100 74 59 46 12 12
0.799880 0.392912 -0.320441 57 45 33 12 12
0.628439 0.276817 -0.264177 87 75 71 0 0
0.929641 0.216514 0.112779 119 106 89 1 10
0.913627 0.188525 0.106080 91 78 61 1 10
0.904982 0.202632 0.085930 42 30 19 1 10
0.905611 0.208869 0.096762 56 42 28 1 10
0.910301 0.216800 0.102689 80 67 50 1 10
0.929754 0.623145 -0.213601 113 95 65 12 12
0.819601 0.319363 -0.058203 36 26 19 40 14
0.681215 -0.217399 0.189738 255 251 242 15 1
0.682940 -0.241904 0.196302 255 255 255 15 1
0.688162 -0.214849 0.201670 253 252 242 15 1
0.688537 -0.211928 0.208435 191 189 184 15 1
0.682570 -0.204443 0.193827 255 254 240 15 1
0.688913 -0.233299 0.203901 243 239 221 15 1
0.942830 -0.263377 -0.056895 253 250 232 1 10
0.944192 -0.257146 -0.062703 248 242 226 1 10
0.947253 -0.268145 -0.078467 254 248 233 1 10
0.946323 -0.272773 -0.061834 254 248 233 1 10
0.948147 -0.279064 -0.067245 253 253 244 1 10
0.915827 0.080435 -0.231438 48 39 26 12 12
0.917759 0.075331 -0.222233 30 22 12 12 12
0.920449 0.068626 -0.230392 44 31 22 12 12
0.903693 0.088125 -0.213232 17 12 9 40 14
0.912436 0.080450 -0.207824 22 17 12 40 14
0.899664 0.087176 -0.206789 13 11 5 40 14
0.910399 0.083034 -0.218868 22 13 11 12 12
0.647736 -0.314767 0.213497 255 255 255 15 1
0.647167 -0.320950 0.224015 255 255 255 15 1
0.649598 -0.321196 0.237021 255 255 252 15 1
0.951983 -0.207587 0.174560 249 243 227 1 10
0.949103 -0.220053 0.165774 253 246 228 1 10
0.954694 -0.194859 0.180973 234 220 198 1 10
0.703301 -0.015240 0.117620 183 170 146 39 5
0.819876 -0.259010 0.254636 130 113 87 15 1
0.609384 0.266074 -0.153337 58 47 22 0 0
0.589738 0.249489 -0.146690 18 15 7 0 0
0.607146 0.258365 -0.181265 24 16 10 0 0
0.608652 0.265095 -0.186422 24 16 10 0 0
0.606380 0.258125 -0.165992 65 34 6 0 0
0.611176 0.257287 -0.150746 44 20 8 0 0
0.818078 -0.260106 0.249819 86 69 65 15 1
0.591641 0.255021 -0.161353 56 36 18 0 0
0.795494 0.094955 -0.261026 28 22 15 40 14
0.808867 0.093266 -0.268796 28 21 17 40 14
0.827241 0.097433 -0.267125 25 19 12 40 14
0.779787 0.330857 -0.121462 53 48 39 40 14
0.789336 0.352212 -0.128486 67 63 51 40 14
0.794518 0.344440 -0.129841 69 65 51 40 14
0.808534 0.349643 -0.125868 52 48 38 40 14
0.804214 0.339557 -0.125780 62 58 46 40 14
0.793946 0.331710 -0.127990 67 63 51 40 14
0.949844 -0.040330 0.180067 208 194 172 1 10
0.940355 -0.005727 0.195174 206 192 172 1 10
0.949091 -0.017512 0.179594 210 194 172 1 10
0.940816 -0.027506 0.192145 231 222 204 1 10
0.936199 -0.020558 0.203023 184 172 150 1 10
0.940834 -0.037800 0.207770 148 138 122 1 10
0.646642 0.167893 0.198889 253 243 231 15 1
0.647229 0.163356 0.186614 253 243 231 15 1
0.645231 0.147756 0.216083 254 248 232 15 1
0.657865 0.169739 0.180602 251 239 224 15 1
0.705317 -0.115786 0.125784 214 200 177 39 5
0.704658 -0.129455 0.125932 216 202 178 39 5
0.700551 -0.119198 0.122044 192 176 150 39 5
0.693314 -0.134447 0.123062 195 180 153 39 5
0.830076 0.389609 -0.310705 52 42 30 12 12
0.838812 0.394304 -0.320226 40 32 19 12 12
0.845970 0.395385 -0.312664 47 38 27 12 12
0.818692 0.402519 -0.322644 75 60 44 12 12
0.562177 0.336319 -0.310350 148 119 93 0 0
0.936050 0.552581 0.183840 128 115 98 1 10
0.930550 0.566145 0.185972 128 115 98 1 10
0.909946 0.256198 -0.081601 18 12 8 40 14
0.914101 0.263400 -0.089315 22 18 13 40 14
0.818711 -0.127970 0.240437 83 65 56 15 1
0.913085 0.287118 -0.085309 21 17 13 40 14
0.834661 -0.147889 0.240174 151 132 110 15 1
0.914352 0.257339 -0.102828 30 23 17 1 10
0.546176 0.278036 -0.245733 234 198 56 0 0
0.887161 0.050904 -0.315880 90 70 52 12 12
0.920334 0.040079 -0.305713 75 59 40 12 12
0.915531 0.038742 -0.310323 84 62 45 12 12
0.904929 0.032091 -0.313266 91 70 50 12 12
0.944581 0.130802 0.126017 224 210 192 1 10
0.945202 0.124994 0.136597 224 210 192 1 10
0.942427 0.111346 0.125406 181 166 145 1 10
0.937232 0.099178 0.120727 163 147 122 1 10
0.933988 0.117372 0.118888 164 149 123 1 10
0.875292 0.304072 -0.293475 28 21 18 40 14
0.853525 0.297176 -0.288102 30 23 20 40 14
0.845378 0.317596 -0.289969 30 24 20 40 14
0.868787 0.320605 -0.295928 31 24 19 40 14
0.855014 0.307149 -0.286314 32 23 21 40 14
0.871350 0.317556 -0.287739 26 21 15 40 14
0.857821 0.315799 -0.288460 31 24 20 40 14
0.891763 0.101123 -0.066380 20 13 7 40 14
0.889263 0.130839 -0.066236 21 15 10 40 14
0.890005 0.121962 -0.062385 15 11 8 40 14
0.877071 0.514064 -0.323772 83 67 48 12 12
0.682423 0.600282 0.181251 237 226 210 15 1
0.681499 0.590843 0.168855 225 215 199 15 1
0.677696 0.621131 0.165771 151 139 122 15 1
0.670803 0.633674 0.164560 146 133 115 15 1
0.680502 0.630717 0.173882 204 196 178 15 1
0.681918 0.616388 0.168905 203 194 177 15 1
0.674896 0.605860 0.165153 151 142 123 15 1
0.689282 -0.168278 0.202362 255 254 242 15 1
0.690927 -0.191394 0.202657 187 185 177 15 1
0.761002 0.322922 -0.055461 25 16 7 40 14
0.772529 0.334664 -0.055835 42 34 23 40 14
0.751527 0.340154 -0.057444 19 13 4 40 14
0.768190 0.352532 -0.058639 29 22 14 40 14
0.776001 0.343452 -0.055497 53 44 32 40 14
0.772981 0.352831 -0.050134 41 31 24 40 14
0.522180 0.016030 -0.317965 110 93 67 12 12
0.522648 0.007141 -0.316352 113 94 71 12 12
0.507708 0.010364 -0.317591 108 90 65 12 12
0.513944 -0.000640 -0.311004 103 87 66 12 12
0.801133 0.152267 -0.128504 85 78 63 40 14
0.763512 0.146047 -0.123951 86 69 60 40 14
0.795025 0.164345 -0.128388 87 80 69 40 14
0.792544 0.148481 -0.122281 79 71 61 40 14
0.785564 0.169614 -0.118334 93 85 73 40 14
0.771778 0.150200 -0.120776 66 64 50 40 14
0.526895 -0.293021 -0.275433 250 226 209 39 5
0.788058 0.148649 -0.125812 64 61 48 40 14
0.793538 0.138495 -0.122867 65 57 48 40 14
0.553639 -0.293111 -0.295304 250 227 208 39 5
0.526540 -0.295111 -0.302237 255 244 242 39 5
0.868699 0.311241 -0.268799 16 16 11 40 14
0.625407 0.318156 -0.117081 123 96 14 0 0
0.606777 0.307679 -0.113032 104 83 11 0 0
0.598444 0.326206 -0.114042 101 77 13 0 0
0.604375 0.333067 -0.116381 44 35 10 0 0
0.582049 0.331682 -0.112585 113 88 17 0 0
0.673916 0.185854 -0.313507 148 137 123 12 12
0.947426 -0.291854 -0.104664 248 249 236 1 10
0.639607 0.191553 -0.319444 162 149 131 12 12
0.947093 -0.283394 -0.108490 169 190 217 1 10
0.944279 -0.272010 -0.106465 182 186 215 1 10
0.941417 -0.261340 -0.106279 201 202 217 1 10
0.656443 0.190266 -0.316031 160 146 131 12 12
0.642448 0.206098 -0.320324 156 144 131 12 12
0.947303 -0.285438 -0.080923 254 253 245 1 10
0.945086 -0.277935 -0.084647 252 248 239 1 10
0.943373 -0.262654 -0.086976 220 216 221 1 10
0.662421 0.260095 -0.320275 143 134 119 12 12
0.634475 -0.294795 -0.109943 255 249 252 39 5
0.618038 -0.293465 -0.100657 254 251 253 39 5
0.628997 -0.294153 -0.086166 254 251 252 39 5
0.653343 0.004292 0.112894 170 157 133 0 0
0.662781 -0.003078 0.112973 198 185 162 39 5
0.646610 -0.010102 0.113255 193 180 155 39 5
0.631720 0.003286 0.110025 173 161 140 39 5
0.919495 -0.287410 -0.206062 177 151 129 12 12
0.920798 -0.274799 -0.212213 218 188 160 12 12
0.918966 -0.259239 -0.217381 244 231 224 12 12
0.913647 -0.257302 -0.229846 239 220 211 12 12
0.918946 -0.265116 -0.234089 235 221 210 12 12
0.870698 0.381808 0.072857 58 46 34 1 10
0.834793 0.383850 0.078089 64 48 41 1 10
0.541749 0.308097 -0.193433 238 211 65 0 0
0.541227 0.298787 -0.168040 242 220 58 0 0
0.542434 0.312727 -0.165214 241 210 71 0 0
0.935543 -0.247295 0.038346 254 254 242 1 10
0.807180 -0.310616 0.243183 145 123 92 15 1
0.796898 -0.294050 0.242762 149 127 95 15 1
0.647399 0.559124 0.182013 222 212 197 15 1
0.647722 0.542008 0.178964 223 214 196 15 1
0.894563 0.133178 -0.211855 14 10 7 40 14
0.885856 0.097259 -0.205828 12 7 5 40 14
0.879980 0.112213 -0.207833 15 11 8 40 14
0.655523 0.307715 0.182129 240 233 217 15 1
0.653140 0.336592 0.181595 234 224 209 15 1
0.658885 -0.317276 0.197563 255 253 246 15 1
0.675876 -0.312639 0.191678 253 250 241 15 1
0.655508 -0.326469 0.201877 255 255 255 15 1
0.835234 0.154565 -0.204202 16 12 9 40 14
0.823986 0.175035 -0.204121 17 13 8 40 14
0.827899 0.191353 -0.204948 17 12 6 40 14
0.828726 0.183962 -0.193596 16 11 7 40 14
0.841170 0.167388 -0.194076 14 11 6 40 14
0.818657 0.201553 -0.193538 14 11 6 40 14
0.549814 0.320896 -0.123056 150 117 20 0 0
0.552048 0.319369 -0.117686 196 155 22 0 0
0.864035 0.398027 -0.315897 48 39 26 12 12
0.876824 0.401696 -0.318116 63 53 35 12 12
0.854725 0.409924 -0.321810 60 49 33 12 12
0.850766 0.399820 -0.319815 60 50 34 12 12
0.924492 -0.332592 -0.259465 214 186 164 12 12
0.941866 0.057256 -0.100183 87 73 52 1 10
0.933925 0.081000 -0.120147 48 42 25 1 10
0.939845 0.074949 -0.086652 51 43 27 1 10
0.936561 0.080865 -0.089128 35 29 19 1 10
0.683528 0.247032 0.173283 232 220 206 15 1
0.680614 0.215874 0.174405 229 218 202 15 1
0.918786 -0.264966 0.257380 165 143 110 15 1
0.907263 -0.264553 0.244522 98 82 65 15 1
0.944035 -0.316200 0.215882 166 156 135 1 10
0.947257 -0.303086 0.205270 243 232 215 1 10
0.936189 -0.326570 0.225438 164 151 138 15 1
0.949761 -0.306119 0.216837 221 215 199 1 10
0.950719 -0.294260 0.212591 191 188 176 1 10
0.915694 -0.277563 0.250308 153 133 101 15 1
0.907903 -0.291192 0.242788 155 136 101 15 1
0.900481 0.340267 0.209849 206 187 158 1 10
0.898984 0.346992 0.200815 99 89 73 1 10
0.904813 0.324232 0.209900 218 202 174 1 10
0.904896 0.342553 0.200390 206 187 155 1 10
0.912083 0.378439 0.101280 54 39 30 1 10
0.921689 0.387397 0.106044 52 40 27 1 10
0.929435 0.387084 0.109598 70 56 43 1 10
0.934884 0.373208 0.114319 117 103 85 1 10
0.650270 0.268400 0.211857 247 238 223 15 1
0.650922 0.252094 0.217102 247 239 225 15 1
0.653685 0.246226 0.222037 245 235 217 15 1
0.664016 0.258497 0.225621 242 234 214 15 1
0.685628 0.262216 0.225219 232 222 200 15 1
0.866817 0.172858 -0.196683 13 8 4 40 14
0.896697 0.177323 -0.196497 13 7 3 40 14
0.704095 0.491081 -0.325320 139 120 94 12 12
0.693023 0.503562 -0.325380 139 119 95 12 12
0.513615 -0.307231 -0.159183 250 244 246 39 5
0.544031 -0.310165 -0.151790 249 244 243 39 5
0.520905 -0.323066 -0.155434 252 230 230 39 5
0.547110 -0.312274 -0.181567 253 249 250 39 5
0.544849 -0.310984 -0.166902 253 249 250 39 5
0.530599 -0.319599 -0.167908 255 249 252 39 5
0.532270 -0.298975 -0.156566 247 240 240 39 5
0.747069 0.368525 -0.051043 59 48 35 40 14
0.744431 0.354494 -0.046736 61 49 36 40 14
0.747692 0.332404 -0.045611 59 49 36 40 14
0.734074 0.346579 -0.050060 27 19 8 40 14
0.736483 0.325037 -0.050254 18 11 3 40 14
0.740760 0.347495 -0.054873 72 62 46 40 14
0.880751 0.005998 -0.311957 84 66 47 12 12
0.861974 0.007943 -0.311339 101 84 61 12 12
0.890111 -0.000177 -0.313400 85 68 47 12 12
0.857819 0.003704 -0.309667 87 70 48 12 12
0.854770 0.035352 -0.315078 99 79 57 12 12
0.933959 0.267430 0.125014 184 172 153 1 10
0.934619 0.290613 0.125604 165 153 133 1 10
0.931652 0.283051 0.113791 150 137 119 1 10
0.905230 0.231366 0.019282 29 21 15 0 0
0.909849 0.253412 -0.011739 26 20 12 40 14
0.918029 -0.003442 0.250844 158 139 119 15 1
0.611816 0.451203 -0.325110 151 134 107 12 12
0.686814 0.182858 0.188821 251 242 227 15 1
0.685871 0.192306 0.193795 248 241 225 15 1
0.686119 0.181898 0.178893 240 229 212 15 1
0.684861 0.198680 0.176025 245 233 218 15 1
0.692734 0.183074 0.194599 241 233 218 15 1
0.798782 0.055174 0.252397 180 151 114 15 1
0.814834 0.056501 0.256988 206 178 135 15 1
0.819687 0.053285 0.265167 186 162 130 15 1
0.788687 0.049483 0.268164 211 180 138 15 1
0.805166 -0.126318 0.248870 118 99 89 15 1
0.801561 -0.142046 0.253680 56 41 56 15 1
0.792640 -0.131088 0.250651 81 64 68 15 1
0.512739 -0.283133 -0.118706 227 212 206 39 5
0.496597 -0.283111 -0.115403 226 212 205 39 5
0.511648 -0.286812 -0.114231 219 203 203 39 5
0.504987 -0.288609 -0.134427 219 208 205 39 5
0.518718 -0.286250 -0.128759 222 212 211 39 5
0.698438 0.155170 0.227291 143 125 100 15 1
0.671327 0.156291 0.227440 157 139 114 15 1
0.682368 0.168304 0.229417 155 135 114 15 1
0.844886 0.077175 -0.311158 81 64 44 12 12
0.801795 0.182073 -0.191052 19 13 7 40 14
0.772303 0.190561 -0.198468 32 25 15 40 14
0.780345 0.173572 -0.187837 20 16 10 40 14
0.915436 0.250342 -0.229828 30 23 17 40 14
0.907639 0.225652 -0.224414 20 16 11 40 14
0.914523 0.231351 -0.231489 21 16 12 40 14
0.759184 0.472467 0.239211 103 96 71 15 1
