ply
format ascii 1.0
element vertex 1144
property float x
property float y
property float z
property uchar red
property uchar green
property uchar blue
property uchar semantic_label
property uchar instance_label
end_header
0.172321 0.308257 0.010409 0 255 0 83 17
0.233028 0.251137 -0.026635 0 255 0 83 17
0.221333 0.227154 -0.005356 0 255 0 83 17
0.274260 0.331933 -0.038790 0 255 0 83 17
0.206122 0.356868 -0.051950 0 255 0 83 17
0.272306 0.279016 0.001091 0 255 0 83 17
0.224764 0.279730 -0.029950 0 255 0 83 17
0.219842 0.309602 -0.020882 0 255 0 83 17
0.285211 0.349931 -0.027950 0 255 0 83 17
0.195554 0.284420 -0.036980 0 255 0 83 17
0.231271 0.368003 0.012050 0 255 0 83 17
0.222688 0.286366 0.022529 0 255 0 83 17
0.235897 0.271001 -0.005950 0 255 0 83 17
0.199752 0.293714 -0.060970 0 255 0 83 17
0.200805 0.336576 -0.029950 0 255 0 83 17
0.296897 0.341075 -0.006937 0 255 0 83 17
0.233786 0.343330 -0.038768 0 255 0 83 17
0.247275 0.321742 0.013270 0 255 0 83 17
0.156801 0.266683 -0.001950 0 255 0 83 17
0.212647 0.274316 0.002050 0 255 0 83 17
0.286896 0.279753 -0.011950 0 255 0 83 17
0.238872 0.305208 0.016050 0 255 0 83 17
0.212650 0.358472 -0.026985 0 255 0 83 17
0.253764 0.296502 -0.005950 0 255 0 83 17
0.254468 0.299556 -0.038937 0 255 0 83 17
0.248104 0.271985 0.006050 0 255 0 83 17
0.269727 0.281664 -0.081950 0 255 0 83 17
0.228835 0.295210 -0.016939 0 255 0 83 17
0.255217 0.285014 -0.024660 0 255 0 83 17
0.227393 0.320174 -0.037950 0 255 0 83 17
0.223317 0.267747 -0.079950 0 255 0 83 17
0.288611 0.285515 -0.041950 0 255 0 83 17
0.279954 0.312145 0.000751 0 255 0 83 17
0.236155 0.369467 -0.025950 0 255 0 83 17
0.287151 0.316642 -0.026559 0 255 0 83 17
0.255473 0.339469 -0.037950 0 255 0 83 17
0.199949 0.308037 -0.073950 0 255 0 83 17
0.200972 0.320116 0.002050 0 255 0 83 17
0.178385 0.310963 -0.039950 0 255 0 83 17
0.248184 0.262006 -0.063950 0 255 0 83 17
0.206941 0.218160 -0.005680 0 255 0 83 17
0.211442 0.264331 -0.026892 0 255 0 83 17
0.205298 0.282171 -0.010876 0 255 0 83 17
0.190909 0.281388 -0.001950 0 255 0 83 17
0.205366 0.344700 0.016050 0 255 0 83 17
0.188190 0.332540 0.022050 0 255 0 83 17
0.227192 0.359221 -0.038778 0 255 0 83 17
0.192578 0.344633 -0.045950 0 255 0 83 17
0.218223 0.334607 0.014050 0 255 0 83 17
0.260809 0.362581 -0.029950 0 255 0 83 17
0.193288 0.283496 0.014050 0 255 0 83 17
0.231292 0.245381 0.006050 0 255 0 83 17
0.189173 0.256781 -0.011950 0 255 0 83 17
0.256120 0.315595 -0.036958 0 255 0 83 17
0.226368 0.359411 -0.005950 0 255 0 83 17
0.209118 0.352060 -0.069950 0 255 0 83 17
0.223889 0.300457 0.007805 0 255 0 83 17
0.286096 0.267623 -0.000804 0 255 0 83 17
0.288947 0.297753 0.005383 0 255 0 83 17
0.235434 0.332687 -0.026655 0 255 0 83 17
0.251218 0.329930 0.000050 0 255 0 83 17
0.194038 0.327875 -0.061950 0 255 0 83 17
0.212847 0.323758 -0.017950 0 255 0 83 17
0.279909 0.329731 0.004050 0 255 0 83 17
0.261337 0.267067 -0.009950 0 255 0 83 17
0.206352 0.331190 -0.090947 0 255 0 83 17
0.264675 0.308198 -0.005950 0 255 0 83 17
0.255578 0.286577 0.006050 0 255 0 83 17
0.213393 0.290565 -0.035081 0 255 0 83 17
0.267874 0.295380 -0.023950 0 255 0 83 17
0.267147 0.296629 -0.091950 0 255 0 83 17
0.224620 0.259173 -0.005950 0 255 0 83 17
0.210401 0.348729 0.001861 0 255 0 83 17
0.277106 0.308698 -0.090464 0 255 0 83 17
0.204687 0.311048 0.014050 0 255 0 83 17
0.228569 0.258498 -0.051950 0 255 0 83 17
0.214743 0.296411 -0.008643 0 255 0 83 17
0.228099 0.274243 0.008050 0 255 0 83 17
0.240077 0.290562 0.001146 0 255 0 83 17
0.278089 0.295174 -0.065950 0 255 0 83 17
0.190090 0.326734 -0.005950 0 255 0 83 17
0.254765 0.256382 -0.041223 0 255 0 83 17
0.296145 0.328933 0.005219 0 255 0 83 17
0.215949 0.363868 0.003842 0 255 0 83 17
0.204902 0.289346 -0.089950 0 255 0 83 17
0.313237 0.349618 0.009047 0 255 0 83 17
0.169768 0.261637 0.003126 0 255 0 83 17
0.212037 0.204669 -0.018831 0 255 0 83 17
0.203116 0.308284 -0.011950 0 255 0 83 17
0.225983 0.265079 -0.030862 0 255 0 83 17
0.293397 0.299247 -0.039950 0 255 0 83 17
0.265316 0.248740 -0.005950 0 255 0 83 17
0.237534 0.350675 0.014847 0 255 0 83 17
0.188962 0.326994 -0.028731 0 255 0 83 17
0.190385 0.315372 -0.049950 0 255 0 83 17
0.185363 0.311404 -0.026837 0 255 0 83 17
0.272612 0.342576 0.005068 0 255 0 83 17
0.236551 0.284183 -0.011950 0 255 0 83 17
0.273647 0.235602 -0.011950 0 255 0 83 17
0.276272 0.300679 -0.037950 0 255 0 83 17
0.184186 0.279632 -0.027950 0 255 0 83 17
0.197053 0.282022 -0.068771 0 255 0 83 17
0.275868 0.325404 -0.025950 0 255 0 83 17
0.223292 0.333437 -0.034691 0 255 0 83 17
0.260839 0.367874 0.018050 0 255 0 83 17
0.248213 0.321526 -0.025950 0 255 0 83 17
0.232351 0.337114 0.014050 0 255 0 83 17
0.210694 0.278872 -0.027503 0 255 0 83 17
0.204093 0.315290 -0.029950 0 255 0 83 17
0.288334 0.357331 0.006050 0 255 0 83 17
0.238036 0.255051 -0.003950 0 255 0 83 17
0.228908 0.277745 -0.089950 0 255 0 83 17
0.193611 0.295132 -0.027950 0 255 0 83 17
0.214296 0.321146 0.006779 0 255 0 83 17
0.227057 0.314182 0.000050 0 255 0 83 17
0.191236 0.318259 -0.077950 0 255 0 83 17
0.247425 0.313497 0.001664 0 255 0 83 17
0.205388 0.278045 -0.079950 0 255 0 83 17
0.277523 0.288075 -0.053950 0 255 0 83 17
0.254024 0.350973 0.007120 0 255 0 83 17
0.251168 0.267475 -0.030900 0 255 0 83 17
0.213667 0.245344 -0.005950 0 255 0 83 17
0.181761 0.269131 0.003171 0 255 0 83 17
0.208295 0.277374 -0.054999 0 255 0 83 17
0.288930 0.312125 -0.055950 0 255 0 83 17
0.262716 0.277125 -0.061950 0 255 0 83 17
0.254017 0.270923 -0.084521 0 255 0 83 17
0.300195 0.346471 0.005164 0 255 0 83 17
0.205229 0.341712 -0.077950 0 255 0 83 17
0.194681 0.271749 -0.041950 0 255 0 83 17
0.233605 0.253637 -0.039950 0 255 0 83 17
0.274530 0.278503 -0.031950 0 255 0 83 17
0.228293 0.337317 -0.013950 0 255 0 83 17
0.165681 0.297278 0.006050 0 255 0 83 17
0.196365 0.292443 -0.047950 0 255 0 83 17
0.198704 0.253611 -0.001950 0 255 0 83 17
0.194177 0.297053 0.016050 0 255 0 83 17
0.263677 0.286094 -0.007950 0 255 0 83 17
0.248095 0.343071 -0.001950 0 255 0 83 17
0.264885 0.273546 -0.045950 0 255 0 83 17
0.236483 0.328339 -0.000631 0 255 0 83 17
0.190226 0.300019 -0.067950 0 255 0 83 17
0.223213 0.312929 0.014050 0 255 0 83 17
0.242473 0.265378 -0.075425 0 255 0 83 17
0.220345 0.267329 -0.045950 0 255 0 83 17
0.227935 0.291313 -0.035686 0 255 0 83 17
0.244203 0.370667 0.010050 0 255 0 83 17
0.276755 0.262727 -0.027950 0 255 0 83 17
0.200797 0.295526 -0.009950 0 255 0 83 17
0.286030 0.245058 -0.011950 0 255 0 83 17
0.162130 0.357820 -0.065950 0 255 0 83 17
0.283145 0.321671 -0.037950 0 255 0 83 17
0.259120 0.337481 0.007841 0 255 0 83 17
0.204425 0.269501 -0.007950 0 255 0 83 17
0.293336 0.284424 -0.029950 0 255 0 83 17
0.264888 0.255777 -0.027950 0 255 0 83 17
0.306678 0.294534 -0.015950 0 255 0 83 17
0.222979 0.332086 0.002050 0 255 0 83 17
0.209911 0.305737 -0.037950 0 255 0 83 17
0.216988 0.252788 -0.027459 0 255 0 83 17
0.278903 0.289809 0.005193 0 255 0 83 17
0.224788 0.304355 -0.008789 0 255 0 83 17
0.282446 0.336201 -0.029950 0 255 0 83 17
0.303638 0.290256 0.002597 0 255 0 83 17
0.203965 0.303069 0.004050 0 255 0 83 17
0.251393 0.268450 -0.051950 0 255 0 83 17
0.195628 0.320301 -0.037950 0 255 0 83 17
0.218433 0.321283 -0.005950 0 255 0 83 17
0.315104 0.299925 0.000050 0 255 0 83 17
0.284896 0.253531 -0.000000 0 255 0 83 17
0.202805 0.262478 -0.035950 0 255 0 83 17
0.213414 0.267981 -0.069950 0 255 0 83 17
0.174644 0.303616 -0.027950 0 255 0 83 17
0.256318 0.352020 -0.035950 0 255 0 83 17
0.219687 0.264480 0.008625 0 255 0 83 17
0.229451 0.297884 0.020050 0 255 0 83 17
0.237534 0.350675 -0.008178 0 255 0 83 17
0.186700 0.284412 -0.045950 0 255 0 83 17
0.240951 0.312130 -0.017950 0 255 0 83 17
0.262950 0.305807 -0.031950 0 255 0 83 17
0.247363 0.295446 0.010050 0 255 0 83 17
0.253025 0.273205 -0.019950 0 255 0 83 17
0.209053 0.369566 -0.006907 0 255 0 83 17
0.248880 0.266457 -0.009950 0 255 0 83 17
0.201972 0.276654 0.008050 0 255 0 83 17
0.279642 0.289639 -0.015950 0 255 0 83 17
0.170615 0.320967 0.010050 0 255 0 83 17
0.217628 0.291122 -0.021950 0 255 0 83 17
0.222544 0.347978 -0.000540 0 255 0 83 17
0.241404 0.355939 -0.025950 0 255 0 83 17
0.281663 0.305593 -0.027950 0 255 0 83 17
0.186064 0.354348 -0.027950 0 255 0 83 17
0.210252 0.356974 -0.038906 0 255 0 83 17
0.299271 0.315896 -0.027950 0 255 0 83 17
0.286850 0.306448 -0.008938 0 255 0 83 17
0.241508 0.300495 -0.037950 0 255 0 83 17
0.232295 0.319090 -0.025950 0 255 0 83 17
0.300044 0.328033 -0.006555 0 255 0 83 17
0.209089 0.263029 -0.047950 0 255 0 83 17
0.189263 0.337188 -0.037071 0 255 0 83 17
0.236336 0.363267 -0.015672 0 255 0 83 17
0.193757 0.303309 -0.056972 0 255 0 83 17
0.232138 0.353973 0.003433 0 255 0 83 17
0.285803 0.337478 -0.002944 0 255 0 83 17
0.180208 0.324636 -0.037950 0 255 0 83 17
0.255667 0.286963 -0.036571 0 255 0 83 17
0.217950 0.314144 -0.033950 0 255 0 83 17
0.280404 0.314094 -0.079121 0 255 0 83 17
0.243072 0.259081 -0.032963 0 255 0 83 17
0.244652 0.279243 -0.089950 0 255 0 83 17
0.212579 0.260363 -0.005950 0 255 0 83 17
0.215407 0.219269 -0.013950 0 255 0 83 17
0.222373 0.325438 -0.025950 0 255 0 83 17
0.296358 0.285779 -0.007950 0 255 0 83 17
0.193826 0.307398 -0.083950 0 255 0 83 17
0.239776 0.280369 0.006930 0 255 0 83 17
0.218791 0.287266 0.007681 0 255 0 83 17
0.236627 0.266728 -0.054980 0 255 0 83 17
0.204552 0.323395 -0.009195 0 255 0 83 17
0.270882 0.290630 -0.073950 0 255 0 83 17
0.264572 0.274644 -0.073950 0 255 0 83 17
0.246086 0.346648 -0.033950 0 255 0 83 17
0.264213 0.297306 -0.013080 0 255 0 83 17
0.193011 0.344533 -0.026116 0 255 0 83 17
0.226142 0.363568 -0.026032 0 255 0 83 17
0.259375 0.276354 0.002050 0 255 0 83 17
0.274470 0.306172 -0.011950 0 255 0 83 17
0.235879 0.281268 -0.026955 0 255 0 83 17
0.234079 0.273473 -0.078983 0 255 0 83 17
0.236781 0.311849 0.005958 0 255 0 83 17
0.164742 0.310994 0.002050 0 255 0 83 17
0.215751 0.300772 -0.027950 0 255 0 83 17
0.221707 0.273227 -0.063950 0 255 0 83 17
0.181726 0.353296 0.022050 0 255 0 83 17
0.183414 0.311854 0.009744 0 255 0 83 17
0.193981 0.336099 -0.053950 0 255 0 83 17
0.201855 0.280913 -0.045950 0 255 0 83 17
0.285963 0.290231 -0.005950 0 255 0 83 17
0.261662 0.277369 -0.030208 0 255 0 83 17
0.195560 0.337787 0.015085 0 255 0 83 17
0.211385 0.335211 -0.033950 0 255 0 83 17
0.225682 0.254886 0.010176 0 255 0 83 17
0.204237 0.330919 -0.019950 0 255 0 83 17
0.245221 0.366188 -0.031950 0 255 0 83 17
0.189685 0.287828 -0.057950 0 255 0 83 17
0.276024 0.268446 -0.037950 0 255 0 83 17
0.251557 0.242491 0.000050 0 255 0 83 17
0.185876 0.301023 -0.033950 0 255 0 83 17
0.169918 0.253392 -0.004929 0 255 0 83 17
0.239931 0.325490 -0.019245 0 255 0 83 17
0.210155 0.369311 -0.029950 0 255 0 83 17
0.265460 0.262123 -0.043950 0 255 0 83 17
0.234005 0.330963 -0.037950 0 255 0 83 17
0.216302 0.285381 -0.009950 0 255 0 83 17
0.278649 0.288711 -0.037950 0 255 0 83 17
0.216290 0.276438 -0.077950 0 255 0 83 17
0.198552 0.279623 -0.027324 0 255 0 83 17
0.236044 0.299769 0.006050 0 255 0 83 17
0.195386 0.323459 -0.087950 0 255 0 83 17
0.277013 0.352753 0.004050 0 255 0 83 17
0.237905 0.343390 -0.021950 0 255 0 83 17
0.224942 0.349476 -0.033908 0 255 0 83 17
0.258665 0.282166 -0.080959 0 255 0 83 17
0.319084 0.348269 -0.000363 0 255 0 83 17
0.237883 0.316621 -0.005950 0 255 0 83 17
0.270812 0.334782 -0.002598 0 255 0 83 17
0.214743 0.296411 0.002931 0 255 0 83 17
0.238432 0.327889 0.015810 0 255 0 83 17
0.253618 0.307963 -0.005950 0 255 0 83 17
0.204797 0.345917 -0.037950 0 255 0 83 17
0.225460 0.280592 -0.013950 0 255 0 83 17
0.288275 0.348186 -0.001950 0 255 0 83 17
0.182028 0.308069 -0.049950 0 255 0 83 17
0.202733 0.293026 -0.033950 0 255 0 83 17
0.249671 0.296558 -0.029508 0 255 0 83 17
0.257019 0.319493 0.001602 0 255 0 83 17
0.225083 0.261182 -0.062202 0 255 0 83 17
0.287000 0.324887 -0.002685 0 255 0 83 17
0.219463 0.236834 -0.009950 0 255 0 83 17
0.203498 0.274376 -0.064279 0 255 0 83 17
0.292210 0.307263 -0.031950 0 255 0 83 17
0.271556 0.279189 -0.055950 0 255 0 83 17
0.259402 0.267627 -0.065950 0 255 0 83 17
0.239718 0.244552 -0.001950 0 255 0 83 17
0.220913 0.243116 0.004050 0 255 0 83 17
0.186114 0.323547 -0.056073 0 255 0 83 17
0.284449 0.278266 -0.001058 0 255 0 83 17
0.195896 0.317183 -0.067950 0 255 0 83 17
0.185808 0.259987 -0.000837 0 255 0 83 17
0.271414 0.355169 -0.027128 0 255 0 83 17
0.294344 0.294455 -0.026210 0 255 0 83 17
0.242774 0.275571 -0.032911 0 255 0 83 17
0.224507 0.370103 0.002050 0 255 0 83 17
0.246674 0.301355 0.001157 0 255 0 83 17
0.242774 0.275571 -0.012912 0 255 0 83 17
0.199959 0.334718 -0.067950 0 255 0 83 17
0.237681 0.315747 -0.038933 0 255 0 83 17
0.288798 0.305998 -0.046968 0 255 0 83 17
0.209005 0.307999 -0.023950 0 255 0 83 17
0.281680 0.310726 -0.037950 0 255 0 83 17
0.205806 0.213245 -0.017950 0 255 0 83 17
0.210525 0.344595 -0.027950 0 255 0 83 17
0.182932 0.293492 -0.041950 0 255 0 83 17
0.192226 0.320083 0.008050 0 255 0 83 17
0.264516 0.334182 -0.035273 0 255 0 83 17
0.247635 0.309343 -0.037950 0 255 0 83 17
0.245048 0.258749 -0.053950 0 255 0 83 17
0.236533 0.364116 -0.037950 0 255 0 83 17
0.220687 0.329933 -0.011950 0 255 0 83 17
0.222715 0.277595 -0.001950 0 255 0 83 17
0.211140 0.227455 -0.008323 0 255 0 83 17
0.216760 0.265156 -0.035950 0 255 0 83 17
0.236036 0.353073 -0.035483 0 255 0 83 17
0.265159 0.345858 0.012050 0 255 0 83 17
0.251584 0.357695 -0.027950 0 255 0 83 17
0.287593 0.238540 -0.003841 0 255 0 83 17
0.154184 0.318603 0.001315 0 255 0 83 17
0.229648 0.263171 -0.041950 0 255 0 83 17
0.274100 0.284760 -0.007950 0 255 0 83 17
0.256273 0.360717 0.011122 0 255 0 83 17
0.279653 0.301951 0.002944 0 255 0 83 17
0.229751 0.313472 -0.011950 0 255 0 83 17
0.294796 0.323086 -0.034936 0 255 0 83 17
0.215044 0.306605 0.007786 0 255 0 83 17
0.227342 0.346870 -0.009950 0 255 0 83 17
0.179492 0.331233 -0.029950 0 255 0 83 17
0.243823 0.271224 -0.066955 0 255 0 83 17
0.213243 0.209895 -0.009950 0 255 0 83 17
0.239783 0.360419 0.011290 0 255 0 83 17
0.242612 0.337104 -0.035950 0 255 0 83 17
0.252436 0.330814 0.012050 0 255 0 83 17
0.197294 0.296334 -0.089950 0 255 0 83 17
0.283551 0.301051 -0.072451 0 255 0 83 17
0.233182 0.296259 -0.007636 0 255 0 83 17
0.267668 0.269825 0.002050 0 255 0 83 17
0.243973 0.262979 -0.001075 0 255 0 83 17
0.242542 0.336799 0.004050 0 255 0 83 17
0.225688 0.308252 -0.029251 0 255 0 83 17
0.204654 0.284372 -0.061950 0 255 0 83 17
0.246974 0.311548 0.014550 0 255 0 83 17
0.245724 0.274890 -0.079950 0 255 0 83 17
0.189564 0.347381 -0.035389 0 255 0 83 17
0.174868 0.301512 0.003124 0 255 0 83 17
0.200026 0.348245 -0.051950 0 255 0 83 17
0.222035 0.363559 0.012050 0 255 0 83 17
0.225026 0.340950 0.008050 0 255 0 83 17
0.283399 0.282613 -0.028440 0 255 0 83 17
0.248923 0.311099 -0.026368 0 255 0 83 17
0.287335 0.330967 -0.037950 0 255 0 83 17
0.202404 0.269636 -0.051950 0 255 0 83 17
0.197244 0.310714 -0.023950 0 255 0 83 17
0.203048 0.272427 -0.032966 0 255 0 83 17
0.248021 0.280518 0.000547 0 255 0 83 17
0.240741 0.346782 0.006050 0 255 0 83 17
0.237527 0.270625 0.005297 0 255 0 83 17
0.265860 0.286662 -0.090700 0 255 0 83 17
0.209645 0.283219 0.009210 0 255 0 83 17
0.272351 0.314775 -0.005950 0 255 0 83 17
0.229282 0.270476 -0.014463 0 255 0 83 17
0.274252 0.251883 -0.001807 0 255 0 83 17
0.248009 0.282574 -0.017950 0 255 0 83 17
0.224937 0.296110 -0.026791 0 255 0 83 17
0.204697 0.261783 0.000176 0 255 0 83 17
0.203102 0.361566 -0.027950 0 255 0 83 17
0.256049 0.266349 -0.041950 0 255 0 83 17
0.252960 0.266346 -0.073950 0 255 0 83 17
0.282405 0.276684 -0.037950 0 255 0 83 17
0.204849 0.280221 -0.000902 0 255 0 83 17
0.234096 0.365837 0.002050 0 255 0 83 17
0.247151 0.352559 -0.005950 0 255 0 83 17
0.212777 0.303023 -0.015950 0 255 0 83 17
0.232234 0.304688 -0.037950 0 255 0 83 17
0.269123 0.322856 -0.037950 0 255 0 83 17
0.250877 0.370173 0.018050 0 255 0 83 17
0.222328 0.338153 -0.005950 0 255 0 83 17
0.287032 0.304353 -0.061950 0 255 0 83 17
0.198400 0.261184 -0.008424 0 255 0 83 17
0.295944 0.287927 -0.017950 0 255 0 83 17
0.201251 0.291315 -0.071003 0 255 0 83 17
0.295141 0.245008 -0.005950 0 255 0 83 17
0.265401 0.276505 -0.005950 0 255 0 83 17
0.171191 0.330034 0.006050 0 255 0 83 17
0.255068 0.293259 -0.019159 0 255 0 83 17
0.245474 0.287263 -0.006479 0 255 0 83 17
0.241658 0.377429 -0.027950 0 255 0 83 17
0.270506 0.271221 -0.026447 0 255 0 83 17
0.235278 0.260881 -0.027171 0 255 0 83 17
0.200713 0.320176 -0.079950 0 255 0 83 17
0.217267 0.281460 -0.019950 0 255 0 83 17
0.270480 0.289700 0.000050 0 255 0 83 17
0.186713 0.317251 -0.040987 0 255 0 83 17
0.285545 0.327275 -0.025950 0 255 0 83 17
0.311510 0.364386 0.006050 0 255 0 83 17
0.199158 0.353377 -0.042713 0 255 0 83 17
0.269656 0.285786 -0.025950 0 255 0 83 17
0.202963 0.325399 -0.027950 0 255 0 83 17
0.226630 0.267880 -0.053950 0 255 0 83 17
0.189859 0.300103 -0.043950 0 255 0 83 17
0.205398 0.349884 -0.059950 0 255 0 83 17
0.275581 0.341890 -0.033950 0 255 0 83 17
0.285312 0.294487 -0.043950 0 255 0 83 17
0.213619 0.318213 -0.025950 0 255 0 83 17
0.201855 0.338386 0.022604 0 255 0 83 17
0.253696 0.269535 -0.001950 0 255 0 83 17
0.275908 0.321290 0.001328 0 255 0 83 17
0.209237 0.289472 -0.015950 0 255 0 83 17
0.195855 0.294614 -0.018271 0 255 0 83 17
0.209781 0.319371 -0.001950 0 255 0 83 17
0.189477 0.324822 -0.069950 0 255 0 83 17
0.202877 0.350466 -0.025950 0 255 0 83 17
0.264663 0.299255 -0.038883 0 255 0 83 17
0.294268 0.338578 0.002050 0 255 0 83 17
0.285411 0.317999 -0.065950 0 255 0 83 17
0.203051 0.299111 0.013036 0 255 0 83 17
0.200802 0.289366 0.013231 0 255 0 83 17
0.183608 0.285126 -0.035950 0 255 0 83 17
0.252068 0.271373 -0.060992 0 255 0 83 17
0.190426 0.308182 -0.073950 0 255 0 83 17
0.303939 0.300450 -0.008400 0 255 0 83 17
0.206906 0.312588 0.004050 0 255 0 83 17
0.283111 0.281368 -0.049950 0 255 0 83 17
0.227935 0.291313 0.006466 0 255 0 83 17
0.275242 0.305023 -0.081950 0 255 0 83 17
0.270699 0.269125 -0.051950 0 255 0 83 17
0.224481 0.273637 -0.021950 0 255 0 83 17
0.160624 0.257590 0.001265 0 255 0 83 17
0.197956 0.312603 0.007574 0 255 0 83 17
0.284341 0.290606 -0.059950 0 255 0 83 17
0.259946 0.292133 -0.029950 0 255 0 83 17
0.160767 0.317082 0.008050 0 255 0 83 17
0.213993 0.284268 -0.000887 0 255 0 83 17
0.212939 0.235249 -0.002636 0 255 0 83 17
0.276700 0.226925 -0.009950 0 255 0 83 17
0.231090 0.358320 0.014215 0 255 0 83 17
0.238404 0.318878 0.012050 0 255 0 83 17
0.258513 0.263727 -0.026384 0 255 0 83 17
0.244122 0.254734 -0.041231 0 255 0 83 17
0.246259 0.352902 0.012050 0 255 0 83 17
0.207098 0.289966 -0.005773 0 255 0 83 17
0.232082 0.264823 -0.075950 0 255 0 83 17
0.218566 0.295183 0.024050 0 255 0 83 17
0.229289 0.234942 -0.007950 0 255 0 83 17
0.219017 0.268740 -0.001950 0 255 0 83 17
0.207252 0.335088 0.013147 0 255 0 83 17
0.207226 0.299412 -0.003950 0 255 0 83 17
0.186260 0.288618 -0.026406 0 255 0 83 17
0.216098 0.355624 -0.000853 0 255 0 83 17
0.239768 0.280331 -0.003950 0 255 0 83 17
0.225232 0.252937 0.000946 0 255 0 83 17
0.229843 0.375030 -0.029950 0 255 0 83 17
0.220526 0.358707 -0.031950 0 255 0 83 17
0.292919 0.306067 0.004050 0 255 0 83 17
0.193009 0.317850 -0.058921 0 255 0 83 17
0.190028 0.291854 -0.035950 0 255 0 83 17
0.225120 0.252446 -0.031950 0 255 0 83 17
0.266017 0.358467 -0.036882 0 255 0 83 17
0.276879 0.267697 -0.001950 0 255 0 83 17
0.313613 0.355690 0.002050 0 255 0 83 17
0.266534 0.369594 -0.027950 0 255 0 83 17
0.217363 0.272197 -0.029950 0 255 0 83 17
0.205312 0.317062 -0.019950 0 255 0 83 17
0.255716 0.260503 -0.049950 0 255 0 83 17
0.273507 0.293107 -0.030928 0 255 0 83 17
0.287072 0.334084 -0.053950 0 255 0 83 17
0.278905 0.316493 -0.022370 0 255 0 83 17
0.221487 0.272275 -0.088296 0 255 0 83 17
0.203355 0.335987 -0.038802 0 255 0 83 17
0.226419 0.271137 -0.071950 0 255 0 83 17
0.243123 0.250410 -0.027950 0 255 0 83 17
0.183375 0.302791 0.008050 0 255 0 83 17
0.228444 0.324037 -0.001950 0 255 0 83 17
0.189407 0.275576 -0.035453 0 255 0 83 17
0.199372 0.300957 -0.067950 0 255 0 83 17
0.211710 0.256602 -0.033950 0 255 0 83 17
0.276154 0.282233 -0.043950 0 255 0 83 17
0.267128 0.283263 -0.067950 0 255 0 83 17
0.196080 0.308930 -0.063950 0 255 0 83 17
0.271858 0.303751 -0.001540 0 255 0 83 17
0.233778 0.263280 -0.001484 0 255 0 83 17
0.216773 0.345204 0.010050 0 255 0 83 17
0.229300 0.301261 0.000050 0 255 0 83 17
0.237322 0.260848 -0.061950 0 255 0 83 17
0.198181 0.273551 -0.001950 0 255 0 83 17
0.201282 0.287203 -0.053950 0 255 0 83 17
0.205154 0.343782 -0.069057 0 255 0 83 17
0.237377 0.252185 0.006050 0 255 0 83 17
0.258917 0.301040 0.000050 0 255 0 83 17
0.261922 0.277308 -0.087950 0 255 0 83 17
0.173729 0.244302 0.000050 0 255 0 83 17
0.231382 0.288465 0.020235 0 255 0 83 17
0.195892 0.250322 -0.009950 0 255 0 83 17
0.266313 0.315294 0.000895 0 255 0 83 17
0.268188 0.292283 -0.083950 0 255 0 83 17
0.215413 0.272639 -0.051950 0 255 0 83 17
0.218512 0.259391 -0.049950 0 255 0 83 17
0.180563 0.302250 -0.041950 0 255 0 83 17
0.268385 0.288707 -0.015950 0 255 0 83 17
0.188900 0.335614 -0.025950 0 255 0 83 17
0.236812 0.256422 -0.047950 0 255 0 83 17
0.171825 0.252764 0.004050 0 255 0 83 17
0.175239 0.313741 -0.031950 0 255 0 83 17
0.233603 0.360319 -0.029950 0 255 0 83 17
0.286701 0.314692 -0.004668 0 255 0 83 17
0.194657 0.307206 -0.009010 0 255 0 83 17
0.214504 0.314939 -0.015950 0 255 0 83 17
0.211578 0.327152 0.014050 0 255 0 83 17
0.307990 0.344672 0.001053 0 255 0 83 17
0.288047 0.293855 -0.035074 0 255 0 83 17
0.185067 0.305314 -0.057950 0 255 0 83 17
0.203960 0.258595 -0.027950 0 255 0 83 17
0.203262 0.286746 -0.079950 0 255 0 83 17
0.225091 0.341231 -0.038798 0 255 0 83 17
0.277424 0.296308 -0.021950 0 255 0 83 17
0.225243 0.359671 0.003339 0 255 0 83 17
0.220589 0.312839 -0.007950 0 255 0 83 17
0.229923 0.268275 -0.085950 0 255 0 83 17
0.188214 0.341535 0.021376 0 255 0 83 17
0.246403 0.317959 -0.035950 0 255 0 83 17
0.301843 0.335828 0.006958 0 255 0 83 17
0.257015 0.310586 0.002050 0 255 0 83 17
0.208345 0.339822 -0.089950 0 255 0 83 17
0.234387 0.363717 -0.006991 0 255 0 83 17
0.252763 0.277371 -0.029950 0 255 0 83 17
0.188217 0.296377 -0.059950 0 255 0 83 17
0.165381 0.269307 0.002050 0 255 0 83 17
0.292850 0.350220 0.008899 0 255 0 83 17
0.279734 0.291670 -0.073950 0 255 0 83 17
0.219093 0.324144 -0.035613 0 255 0 83 17
0.260311 0.244839 0.000234 0 255 0 83 17
0.192936 0.291183 -0.067950 0 255 0 83 17
0.224499 0.294212 -0.007950 0 255 0 83 17
0.202303 0.313651 -0.004983 0 255 0 83 17
0.277668 0.234674 -0.003950 0 255 0 83 17
0.258372 0.352022 0.014722 0 255 0 83 17
0.182077 0.318321 -0.049950 0 255 0 83 17
0.255905 0.286908 -0.003950 0 255 0 83 17
0.260889 0.354035 -0.027950 0 255 0 83 17
0.245280 0.304206 0.010050 0 255 0 83 17
0.262057 0.334750 0.000050 0 255 0 83 17
0.199805 0.302832 -0.017950 0 255 0 83 17
0.226362 0.311172 -0.037950 0 255 0 83 17
0.208286 0.252744 -0.005950 0 255 0 83 17
0.208303 0.357423 0.002650 0 255 0 83 17
0.252222 0.316495 0.008375 0 255 0 83 17
0.161227 0.304660 0.007314 0 255 0 83 17
0.275334 0.298843 -0.089950 0 255 0 83 17
0.220820 0.303218 0.000050 0 255 0 83 17
0.221711 0.218856 -0.007950 0 255 0 83 17
0.292698 0.331781 -0.003788 0 255 0 83 17
0.232287 0.345729 0.008302 0 255 0 83 17
0.239253 0.335910 -0.003950 0 255 0 83 17
0.295843 0.292056 0.006001 0 255 0 83 17
0.201699 0.266580 -0.043848 0 255 0 83 17
0.230476 0.333831 0.006050 0 255 0 83 17
0.259091 0.275909 -0.011950 0 255 0 83 17
0.304796 0.339251 -0.009950 0 255 0 83 17
0.212946 0.315299 0.013005 0 255 0 83 17
0.269527 0.306342 -0.037950 0 255 0 83 17
0.261786 0.256814 -0.035950 0 255 0 83 17
0.237589 0.319873 0.002050 0 255 0 83 17
0.217289 0.262982 -0.012701 0 255 0 83 17
0.202454 0.327984 -0.083950 0 255 0 83 17
0.184190 0.319886 -0.031950 0 255 0 83 17
0.238103 0.335356 -0.013950 0 255 0 83 17
0.231082 0.278270 -0.007848 0 255 0 83 17
0.186260 0.288618 0.013805 0 255 0 83 17
0.190381 0.333140 -0.067950 0 255 0 83 17
0.241224 0.327245 -0.029950 0 255 0 83 17
0.236928 0.276921 -0.092945 0 255 0 83 17
0.191065 0.264931 -0.005950 0 255 0 83 17
0.261143 0.346246 0.004050 0 255 0 83 17
0.198033 0.326953 -0.071950 0 255 0 83 17
0.227870 0.282140 0.004050 0 255 0 83 17
0.261790 0.273234 -0.053950 0 255 0 83 17
0.229585 0.307353 0.007240 0 255 0 83 17
0.163922 0.262986 -0.004943 0 255 0 83 17
0.274329 0.287781 -0.061950 0 255 0 83 17
0.231830 0.263730 -0.009859 0 255 0 83 17
0.259873 0.376307 0.017040 0 255 0 83 17
0.188130 0.358953 0.022050 0 255 0 83 17
0.310833 0.294753 0.005333 0 255 0 83 17
0.268410 0.271031 -0.059950 0 255 0 83 17
0.221406 0.316380 0.006050 0 255 0 83 17
0.235131 0.295809 -0.034843 0 255 0 83 17
0.261726 0.313205 -0.027950 0 255 0 83 17
0.196459 0.341684 -0.036605 0 255 0 83 17
0.247391 0.290927 -0.021950 0 255 0 83 17
0.203193 0.210816 -0.008567 0 255 0 83 17
0.285049 0.298653 -0.005396 0 255 0 83 17
0.279957 0.338829 0.007708 0 255 0 83 17
0.249694 0.327342 -0.031950 0 255 0 83 17
0.272995 0.282000 -0.073950 0 255 0 83 17
0.235502 0.261853 -0.035950 0 255 0 83 17
0.205730 0.284124 -0.031950 0 255 0 83 17
0.215194 0.298360 -0.038742 0 255 0 83 17
0.200845 0.311935 -0.081950 0 255 0 83 17
0.278457 0.341227 -0.000919 0 255 0 83 17
0.208258 0.268322 -0.059950 0 255 0 83 17
0.230868 0.274214 -0.031950 0 255 0 83 17
0.197905 0.285714 0.000050 0 255 0 83 17
0.248322 0.290711 0.003099 0 255 0 83 17
0.282378 0.237691 -0.013950 0 255 0 83 17
0.185824 0.309245 -0.035950 0 255 0 83 17
0.214142 0.276024 -0.060963 0 255 0 83 17
0.271113 0.344975 -0.002905 0 255 0 83 17
0.264365 0.315744 -0.038846 0 255 0 83 17
0.244273 0.273172 -0.003936 0 255 0 83 17
0.184163 0.297313 -0.026545 0 255 0 83 17
0.202604 0.323845 -0.092809 0 255 0 83 17
0.208154 0.365668 0.000538 0 255 0 83 17
0.197359 0.345582 0.019238 0 255 0 83 17
0.183523 0.276761 0.000050 0 255 0 83 17
0.289251 0.334630 0.007541 0 255 0 83 17
0.188811 0.308556 -0.044992 0 255 0 83 17
0.245086 0.267804 -0.057950 0 255 0 83 17
0.195188 0.327609 0.018050 0 255 0 83 17
0.216695 0.365749 -0.025950 0 255 0 83 17
0.220892 0.331938 -0.020861 0 255 0 83 17
0.248028 0.360568 0.009149 0 255 0 83 17
0.279954 0.312145 -0.008942 0 255 0 83 17
0.198403 0.287868 -0.028969 0 255 0 83 17
0.256571 0.344228 0.012241 0 255 0 83 17
0.263012 0.283215 -0.021558 0 255 0 83 17
0.250875 0.337332 0.004564 0 255 0 83 17
0.227932 0.264629 0.007244 0 255 0 83 17
0.220736 0.260133 -0.026089 0 255 0 83 17
0.192772 0.303536 -0.029950 0 255 0 83 17
0.271406 0.275119 -0.040967 0 255 0 83 17
0.206839 0.279955 -0.087950 0 255 0 83 17
0.219668 0.326631 0.010050 0 255 0 83 17
0.209497 0.291464 -0.027757 0 255 0 83 17
0.302054 0.310071 0.004050 0 255 0 83 17
0.177564 0.259838 0.000392 0 255 0 83 17
0.199603 0.301958 -0.034652 0 255 0 83 17
0.209403 0.293538 0.010050 0 255 0 83 17
0.191272 0.310324 -0.017950 0 255 0 83 17
0.241792 0.369118 -0.017950 0 255 0 83 17
0.207361 0.273326 -0.071950 0 255 0 83 17
0.173517 0.268982 0.004266 0 255 0 83 17
0.288170 0.289722 0.002050 0 255 0 83 17
0.249224 0.321292 -0.000613 0 255 0 83 17
0.223360 0.241053 -0.003950 0 255 0 83 17
0.194372 0.315483 -0.085950 0 255 0 83 17
0.253936 0.261688 -0.057950 0 255 0 83 17
0.212680 0.340821 0.016050 0 255 0 83 17
0.191012 0.335869 -0.045950 0 255 0 83 17
0.251919 0.279618 -0.084993 0 255 0 83 17
0.209205 0.336689 -0.025950 0 255 0 83 17
0.247869 0.262079 -0.038984 0 255 0 83 17
0.276956 0.316943 -0.090802 0 255 0 83 17
0.237172 0.295761 0.018050 0 255 0 83 17
0.280399 0.260727 0.002661 0 255 0 83 17
0.215605 0.212055 -0.017950 0 255 0 83 17
0.193789 0.325880 -0.053950 0 255 0 83 17
0.242923 0.267326 -0.030925 0 255 0 83 17
0.227295 0.330460 0.014050 0 255 0 83 17
0.187464 0.329393 -0.039065 0 255 0 83 17
0.287448 0.300152 -0.025771 0 255 0 83 17
0.280607 0.328415 -0.033950 0 255 0 83 17
0.187483 0.331441 -0.057950 0 255 0 83 17
0.256269 0.307350 -0.036498 0 255 0 83 17
0.243679 0.332836 0.011169 0 255 0 83 17
0.205455 0.353976 -0.032927 0 255 0 83 17
0.239633 0.341980 0.014847 0 255 0 83 17
0.203570 0.321569 -0.035950 0 255 0 83 17
0.176070 0.315602 0.007061 0 255 0 83 17
0.210547 0.313800 -0.008844 0 255 0 83 17
0.229436 0.315598 0.008878 0 255 0 83 17
0.202456 0.336195 -0.083950 0 255 0 83 17
0.266459 0.280366 -0.036372 0 255 0 83 17
0.231991 0.247272 -0.001950 0 255 0 83 17
0.285965 0.290231 -0.051950 0 255 0 83 17
0.288388 0.259767 -0.003950 0 255 0 83 17
0.216543 0.304206 -0.007016 0 255 0 83 17
0.289320 0.290478 -0.013950 0 255 0 83 17
0.246381 0.371211 -0.025634 0 255 0 83 17
0.217982 0.283766 -0.027950 0 255 0 83 17
0.296809 0.305136 -0.007950 0 255 0 83 17
0.216985 0.252774 -0.005950 0 255 0 83 17
0.264444 0.284937 -0.075950 0 255 0 83 17
0.284061 0.321040 -0.009950 0 255 0 83 17
0.198150 0.300241 -0.075950 0 255 0 83 17
0.266758 0.263877 -0.026657 0 255 0 83 17
0.292025 0.315516 -0.033950 0 255 0 83 17
0.264325 0.293174 -0.003950 0 255 0 83 17
0.292914 0.237312 -0.009950 0 255 0 83 17
0.202679 0.359735 -0.037950 0 255 0 83 17
0.201468 0.278949 -0.037950 0 255 0 83 17
0.303638 0.290256 -0.009762 0 255 0 83 17
0.248534 0.291630 -0.037950 0 255 0 83 17
0.216309 0.369943 -0.001950 0 255 0 83 17
0.218445 0.353029 -0.037950 0 255 0 83 17
0.246965 0.267054 -0.081950 0 255 0 83 17
0.166169 0.246047 -0.002316 0 255 0 83 17
0.235133 0.322492 -0.035306 0 255 0 83 17
0.260017 0.314695 -0.004844 0 255 0 83 17
0.265938 0.239434 -0.005950 0 255 0 83 17
0.278751 0.271370 -0.026764 0 255 0 83 17
0.256722 0.301087 -0.029950 0 255 0 83 17
0.198671 0.328858 -0.009950 0 255 0 83 17
0.279678 0.281420 -0.057950 0 255 0 83 17
0.190461 0.253472 0.000050 0 255 0 83 17
0.254021 0.324290 0.007461 0 255 0 83 17
0.258819 0.327288 0.000276 0 255 0 83 17
0.275854 0.298723 -0.073950 0 255 0 83 17
0.195104 0.282472 -0.060680 0 255 0 83 17
0.238432 0.327889 0.007605 0 255 0 83 17
0.205741 0.204069 -0.013881 0 255 0 83 17
0.201699 0.266580 -0.026954 0 255 0 83 17
0.269763 0.339130 -0.038804 0 255 0 83 17
0.221939 0.300907 -0.021110 0 255 0 83 17
0.247419 0.260130 -0.026316 0 255 0 83 17
0.180566 0.308406 0.003080 0 255 0 83 17
0.223134 0.323861 -0.017950 0 255 0 83 17
0.234782 0.312083 0.016050 0 255 0 83 17
0.247416 0.379183 0.010050 0 255 0 83 17
0.254325 0.361166 -0.034593 0 255 0 83 17
0.215705 0.273903 -0.021950 0 255 0 83 17
0.190906 0.273178 0.001270 0 255 0 83 17
0.183864 0.313803 -0.056563 0 255 0 83 17
0.245150 0.250300 0.000050 0 255 0 83 17
0.204319 0.282397 -0.071950 0 255 0 83 17
0.209347 0.299709 -0.032512 0 255 0 83 17
0.216546 0.330889 -0.038921 0 255 0 83 17
0.215696 0.309426 -0.027950 0 255 0 83 17
0.287322 0.246259 -0.001950 0 255 0 83 17
0.305892 0.353367 0.007812 0 255 0 83 17
0.204548 0.270028 0.001113 0 255 0 83 17
0.255222 0.338381 -0.002617 0 255 0 83 17
0.240144 0.273072 -0.073950 0 255 0 83 17
0.203622 0.225084 -0.007950 0 255 0 83 17
0.273057 0.291159 -0.090056 0 255 0 83 17
0.229315 0.350634 0.014050 0 255 0 83 17
0.206153 0.321439 0.014050 0 255 0 83 17
0.249967 0.253385 -0.035752 0 255 0 83 17
0.221869 0.265037 -0.069950 0 255 0 83 17
0.218940 0.279021 0.004799 0 255 0 83 17
0.198076 0.330907 -0.035950 0 255 0 83 17
0.277146 0.288162 -0.025950 0 255 0 83 17
0.295550 0.299679 -0.031950 0 255 0 83 17
0.315462 0.341475 0.006050 0 255 0 83 17
0.263462 0.285163 -0.030730 0 255 0 83 17
0.269712 0.275510 -0.067950 0 255 0 83 17
0.188933 0.322896 -0.045950 0 255 0 83 17
0.292847 0.323536 -0.027375 0 255 0 83 17
0.212314 0.259217 -0.041950 0 255 0 83 17
0.205939 0.329399 -0.033950 0 255 0 83 17
0.258133 0.292551 -0.011950 0 255 0 83 17
0.241566 0.357954 -0.017950 0 255 0 83 17
0.226284 0.275273 -0.082957 0 255 0 83 17
0.241952 0.307578 0.002050 0 255 0 83 17
0.234830 0.285616 0.003993 0 255 0 83 17
0.241679 0.263508 -0.067950 0 255 0 83 17
0.288434 0.279398 -0.033950 0 255 0 83 17
0.210897 0.346561 -0.075950 0 255 0 83 17
0.260446 0.272099 -0.079950 0 255 0 83 17
0.271625 0.244280 -0.003950 0 255 0 83 17
0.209035 0.316138 -0.035950 0 255 0 83 17
0.297642 0.299851 0.003684 0 255 0 83 17
0.269696 0.347729 -0.027950 0 255 0 83 17
0.198199 0.313658 -0.015950 0 255 0 83 17
0.279199 0.246636 -0.006949 0 255 0 83 17
0.279752 0.320158 -0.029950 0 255 0 83 17
0.274669 0.288734 -0.081950 0 255 0 83 17
0.232436 0.337484 -0.020371 0 255 0 83 17
0.239324 0.251736 -0.035262 0 255 0 83 17
0.244422 0.264927 0.006288 0 255 0 83 17
0.257567 0.263946 -0.033950 0 255 0 83 17
0.249821 0.288313 -0.028919 0 255 0 83 17
0.279206 0.326686 -0.002927 0 255 0 83 17
0.245078 0.294443 -0.003950 0 255 0 83 17
0.216128 0.302408 0.014050 0 255 0 83 17
0.199288 0.273917 -0.057950 0 255 0 83 17
0.224055 0.265617 -0.009950 0 255 0 83 17
0.249279 0.303748 -0.031950 0 255 0 83 17
0.164707 0.310842 0.010050 0 255 0 83 17
0.264509 0.298589 -0.029950 0 255 0 83 17
0.295095 0.306596 -0.038938 0 255 0 83 17
0.237084 0.348726 -0.000860 0 255 0 83 17
0.291048 0.315741 -0.049000 0 255 0 83 17
0.255840 0.332163 -0.035950 0 255 0 83 17
0.262595 0.291521 -0.019950 0 255 0 83 17
0.243527 0.314397 0.008291 0 255 0 83 17
0.240975 0.267776 -0.010560 0 255 0 83 17
0.196890 0.267691 -0.035950 0 255 0 83 17
0.235139 0.358079 -0.021950 0 255 0 83 17
0.281901 0.285011 -0.009837 0 255 0 83 17
0.283018 0.343194 -0.033950 0 255 0 83 17
0.223636 0.345674 0.014050 0 255 0 83 17
0.187613 0.321148 -0.063057 0 255 0 83 17
0.271107 0.291609 -0.008852 0 255 0 83 17
0.228505 0.284890 -0.025950 0 255 0 83 17
0.295245 0.325036 -0.001596 0 255 0 83 17
0.177267 0.303010 -0.034975 0 255 0 83 17
0.205226 0.326315 0.002050 0 255 0 83 17
0.245245 0.318105 -0.019950 0 255 0 83 17
0.267422 0.255513 0.000050 0 255 0 83 17
0.283127 0.348360 0.004050 0 255 0 83 17
0.197058 0.335388 -0.061059 0 255 0 83 17
0.216993 0.306154 -0.034742 0 255 0 83 17
0.212797 0.323544 -0.031597 0 255 0 83 17
0.224863 0.286897 -0.009950 0 255 0 83 17
0.196305 0.296562 -0.054949 0 255 0 83 17
0.225917 0.255900 -0.043950 0 255 0 83 17
0.205449 0.300609 -0.012878 0 255 0 83 17
0.275798 0.352104 -0.035950 0 255 0 83 17
0.278155 0.304350 -0.005540 0 255 0 83 17
0.233991 0.264201 -0.047950 0 255 0 83 17
0.222816 0.295816 0.002050 0 255 0 83 17
0.269086 0.362867 -0.029950 0 255 0 83 17
0.214592 0.277972 -0.004857 0 255 0 83 17
0.311134 0.304946 0.003893 0 255 0 83 17
0.307540 0.342723 0.008245 0 255 0 83 17
0.296897 0.341075 0.009128 0 255 0 83 17
0.211892 0.266280 -0.001457 0 255 0 83 17
0.271411 0.328485 0.001358 0 255 0 83 17
0.197700 0.283925 0.008050 0 255 0 83 17
0.237231 0.313797 -0.024181 0 255 0 83 17
0.288566 0.251646 -0.007950 0 255 0 83 17
0.184776 0.299972 0.016050 0 255 0 83 17
0.215136 0.355846 0.010050 0 255 0 83 17
0.218097 0.293158 -0.029950 0 255 0 83 17
0.224039 0.318896 -0.010502 0 255 0 83 17
0.237944 0.290211 -0.005950 0 255 0 83 17
0.212002 0.275644 -0.083950 0 255 0 83 17
0.262087 0.270317 -0.027950 0 255 0 83 17
0.183158 0.346306 0.024050 0 255 0 83 17
0.259935 0.278778 -0.069950 0 255 0 83 17
0.256031 0.279649 -0.017950 0 255 0 83 17
0.182424 0.334661 -0.035950 0 255 0 83 17
0.245772 0.270774 -0.088337 0 255 0 83 17
0.248831 0.333698 -0.037950 0 255 0 83 17
0.280295 0.287435 -0.067950 0 255 0 83 17
0.217950 0.225882 -0.011950 0 255 0 83 17
0.223346 0.262546 -0.037950 0 255 0 83 17
0.238630 0.275401 -0.085950 0 255 0 83 17
0.259138 0.253320 -0.003950 0 255 0 83 17
0.199232 0.215836 -0.015950 0 255 0 83 17
0.208784 0.275208 -0.047950 0 255 0 83 17
0.283253 0.317541 -0.072949 0 255 0 83 17
0.278936 0.279538 -0.005950 0 255 0 83 17
0.277252 0.273769 0.002445 0 255 0 83 17
0.210147 0.267613 -0.033950 0 255 0 83 17
0.254817 0.363298 0.018050 0 255 0 83 17
0.272177 0.266730 -0.043950 0 255 0 83 17
0.199584 0.338910 -0.073950 0 255 0 83 17
0.258920 0.269791 -0.047950 0 255 0 83 17
0.278839 0.333986 -0.001950 0 255 0 83 17
0.195018 0.326551 0.006050 0 255 0 83 17
0.270982 0.277270 -0.047950 0 255 0 83 17
0.234678 0.267177 -0.030852 0 255 0 83 17
0.196956 0.286149 -0.043950 0 255 0 83 17
0.220435 0.249940 0.007646 0 255 0 83 17
0.232167 0.256300 -0.031950 0 255 0 83 17
0.197175 0.286098 -0.075950 0 255 0 83 17
0.283269 0.319201 -0.000007 0 255 0 83 17
0.182217 0.324446 -0.025915 0 255 0 83 17
0.218568 0.272949 -0.071950 0 255 0 83 17
0.255736 0.322822 -0.037950 0 255 0 83 17
0.281152 0.299553 -0.060980 0 255 0 83 17
0.209679 0.305790 -0.009950 0 255 0 83 17
0.181629 0.304120 -0.025950 0 255 0 83 17
0.269535 0.261183 -0.033950 0 255 0 83 17
0.254351 0.365265 -0.027950 0 255 0 83 17
0.221942 0.327590 -0.005073 0 255 0 83 17
0.236727 0.338545 0.008050 0 255 0 83 17
0.201555 0.328192 0.011066 0 255 0 83 17
0.191806 0.277076 -0.045969 0 255 0 83 17
0.281581 0.307664 -0.075950 0 255 0 83 17
0.274406 0.297005 0.001032 0 255 0 83 17
0.191806 0.277076 -0.026455 0 255 0 83 17
0.229580 0.253986 -0.004863 0 255 0 83 17
0.281752 0.293256 -0.000874 0 255 0 83 17
0.248765 0.257067 -0.047950 0 255 0 83 17
0.198036 0.312950 -0.035950 0 255 0 83 17
0.287537 0.309428 -0.025950 0 255 0 83 17
0.280401 0.287410 -0.047010 0 255 0 83 17
0.260890 0.283704 0.002050 0 255 0 83 17
0.219690 0.291164 -0.012697 0 255 0 83 17
0.239185 0.366714 0.014820 0 255 0 83 17
0.195110 0.335838 0.023230 0 255 0 83 17
0.250569 0.273771 -0.012844 0 255 0 83 17
0.213687 0.220708 -0.005141 0 255 0 83 17
0.254390 0.343669 0.004050 0 255 0 83 17
0.283849 0.284561 0.004724 0 255 0 83 17
0.218157 0.337866 -0.037950 0 255 0 83 17
0.220054 0.257175 0.004050 0 255 0 83 17
0.186710 0.290568 -0.050893 0 255 0 83 17
0.291346 0.299252 -0.047338 0 255 0 83 17
0.201868 0.344541 -0.029950 0 255 0 83 17
0.212561 0.295851 -0.017950 0 255 0 83 17
0.208895 0.271077 -0.027188 0 255 0 83 17
0.180417 0.316651 -0.026615 0 255 0 83 17
0.258287 0.276095 -0.023950 0 255 0 83 17
0.284533 0.287524 -0.033950 0 255 0 83 17
0.239979 0.321374 -0.025950 0 255 0 83 17
0.233216 0.361935 0.008050 0 255 0 83 17
0.295005 0.279934 -0.011950 0 255 0 83 17
0.258214 0.280217 -0.005341 0 255 0 83 17
0.267725 0.303625 -0.011950 0 255 0 83 17
0.202898 0.288883 -0.011950 0 255 0 83 17
0.226058 0.327641 -0.037950 0 255 0 83 17
0.249672 0.298610 -0.019950 0 255 0 83 17
0.262976 0.287328 -0.083950 0 255 0 83 17
0.155786 0.256654 -0.003950 0 255 0 83 17
0.262785 0.362250 0.014050 0 255 0 83 17
0.210738 0.350186 -0.035950 0 255 0 83 17
0.200178 0.217669 -0.007950 0 255 0 83 17
0.248777 0.346027 0.009087 0 255 0 83 17
0.249972 0.306751 0.005297 0 255 0 83 17
0.241432 0.349775 -0.038786 0 255 0 83 17
0.218999 0.291323 -0.001950 0 255 0 83 17
0.229739 0.352474 -0.038758 0 255 0 83 17
0.234827 0.258932 -0.055562 0 255 0 83 17
0.214895 0.314849 0.003512 0 255 0 83 17
0.232378 0.368286 -0.033950 0 255 0 83 17
0.197660 0.355775 -0.026239 0 255 0 83 17
0.191669 0.307896 -0.051950 0 255 0 83 17
0.228531 0.258334 -0.026185 0 255 0 83 17
0.154936 0.357428 -0.063102 0 255 0 83 17
0.220964 0.314461 -0.025950 0 255 0 83 17
0.231385 0.315148 -0.034873 0 255 0 83 17
0.258109 0.297538 -0.023950 0 255 0 83 17
0.206941 0.218160 -0.012946 0 255 0 83 17
0.203709 0.350274 0.000050 0 255 0 83 17
0.199603 0.301958 -0.007186 0 255 0 83 17
0.212229 0.325728 0.000050 0 255 0 83 17
0.262492 0.352085 0.008050 0 255 0 83 17
0.287861 0.328612 0.004050 0 255 0 83 17
0.216634 0.269036 -0.077950 0 255 0 83 17
0.227785 0.299558 -0.035560 0 255 0 83 17
0.244345 0.362392 -0.025950 0 255 0 83 17
0.284095 0.312297 -0.061950 0 255 0 83 17
0.239245 0.269177 -0.061950 0 255 0 83 17
0.297973 0.292397 -0.005950 0 255 0 83 17
0.244683 0.285394 0.006050 0 255 0 83 17
0.274901 0.334710 0.004050 0 255 0 83 17
0.282201 0.295206 -0.010846 0 255 0 83 17
0.272224 0.296441 -0.079950 0 255 0 83 17
0.224300 0.302242 0.022050 0 255 0 83 17
0.179672 0.318876 -0.041950 0 255 0 83 17
0.215795 0.318747 -0.038810 0 255 0 83 17
0.191882 0.312970 0.004050 0 255 0 83 17
0.281231 0.295430 -0.051950 0 255 0 83 17
0.191358 0.301810 -0.076829 0 255 0 83 17
0.259863 0.269574 -0.072742 0 255 0 83 17
0.194829 0.348219 -0.039950 0 255 0 83 17
0.245030 0.365365 -0.038911 0 255 0 83 17
0.199319 0.318509 -0.025950 0 255 0 83 17
0.231829 0.302729 -0.009950 0 255 0 83 17
0.260166 0.306450 -0.025558 0 255 0 83 17
0.199100 0.290885 -0.085950 0 255 0 83 17
0.188360 0.306607 -0.066528 0 255 0 83 17
0.208663 0.318341 -0.013950 0 255 0 83 17
0.224940 0.322793 0.005153 0 255 0 83 17
0.256891 0.253838 -0.031950 0 255 0 83 17
0.279596 0.283921 -0.019950 0 255 0 83 17
0.292718 0.247620 -0.011950 0 255 0 83 17
0.278473 0.316592 -0.035950 0 255 0 83 17
0.251534 0.260168 -0.031950 0 255 0 83 17
0.275777 0.285160 0.000050 0 255 0 83 17
0.209502 0.344831 -0.082562 0 255 0 83 17
0.194688 0.344146 -0.055950 0 255 0 83 17
0.221040 0.297010 -0.035188 0 255 0 83 17
0.247877 0.342129 -0.038949 0 255 0 83 17
0.194234 0.297040 -0.011950 0 255 0 83 17
0.223271 0.364231 -0.035950 0 255 0 83 17
0.297856 0.354127 0.006050 0 255 0 83 17
0.254889 0.292486 0.000050 0 255 0 83 17
0.247631 0.327818 0.008050 0 255 0 83 17
0.285700 0.304660 -0.053950 0 255 0 83 17
0.285651 0.319040 -0.059112 0 255 0 83 17
0.256124 0.368962 0.013104 0 255 0 83 17
0.205693 0.274994 -0.011950 0 255 0 83 17
0.210247 0.303607 0.001218 0 255 0 83 17
0.267959 0.277968 -0.023992 0 255 0 83 17
0.305202 0.297036 0.002050 0 255 0 83 17
0.211000 0.342433 -0.034994 0 255 0 83 17
0.205601 0.319047 0.007049 0 255 0 83 17
0.194624 0.324844 -0.079950 0 255 0 83 17
0.219883 0.309779 0.004050 0 255 0 83 17
0.209243 0.305892 0.014050 0 255 0 83 17
0.181266 0.330824 -0.041950 0 255 0 83 17
0.189338 0.316645 -0.069950 0 255 0 83 17
0.270509 0.297904 -0.035429 0 255 0 83 17
0.206951 0.324894 -0.021843 0 255 0 83 17
0.255965 0.270473 0.004462 0 255 0 83 17
0.165379 0.251517 0.002050 0 255 0 83 17
0.301470 0.334210 -0.003950 0 255 0 83 17
0.255247 0.276253 -0.089950 0 255 0 83 17
0.198452 0.279189 0.002050 0 255 0 83 17
0.230480 0.257884 0.005094 0 255 0 83 17
0.167158 0.303678 0.004050 0 255 0 83 17
0.221111 0.279538 -0.091950 0 255 0 83 17
0.192425 0.256407 -0.005950 0 255 0 83 17
0.226480 0.329468 -0.015950 0 255 0 83 17
0.198497 0.256001 -0.013490 0 255 0 83 17
0.303188 0.288308 -0.018842 0 255 0 83 17
0.282386 0.296004 0.006050 0 255 0 83 17
0.229034 0.278292 -0.023950 0 255 0 83 17
0.205887 0.306666 -0.017950 0 255 0 83 17
0.272969 0.281889 -0.037950 0 255 0 83 17
0.254464 0.246188 -0.004858 0 255 0 83 17
0.299258 0.293320 -0.013950 0 255 0 83 17
0.214511 0.268734 -0.041950 0 255 0 83 17
0.218194 0.320246 0.001050 0 255 0 83 17
0.187257 0.280177 -0.039950 0 255 0 83 17
0.265274 0.270376 -0.039950 0 255 0 83 17
0.255901 0.274594 -0.065950 0 255 0 83 17
0.261364 0.293858 -0.036438 0 255 0 83 17
0.249764 0.265747 -0.045950 0 255 0 83 17
0.193377 0.310550 -0.057950 0 255 0 83 17
0.253353 0.276935 -0.001950 0 255 0 83 17
0.239918 0.319335 -0.015950 0 255 0 83 17
0.266971 0.291471 -0.031950 0 255 0 83 17
0.198406 0.314551 -0.074955 0 255 0 83 17
0.211403 0.375182 -0.003950 0 255 0 83 17
0.199750 0.267030 -0.002855 0 255 0 83 17
0.291663 0.293021 -0.041950 0 255 0 83 17
0.180867 0.318600 0.010767 0 255 0 83 17
0.265736 0.262060 0.000050 0 255 0 83 17
0.234529 0.275422 -0.012918 0 255 0 83 17
0.192007 0.295730 -0.073950 0 255 0 83 17
0.219542 0.233725 -0.003950 0 255 0 83 17
0.294644 0.304648 -0.026221 0 255 0 83 17
0.215509 0.304445 -0.021950 0 255 0 83 17
0.225508 0.351929 0.004050 0 255 0 83 17
0.204226 0.294734 -0.015950 0 255 0 83 17
0.264430 0.340360 0.004050 0 255 0 83 17
0.284294 0.233144 -0.006167 0 255 0 83 17
0.227234 0.359402 -0.031950 0 255 0 83 17
0.290828 0.319898 0.000050 0 255 0 83 17
0.191973 0.350931 -0.027950 0 255 0 83 17
0.194340 0.290858 0.012050 0 255 0 83 17
0.212398 0.290794 0.000050 0 255 0 83 17
0.225544 0.369864 -0.028341 0 255 0 83 17
0.227940 0.344679 0.001761 0 255 0 83 17
0.226949 0.264856 -0.047950 0 255 0 83 17
0.280770 0.271222 -0.033950 0 255 0 83 17
0.196630 0.278014 0.012050 0 255 0 83 17
0.176590 0.273405 0.000050 0 255 0 83 17
0.202704 0.333171 -0.077950 0 255 0 83 17
0.237730 0.315958 -0.031950 0 255 0 83 17
0.250866 0.263440 -0.001950 0 255 0 83 17
0.253418 0.277219 0.005034 0 255 0 83 17
0.204918 0.262743 -0.007950 0 255 0 83 17
0.238735 0.364766 -0.030938 0 255 0 83 17
0.219683 0.211114 -0.011385 0 255 0 83 17
0.226287 0.301957 -0.014871 0 255 0 83 17
0.216983 0.323893 -0.011950 0 255 0 83 17
0.247574 0.305253 -0.004944 0 255 0 83 17
0.234607 0.293540 0.004050 0 255 0 83 17
0.222836 0.260337 -0.055950 0 255 0 83 17
0.289998 0.320089 -0.006853 0 255 0 83 17
0.238547 0.363952 -0.021950 0 255 0 83 17
0.252653 0.300579 0.004050 0 255 0 83 17
0.230857 0.331690 -0.001950 0 255 0 83 17
0.208340 0.240416 -0.005950 0 255 0 83 17
0.234144 0.314510 0.000050 0 255 0 83 17
0.253721 0.314097 -0.002694 0 255 0 83 17
0.233629 0.271525 -0.090455 0 255 0 83 17
0.221338 0.280520 -0.008705 0 255 0 83 17
0.221259 0.271287 -0.055950 0 255 0 83 17
0.288646 0.287559 -0.026402 0 255 0 83 17
0.250137 0.366239 0.012050 0 255 0 83 17
0.223292 0.333437 0.009635 0 255 0 83 17
0.265558 0.276469 -0.081950 0 255 0 83 17
0.231380 0.261781 -0.064810 0 255 0 83 17
0.215499 0.361920 -0.002935 0 255 0 83 17
0.209113 0.272022 -0.003950 0 255 0 83 17
0.197027 0.273014 -0.049950 0 255 0 83 17
0.182169 0.324241 -0.045950 0 255 0 83 17
0.288796 0.279314 -0.026370 0 255 0 83 17
0.229043 0.269442 -0.059950 0 255 0 83 17
0.223843 0.294310 0.020050 0 255 0 83 17
0.187608 0.267781 -0.000777 0 255 0 83 17
0.247260 0.272483 -0.073950 0 255 0 83 17
0.188833 0.341392 -0.031950 0 255 0 83 17
0.288849 0.328565 -0.031950 0 255 0 83 17
0.268401 0.275813 -0.031950 0 255 0 83 17
0.243376 0.295958 0.003170 0 255 0 83 17
0.233845 0.272463 -0.071950 0 255 0 83 17
0.236565 0.266458 -0.081950 0 255 0 83 17
0.209069 0.271037 -0.065950 0 255 0 83 17
0.189456 0.283776 -0.051950 0 255 0 83 17
0.242691 0.266318 -0.051950 0 255 0 83 17
0.188218 0.341551 -0.041950 0 255 0 83 17
0.192410 0.293357 -0.041950 0 255 0 83 17
0.274859 0.325637 -0.036150 0 255 0 83 17
0.236033 0.326390 -0.006944 0 255 0 83 17
0.288708 0.323387 -0.051950 0 255 0 83 17
0.235815 0.351072 -0.021950 0 255 0 83 17
0.276655 0.306748 -0.035336 0 255 0 83 17
0.273691 0.286907 -0.019950 0 255 0 83 17
0.169773 0.315004 0.005130 0 255 0 83 17
0.290929 0.287033 -0.035950 0 255 0 83 17
0.198228 0.260440 0.000050 0 255 0 83 17
0.224251 0.230900 -0.009950 0 255 0 83 17
0.192107 0.287269 -0.030872 0 255 0 83 17
0.235436 0.359370 0.001547 0 255 0 83 17
0.265849 0.277721 -0.013950 0 255 0 83 17
0.219527 0.276833 -0.083950 0 255 0 83 17
0.175918 0.297164 -0.027516 0 255 0 83 17
0.281150 0.272870 -0.002898 0 255 0 83 17
0.218329 0.264794 -0.063950 0 255 0 83 17
0.273961 0.348423 0.007960 0 255 0 83 17
0.255965 0.270473 -0.008278 0 255 0 83 17
0.253049 0.355644 0.016050 0 255 0 83 17
0.202447 0.252040 -0.008883 0 255 0 83 17
0.210928 0.272660 -0.077950 0 255 0 83 17
0.251770 0.287863 -0.017005 0 255 0 83 17
0.162122 0.255191 -0.004791 0 255 0 83 17
0.199156 0.326694 -0.020507 0 255 0 83 17
0.255068 0.293259 -0.034730 0 255 0 83 17
0.212508 0.282559 -0.085950 0 255 0 83 17
0.231079 0.251587 0.008471 0 255 0 83 17
0.239779 0.307052 -0.036266 0 255 0 83 17
0.224389 0.308552 -0.001950 0 255 0 83 17
0.245023 0.316104 -0.027950 0 255 0 83 17
0.259562 0.259379 -0.044617 0 255 0 83 17
0.211528 0.284838 -0.019950 0 255 0 83 17
0.212216 0.321026 -0.007950 0 255 0 83 17
0.179769 0.287173 -0.027950 0 255 0 83 17
0.203349 0.282621 0.011065 0 255 0 83 17
0.207400 0.326843 -0.004435 0 255 0 83 17
0.206732 0.290050 -0.021950 0 255 0 83 17
0.190248 0.341065 -0.051950 0 255 0 83 17
0.244571 0.256683 -0.002679 0 255 0 83 17
0.207458 0.273743 0.006050 0 255 0 83 17
0.212887 0.284524 -0.031950 0 255 0 83 17
0.244997 0.295584 -0.033950 0 255 0 83 17
0.241497 0.358951 -0.031950 0 255 0 83 17
0.259267 0.302553 -0.006276 0 255 0 83 17
0.208939 0.324615 0.008050 0 255 0 83 17
0.234097 0.330943 0.012050 0 255 0 83 17
0.224641 0.339283 0.014629 0 255 0 83 17
0.212122 0.347291 0.016050 0 255 0 83 17
0.191659 0.312003 -0.079641 0 255 0 83 17
0.235431 0.306003 0.003478 0 255 0 83 17
0.279584 0.239415 -0.007950 0 255 0 83 17
0.225372 0.271325 -0.027950 0 255 0 83 17
0.270675 0.258866 -0.027950 0 255 0 83 17
0.234988 0.310210 -0.009950 0 255 0 83 17
0.271259 0.310047 -0.000106 0 255 0 83 17
