ply
format ascii 1.0
element vertex 1095
property float x
property float y
property float z
property uchar red
property uchar green
property uchar blue
property uchar semantic_label
property uchar instance_label
end_header
2.104576 -1.053516 -0.586226 0 255 0 46 26
2.140162 -1.131657 -0.530226 0 255 0 46 26
2.118503 -1.127054 -0.524226 0 255 0 46 26
2.159367 -1.257480 -0.540226 0 255 0 46 26
2.202176 -1.193911 -0.554226 0 255 0 46 26
2.183832 -1.132761 -0.576671 0 255 0 46 26
2.185703 -1.241527 -0.538226 0 255 0 46 26
2.184739 -1.090015 -0.591166 0 255 0 46 26
2.181915 -1.138487 -0.564226 0 255 0 46 26
2.106110 -1.267547 -0.525533 0 255 0 46 26
2.158931 -1.264462 -0.570226 0 255 0 46 26
2.082956 -1.203330 -0.510721 0 255 0 46 26
2.131202 -1.236076 -0.517159 0 255 0 46 26
2.082180 -1.072305 -0.578852 0 255 0 46 26
2.164356 -1.161336 -0.524226 0 255 0 46 26
2.117262 -1.253560 -0.523220 0 255 0 46 26
2.175626 -1.147374 -0.560226 0 255 0 46 26
2.150896 -1.066464 -0.576770 0 255 0 46 26
2.154724 -1.269702 -0.593164 0 255 0 46 26
2.132789 -1.267084 -0.533175 0 255 0 46 26
2.135094 -1.222591 -0.512226 0 255 0 46 26
2.199600 -1.158604 -0.594226 0 255 0 46 26
2.152598 -1.250847 -0.521235 0 255 0 46 26
2.199236 -1.181018 -0.544226 0 255 0 46 26
2.138763 -1.243817 -0.522226 0 255 0 46 26
2.123281 -1.225241 -0.512226 0 255 0 46 26
2.204466 -1.196442 -0.568226 0 255 0 46 26
2.082521 -1.109182 -0.574104 0 255 0 46 26
2.177658 -1.075231 -0.592226 0 255 0 46 26
2.196699 -1.192747 -0.588226 0 255 0 46 26
2.146322 -1.087984 -0.579151 0 255 0 46 26
2.130124 -1.260383 -0.526953 0 255 0 46 26
2.190240 -1.121855 -0.595179 0 255 0 46 26
2.153174 -1.151945 -0.516226 0 255 0 46 26
2.184853 -1.243391 -0.595021 0 255 0 46 26
2.192547 -1.230713 -0.538226 0 255 0 46 26
2.190961 -1.209929 -0.560226 0 255 0 46 26
2.191674 -1.216215 -0.572226 0 255 0 46 26
2.169610 -1.267007 -0.574226 0 255 0 46 26
2.119180 -1.061767 -0.581107 0 255 0 46 26
2.193604 -1.188000 -0.570226 0 255 0 46 26
2.192258 -1.198936 -0.564226 0 255 0 46 26
2.156347 -1.274136 -0.556226 0 255 0 46 26
2.132061 -1.164695 -0.513129 0 255 0 46 26
2.164732 -1.155282 -0.518325 0 255 0 46 26
2.197441 -1.168368 -0.554226 0 255 0 46 26
2.149046 -1.277179 -0.552226 0 255 0 46 26
2.162880 -1.214184 -0.510226 0 255 0 46 26
2.132386 -1.278599 -0.548226 0 255 0 46 26
2.097364 -1.164404 -0.512226 0 255 0 46 26
2.195718 -1.178226 -0.586226 0 255 0 46 26
2.159176 -1.258380 -0.527138 0 255 0 46 26
2.170663 -1.136998 -0.572226 0 255 0 46 26
2.156047 -1.225000 -0.519179 0 255 0 46 26
2.182386 -1.187660 -0.531165 0 255 0 46 26
2.167397 -1.147670 -0.536226 0 255 0 46 26
2.170402 -1.253662 -0.576226 0 255 0 46 26
2.074797 -1.095272 -0.576226 0 255 0 46 26
2.142150 -1.119812 -0.540226 0 255 0 46 26
2.097774 -1.210569 -0.507222 0 255 0 46 26
2.166518 -1.137260 -0.549163 0 255 0 46 26
2.190637 -1.173056 -0.574226 0 255 0 46 26
2.114237 -1.113879 -0.545251 0 255 0 46 26
2.179211 -1.125645 -0.575095 0 255 0 46 26
2.141513 -1.274141 -0.560226 0 255 0 46 26
2.153826 -1.148874 -0.527184 0 255 0 46 26
2.199545 -1.224022 -0.562226 0 255 0 46 26
2.147315 -1.266082 -0.526657 0 255 0 46 26
2.203068 -1.206369 -0.566226 0 255 0 46 26
2.097415 -1.077588 -0.574010 0 255 0 46 26
2.167008 -1.255955 -0.550226 0 255 0 46 26
2.140357 -1.274826 -0.572226 0 255 0 46 26
2.176115 -1.106584 -0.584226 0 255 0 46 26
2.090375 -1.094494 -0.576226 0 255 0 46 26
2.191271 -1.189549 -0.552226 0 255 0 46 26
2.125899 -1.155207 -0.511729 0 255 0 46 26
2.137437 -1.100408 -0.572226 0 255 0 46 26
2.188982 -1.219732 -0.552226 0 255 0 46 26
2.126410 -1.210521 -0.505304 0 255 0 46 26
2.181652 -1.234531 -0.556226 0 255 0 46 26
2.140180 -1.174599 -0.513216 0 255 0 46 26
2.151210 -1.276616 -0.578226 0 255 0 46 26
2.140758 -1.143020 -0.524226 0 255 0 46 26
2.161204 -1.205649 -0.518226 0 255 0 46 26
2.084872 -1.155834 -0.516226 0 255 0 46 26
2.107659 -1.106346 -0.575166 0 255 0 46 26
2.157779 -1.130279 -0.560226 0 255 0 46 26
2.157351 -1.084194 -0.581118 0 255 0 46 26
2.164334 -1.249253 -0.536226 0 255 0 46 26
2.148761 -1.211183 -0.515216 0 255 0 46 26
2.135898 -1.204360 -0.505683 0 255 0 46 26
2.159094 -1.186798 -0.516226 0 255 0 46 26
2.193736 -1.124643 -0.581903 0 255 0 46 26
2.159570 -1.141091 -0.524226 0 255 0 46 26
2.186230 -1.184388 -0.538226 0 255 0 46 26
2.094369 -1.126013 -0.534226 0 255 0 46 26
2.129683 -1.118169 -0.550226 0 255 0 46 26
2.198774 -1.129803 -0.590423 0 255 0 46 26
2.082476 -1.229809 -0.514226 0 255 0 46 26
2.116165 -1.181763 -0.511126 0 255 0 46 26
2.206624 -1.189067 -0.590226 0 255 0 46 26
2.126133 -1.240681 -0.512226 0 255 0 46 26
2.120466 -1.200009 -0.510226 0 255 0 46 26
2.165528 -1.106379 -0.574226 0 255 0 46 26
2.144918 -1.123450 -0.556226 0 255 0 46 26
2.171293 -1.265044 -0.564226 0 255 0 46 26
2.119808 -1.049190 -0.584226 0 255 0 46 26
2.127610 -1.176017 -0.505371 0 255 0 46 26
2.188437 -1.164410 -0.576226 0 255 0 46 26
2.102906 -1.273000 -0.540962 0 255 0 46 26
2.176074 -1.255837 -0.593060 0 255 0 46 26
2.159378 -1.122753 -0.554226 0 255 0 46 26
2.117980 -1.096272 -0.577152 0 255 0 46 26
2.146494 -1.278176 -0.588226 0 255 0 46 26
2.184494 -1.254700 -0.582226 0 255 0 46 26
2.113132 -1.205654 -0.511202 0 255 0 46 26
2.149968 -1.128548 -0.544226 0 255 0 46 26
2.149061 -1.267488 -0.548226 0 255 0 46 26
2.190534 -1.246643 -0.576226 0 255 0 46 26
2.115553 -1.117307 -0.536226 0 255 0 46 26
2.158184 -1.133443 -0.544226 0 255 0 46 26
2.125257 -1.273662 -0.543218 0 255 0 46 26
2.199502 -1.232192 -0.580035 0 255 0 46 26
2.159355 -1.113245 -0.579218 0 255 0 46 26
2.088456 -1.235169 -0.513586 0 255 0 46 26
2.146275 -1.059348 -0.581322 0 255 0 46 26
2.110657 -1.275016 -0.538226 0 255 0 46 26
2.101930 -1.142922 -0.522226 0 255 0 46 26
2.200096 -1.170977 -0.568226 0 255 0 46 26
2.121250 -1.215559 -0.509192 0 255 0 46 26
2.186522 -1.161958 -0.532226 0 255 0 46 26
2.204230 -1.212750 -0.576226 0 255 0 46 26
2.200213 -1.213941 -0.552226 0 255 0 46 26
2.098559 -1.178021 -0.511131 0 255 0 46 26
2.189966 -1.209718 -0.526131 0 255 0 46 26
2.112772 -1.072674 -0.572578 0 255 0 46 26
2.130474 -1.133687 -0.521644 0 255 0 46 26
2.205192 -1.204776 -0.582226 0 255 0 46 26
2.116950 -1.280074 -0.544226 0 255 0 46 26
2.187284 -1.227550 -0.562226 0 255 0 46 26
2.168033 -1.255188 -0.584226 0 255 0 46 26
2.138620 -1.076123 -0.579181 0 255 0 46 26
2.150576 -1.269978 -0.538226 0 255 0 46 26
2.094245 -1.193461 -0.510226 0 255 0 46 26
2.137339 -1.274536 -0.536226 0 255 0 46 26
2.142750 -1.124029 -0.533388 0 255 0 46 26
2.154412 -1.165356 -0.517167 0 255 0 46 26
2.191677 -1.230528 -0.595066 0 255 0 46 26
2.158769 -1.096763 -0.574562 0 255 0 46 26
2.180785 -1.254794 -0.554226 0 255 0 46 26
2.137807 -1.176140 -0.505791 0 255 0 46 26
2.100789 -1.090573 -0.572529 0 255 0 46 26
2.199732 -1.177034 -0.552226 0 255 0 46 26
2.187822 -1.176547 -0.550226 0 255 0 46 26
2.119516 -1.281432 -0.586226 0 255 0 46 26
2.186680 -1.143590 -0.584226 0 255 0 46 26
2.137249 -1.092189 -0.579197 0 255 0 46 26
2.147483 -1.072903 -0.580226 0 255 0 46 26
2.155539 -1.122658 -0.546226 0 255 0 46 26
2.178344 -1.148963 -0.576226 0 255 0 46 26
2.183585 -1.234942 -0.572226 0 255 0 46 26
2.125804 -1.117180 -0.570226 0 255 0 46 26
2.190964 -1.176163 -0.562226 0 255 0 46 26
2.139906 -1.262462 -0.531139 0 255 0 46 26
2.118283 -1.152562 -0.516226 0 255 0 46 26
2.202375 -1.212356 -0.592226 0 255 0 46 26
2.159211 -1.267834 -0.540226 0 255 0 46 26
2.167133 -1.086273 -0.583052 0 255 0 46 26
2.130503 -1.105068 -0.570226 0 255 0 46 26
2.153193 -1.103757 -0.572713 0 255 0 46 26
2.194370 -1.169760 -0.539500 0 255 0 46 26
2.152824 -1.134349 -0.526010 0 255 0 46 26
2.150602 -1.269857 -0.582226 0 255 0 46 26
2.135284 -1.255346 -0.519730 0 255 0 46 26
2.164997 -1.230991 -0.514982 0 255 0 46 26
2.166396 -1.147457 -0.524620 0 255 0 46 26
2.181377 -1.256965 -0.568226 0 255 0 46 26
2.164438 -1.166289 -0.514226 0 255 0 46 26
2.122606 -1.112984 -0.558226 0 255 0 46 26
2.157663 -1.188539 -0.508852 0 255 0 46 26
2.114837 -1.279625 -0.570226 0 255 0 46 26
2.147103 -1.272171 -0.566226 0 255 0 46 26
2.145557 -1.216636 -0.506553 0 255 0 46 26
2.076914 -1.169330 -0.514226 0 255 0 46 26
2.141119 -1.050073 -0.590226 0 255 0 46 26
2.106261 -1.189881 -0.508973 0 255 0 46 26
2.175968 -1.174028 -0.518226 0 255 0 46 26
2.199775 -1.144329 -0.590614 0 255 0 46 26
2.185713 -1.172010 -0.526694 0 255 0 46 26
2.146124 -1.137014 -0.521483 0 255 0 46 26
2.121618 -1.184967 -0.505991 0 255 0 46 26
2.070372 -1.089383 -0.578226 0 255 0 46 26
2.112815 -1.270706 -0.531535 0 255 0 46 26
2.154641 -1.208343 -0.508226 0 255 0 46 26
2.169212 -1.076491 -0.579300 0 255 0 46 26
2.200283 -1.190039 -0.546226 0 255 0 46 26
2.162341 -1.060718 -0.583682 0 255 0 46 26
2.091707 -1.258351 -0.523292 0 255 0 46 26
2.182772 -1.147368 -0.542226 0 255 0 46 26
2.136226 -1.279775 -0.568226 0 255 0 46 26
2.201366 -1.165704 -0.592226 0 255 0 46 26
2.186524 -1.164003 -0.558226 0 255 0 46 26
2.149571 -1.125478 -0.536226 0 255 0 46 26
2.199399 -1.155718 -0.582226 0 255 0 46 26
2.171805 -1.259019 -0.542226 0 255 0 46 26
2.138762 -1.162030 -0.515210 0 255 0 46 26
2.175694 -1.142189 -0.570226 0 255 0 46 26
2.142825 -1.085196 -0.573133 0 255 0 46 26
2.168575 -1.243017 -0.538226 0 255 0 46 26
2.193294 -1.179755 -0.578226 0 255 0 46 26
2.167322 -1.200815 -0.511084 0 255 0 46 26
2.195570 -1.135256 -0.595120 0 255 0 46 26
2.108752 -1.226261 -0.512226 0 255 0 46 26
2.068716 -1.102158 -0.578226 0 255 0 46 26
2.133016 -1.150585 -0.513188 0 255 0 46 26
2.136636 -1.114313 -0.562226 0 255 0 46 26
2.116581 -1.122092 -0.530226 0 255 0 46 26
2.140820 -1.277400 -0.544226 0 255 0 46 26
2.124495 -1.094480 -0.572226 0 255 0 46 26
2.151331 -1.160612 -0.511521 0 255 0 46 26
2.133460 -1.081160 -0.572764 0 255 0 46 26
2.126684 -1.122658 -0.527984 0 255 0 46 26
2.163608 -1.131714 -0.536226 0 255 0 46 26
2.155319 -1.122611 -0.575039 0 255 0 46 26
2.102150 -1.238080 -0.513346 0 255 0 46 26
2.113595 -1.232334 -0.511210 0 255 0 46 26
2.142694 -1.258966 -0.523384 0 255 0 46 26
2.157251 -1.053502 -0.586226 0 255 0 46 26
2.195463 -1.193478 -0.580226 0 255 0 46 26
2.156028 -1.128896 -0.531572 0 255 0 46 26
2.179442 -1.259230 -0.578226 0 255 0 46 26
2.123401 -1.248731 -0.522226 0 255 0 46 26
2.112942 -1.091112 -0.573373 0 255 0 46 26
2.147526 -1.168897 -0.508226 0 255 0 46 26
2.202036 -1.152935 -0.590226 0 255 0 46 26
2.105722 -1.202035 -0.506096 0 255 0 46 26
2.131210 -1.072503 -0.579205 0 255 0 46 26
2.152626 -1.183379 -0.515195 0 255 0 46 26
2.155556 -1.265789 -0.553204 0 255 0 46 26
2.169191 -1.225749 -0.528226 0 255 0 46 26
2.175781 -1.247596 -0.575199 0 255 0 46 26
2.161542 -1.122193 -0.570226 0 255 0 46 26
2.194984 -1.200561 -0.590226 0 255 0 46 26
2.105184 -1.214188 -0.506124 0 255 0 46 26
2.101709 -1.254343 -0.524226 0 255 0 46 26
2.178474 -1.186828 -0.516868 0 255 0 46 26
2.179708 -1.252520 -0.542226 0 255 0 46 26
2.169174 -1.101020 -0.582226 0 255 0 46 26
2.174958 -1.087936 -0.585168 0 255 0 46 26
2.194294 -1.208593 -0.585205 0 255 0 46 26
2.121767 -1.280465 -0.566226 0 255 0 46 26
2.145878 -1.157408 -0.519172 0 255 0 46 26
2.194090 -1.238415 -0.564226 0 255 0 46 26
2.148079 -1.123117 -0.566226 0 255 0 46 26
2.176018 -1.179143 -0.528226 0 255 0 46 26
2.188744 -1.242173 -0.548226 0 255 0 46 26
2.090856 -1.166160 -0.509405 0 255 0 46 26
2.168329 -1.133555 -0.578226 0 255 0 46 26
2.117841 -1.120779 -0.542226 0 255 0 46 26
2.144512 -1.125356 -0.548226 0 255 0 46 26
2.196022 -1.225318 -0.546226 0 255 0 46 26
2.120291 -1.109031 -0.570226 0 255 0 46 26
2.112451 -1.131901 -0.523359 0 255 0 46 26
2.147465 -1.278382 -0.560226 0 255 0 46 26
2.162530 -1.175261 -0.510903 0 255 0 46 26
2.183520 -1.153141 -0.534226 0 255 0 46 26
2.095081 -1.271337 -0.541158 0 255 0 46 26
2.175139 -1.154419 -0.544226 0 255 0 46 26
2.124085 -1.240697 -0.519193 0 255 0 46 26
2.152173 -1.118177 -0.570226 0 255 0 46 26
2.172359 -1.205975 -0.523162 0 255 0 46 26
2.149640 -1.235906 -0.512585 0 255 0 46 26
2.145231 -1.147048 -0.516226 0 255 0 46 26
2.198877 -1.217746 -0.546226 0 255 0 46 26
2.110296 -1.180516 -0.505469 0 255 0 46 26
2.202900 -1.181797 -0.570226 0 255 0 46 26
2.105779 -1.067098 -0.575507 0 255 0 46 26
2.152341 -1.256927 -0.532226 0 255 0 46 26
2.102178 -1.170611 -0.511119 0 255 0 46 26
2.140520 -1.211476 -0.506278 0 255 0 46 26
2.113258 -1.147344 -0.514226 0 255 0 46 26
2.193378 -1.203284 -0.574226 0 255 0 46 26
2.163794 -1.261406 -0.556226 0 255 0 46 26
2.145803 -1.196241 -0.513200 0 255 0 46 26
2.156047 -1.225000 -0.510633 0 255 0 46 26
2.187784 -1.215388 -0.546226 0 255 0 46 26
2.157301 -1.267200 -0.578226 0 255 0 46 26
2.198793 -1.225907 -0.590707 0 255 0 46 26
2.162881 -1.125513 -0.548226 0 255 0 46 26
2.099825 -1.268256 -0.529393 0 255 0 46 26
2.118216 -1.239450 -0.511705 0 255 0 46 26
2.140677 -1.119499 -0.572226 0 255 0 46 26
2.155386 -1.247351 -0.527141 0 255 0 46 26
2.133847 -1.146672 -0.521178 0 255 0 46 26
2.168318 -1.167271 -0.524226 0 255 0 46 26
2.101088 -1.084503 -0.576226 0 255 0 46 26
2.110344 -1.209151 -0.505176 0 255 0 46 26
2.160143 -1.273067 -0.570226 0 255 0 46 26
2.168517 -1.118236 -0.580226 0 255 0 46 26
2.132846 -1.132147 -0.529218 0 255 0 46 26
2.143827 -1.099721 -0.577150 0 255 0 46 26
2.183284 -1.096863 -0.588226 0 255 0 46 26
2.086886 -1.252176 -0.524226 0 255 0 46 26
2.146852 -1.277882 -0.572226 0 255 0 46 26
2.160960 -1.273072 -0.586226 0 255 0 46 26
2.181146 -1.111743 -0.586226 0 255 0 46 26
2.164478 -1.089143 -0.576226 0 255 0 46 26
2.081292 -1.211155 -0.509521 0 255 0 46 26
2.143685 -1.225444 -0.514226 0 255 0 46 26
2.131339 -1.052657 -0.584226 0 255 0 46 26
2.117949 -1.115654 -0.572226 0 255 0 46 26
2.170942 -1.193406 -0.523184 0 255 0 46 26
2.137269 -1.188293 -0.511164 0 255 0 46 26
2.178995 -1.131733 -0.582226 0 255 0 46 26
2.164166 -1.234904 -0.529111 0 255 0 46 26
2.124332 -1.268396 -0.534226 0 255 0 46 26
2.159316 -1.137773 -0.538226 0 255 0 46 26
2.204028 -1.182037 -0.577130 0 255 0 46 26
2.136370 -1.067466 -0.575405 0 255 0 46 26
2.140360 -1.274827 -0.588226 0 255 0 46 26
2.128338 -1.278406 -0.571127 0 255 0 46 26
2.179163 -1.097009 -0.578580 0 255 0 46 26
2.137486 -1.235367 -0.511644 0 255 0 46 26
2.161774 -1.271200 -0.560226 0 255 0 46 26
2.074085 -1.110392 -0.576226 0 255 0 46 26
2.123697 -1.175185 -0.511195 0 255 0 46 26
2.111354 -1.060104 -0.580757 0 255 0 46 26
2.081314 -1.191816 -0.510226 0 255 0 46 26
2.111128 -1.176603 -0.511164 0 255 0 46 26
2.134808 -1.276825 -0.560226 0 255 0 46 26
2.161149 -1.070688 -0.578226 0 255 0 46 26
2.135019 -1.179637 -0.511118 0 255 0 46 26
2.170229 -1.071705 -0.586226 0 255 0 46 26
2.179474 -1.153263 -0.558226 0 255 0 46 26
2.087095 -1.087663 -0.575801 0 255 0 46 26
2.162457 -1.262180 -0.564226 0 255 0 46 26
2.124072 -1.140505 -0.518226 0 255 0 46 26
2.182813 -1.171393 -0.538226 0 255 0 46 26
2.167596 -1.112952 -0.573653 0 255 0 46 26
2.197254 -1.237848 -0.584226 0 255 0 46 26
2.163295 -1.258240 -0.588226 0 255 0 46 26
2.169860 -1.236972 -0.520226 0 255 0 46 26
2.188493 -1.245505 -0.560226 0 255 0 46 26
2.129262 -1.120150 -0.536226 0 255 0 46 26
2.117813 -1.193248 -0.506226 0 255 0 46 26
2.148020 -1.092434 -0.574226 0 255 0 46 26
2.125748 -1.232872 -0.509767 0 255 0 46 26
2.102887 -1.176896 -0.505942 0 255 0 46 26
2.167615 -1.209056 -0.511978 0 255 0 46 26
2.173899 -1.081577 -0.580226 0 255 0 46 26
2.169448 -1.219670 -0.513967 0 255 0 46 26
2.200760 -1.167029 -0.580226 0 255 0 46 26
2.136709 -1.277503 -0.582226 0 255 0 46 26
2.154740 -1.091818 -0.580226 0 255 0 46 26
2.172776 -1.252114 -0.588226 0 255 0 46 26
2.149714 -1.081646 -0.574226 0 255 0 46 26
2.157077 -1.172057 -0.517161 0 255 0 46 26
2.103701 -1.124970 -0.530226 0 255 0 46 26
2.179619 -1.244323 -0.580226 0 255 0 46 26
2.144127 -1.257226 -0.530226 0 255 0 46 26
2.149076 -1.103885 -0.578226 0 255 0 46 26
2.132505 -1.095270 -0.571985 0 255 0 46 26
2.123174 -1.081453 -0.572226 0 255 0 46 26
2.190703 -1.148534 -0.573671 0 255 0 46 26
2.185666 -1.143374 -0.567048 0 255 0 46 26
2.174075 -1.212474 -0.526226 0 255 0 46 26
2.190136 -1.228156 -0.581199 0 255 0 46 26
2.179784 -1.207554 -0.518226 0 255 0 46 26
2.181602 -1.220208 -0.537177 0 255 0 46 26
2.120427 -1.055899 -0.584840 0 255 0 46 26
2.177151 -1.231530 -0.539194 0 255 0 46 26
2.138127 -1.237548 -0.518226 0 255 0 46 26
2.130438 -1.090741 -0.578226 0 255 0 46 26
2.079241 -1.153468 -0.519185 0 255 0 46 26
2.174266 -1.110430 -0.576226 0 255 0 46 26
2.148298 -1.184504 -0.506666 0 255 0 46 26
2.149286 -1.122137 -0.542226 0 255 0 46 26
2.200744 -1.201786 -0.594226 0 255 0 46 26
2.134334 -1.140642 -0.518226 0 255 0 46 26
2.109956 -1.143639 -0.521035 0 255 0 46 26
2.095157 -1.232504 -0.514685 0 255 0 46 26
2.086631 -1.060983 -0.585044 0 255 0 46 26
2.087209 -1.241038 -0.517786 0 255 0 46 26
2.185702 -1.085484 -0.586226 0 255 0 46 26
2.145093 -1.238060 -0.520226 0 255 0 46 26
2.143168 -1.131680 -0.524226 0 255 0 46 26
2.153886 -1.269523 -0.564226 0 255 0 46 26
2.117971 -1.259845 -0.521064 0 255 0 46 26
2.118348 -1.065680 -0.574630 0 255 0 46 26
2.199703 -1.193385 -0.540226 0 255 0 46 26
2.196078 -1.235553 -0.570226 0 255 0 46 26
2.118141 -1.278283 -0.551099 0 255 0 46 26
2.130434 -1.254315 -0.524226 0 255 0 46 26
2.143657 -1.081283 -0.579143 0 255 0 46 26
2.180368 -1.144293 -0.582226 0 255 0 46 26
2.178595 -1.118923 -0.576226 0 255 0 46 26
2.147190 -1.131999 -0.534226 0 255 0 46 26
2.148221 -1.271438 -0.588226 0 255 0 46 26
2.170076 -1.250473 -0.562226 0 255 0 46 26
2.190188 -1.150954 -0.558226 0 255 0 46 26
2.171480 -1.181252 -0.523185 0 255 0 46 26
2.142646 -1.230330 -0.509854 0 255 0 46 26
2.192526 -1.183681 -0.562226 0 255 0 46 26
2.136777 -1.229083 -0.515152 0 255 0 46 26
2.181699 -1.246810 -0.538226 0 255 0 46 26
2.185160 -1.169847 -0.550226 0 255 0 46 26
2.119638 -1.221350 -0.506226 0 255 0 46 26
2.113713 -1.138303 -0.522226 0 255 0 46 26
2.129491 -1.215266 -0.509142 0 255 0 46 26
2.189673 -1.201477 -0.525220 0 255 0 46 26
2.143090 -1.160905 -0.509659 0 255 0 46 26
2.161690 -1.131115 -0.576226 0 255 0 46 26
2.169584 -1.093979 -0.582226 0 255 0 46 26
2.194455 -1.235208 -0.558226 0 255 0 46 26
2.129122 -1.245858 -0.515075 0 255 0 46 26
2.097245 -1.059150 -0.585191 0 255 0 46 26
2.189790 -1.176965 -0.528226 0 255 0 46 26
2.113256 -1.164787 -0.508226 0 255 0 46 26
2.125505 -1.205160 -0.510226 0 255 0 46 26
2.186783 -1.249935 -0.568226 0 255 0 46 26
2.148719 -1.245933 -0.518226 0 255 0 46 26
2.102226 -1.199247 -0.511203 0 255 0 46 26
2.203030 -1.192048 -0.562226 0 255 0 46 26
2.151152 -1.050161 -0.586226 0 255 0 46 26
2.166735 -1.261296 -0.594226 0 255 0 46 26
2.106365 -1.083580 -0.572370 0 255 0 46 26
2.088730 -1.147306 -0.519738 0 255 0 46 26
2.205511 -1.196665 -0.576226 0 255 0 46 26
2.200840 -1.181359 -0.558226 0 255 0 46 26
2.087360 -1.163372 -0.515191 0 255 0 46 26
2.092246 -1.246198 -0.519681 0 255 0 46 26
2.102492 -1.148186 -0.514226 0 255 0 46 26
2.168455 -1.157008 -0.530226 0 255 0 46 26
2.130710 -1.276865 -0.541503 0 255 0 46 26
2.078764 -1.242289 -0.520226 0 255 0 46 26
2.115428 -1.242947 -0.519162 0 255 0 46 26
2.163736 -1.193919 -0.518226 0 255 0 46 26
2.107208 -1.118088 -0.544226 0 255 0 46 26
2.169279 -1.249326 -0.550226 0 255 0 46 26
2.174210 -1.263620 -0.578226 0 255 0 46 26
2.114360 -1.103681 -0.571771 0 255 0 46 26
2.140760 -1.199259 -0.506226 0 255 0 46 26
2.127364 -1.196412 -0.511079 0 255 0 46 26
2.188326 -1.231861 -0.586226 0 255 0 46 26
2.141824 -1.070670 -0.573989 0 255 0 46 26
2.109549 -1.049359 -0.586226 0 255 0 46 26
2.182758 -1.238856 -0.582226 0 255 0 46 26
2.204829 -1.178117 -0.582226 0 255 0 46 26
2.175847 -1.160710 -0.536226 0 255 0 46 26
2.137515 -1.119798 -0.558226 0 255 0 46 26
2.091130 -1.078297 -0.575386 0 255 0 46 26
2.152547 -1.175183 -0.508226 0 255 0 46 26
2.181547 -1.140454 -0.554226 0 255 0 46 26
2.185836 -1.161812 -0.567202 0 255 0 46 26
2.175317 -1.220917 -0.531203 0 255 0 46 26
2.109314 -1.262094 -0.526878 0 255 0 46 26
2.173928 -1.140879 -0.535337 0 255 0 46 26
2.099466 -1.135275 -0.523260 0 255 0 46 26
2.167710 -1.266328 -0.548601 0 255 0 46 26
2.158230 -1.108917 -0.572643 0 255 0 46 26
2.130021 -1.126197 -0.532226 0 255 0 46 26
2.082710 -1.223724 -0.511790 0 255 0 46 26
2.142466 -1.115747 -0.552226 0 255 0 46 26
2.128536 -1.229376 -0.515215 0 255 0 46 26
2.120636 -1.266545 -0.523838 0 255 0 46 26
2.136125 -1.087861 -0.573014 0 255 0 46 26
2.179227 -1.142005 -0.542226 0 255 0 46 26
2.188772 -1.133811 -0.588226 0 255 0 46 26
2.173824 -1.247181 -0.528804 0 255 0 46 26
2.165299 -1.075660 -0.585168 0 255 0 46 26
2.146347 -1.116723 -0.558226 0 255 0 46 26
2.204469 -1.218935 -0.582226 0 255 0 46 26
2.137157 -1.192359 -0.506226 0 255 0 46 26
2.117101 -1.071549 -0.577140 0 255 0 46 26
2.106242 -1.093777 -0.575007 0 255 0 46 26
2.186223 -1.227325 -0.529435 0 255 0 46 26
2.127632 -1.075832 -0.572226 0 255 0 46 26
2.139847 -1.113188 -0.574226 0 255 0 46 26
2.114086 -1.191544 -0.511139 0 255 0 46 26
2.140312 -1.279791 -0.576226 0 255 0 46 26
2.156226 -1.079865 -0.574671 0 255 0 46 26
2.109805 -1.221305 -0.506258 0 255 0 46 26
2.093039 -1.050077 -0.589088 0 255 0 46 26
2.182493 -1.220397 -0.522226 0 255 0 46 26
2.119766 -1.078250 -0.577118 0 255 0 46 26
2.163674 -1.131403 -0.564226 0 255 0 46 26
2.128662 -1.113350 -0.554226 0 255 0 46 26
2.197127 -1.207151 -0.536226 0 255 0 46 26
2.160560 -1.049858 -0.590226 0 255 0 46 26
2.142845 -1.181300 -0.505845 0 255 0 46 26
2.189386 -1.138031 -0.578226 0 255 0 46 26
2.131839 -1.281177 -0.556226 0 255 0 46 26
2.156728 -1.274217 -0.580226 0 255 0 46 26
2.092690 -1.176773 -0.508966 0 255 0 46 26
2.193664 -1.216638 -0.578226 0 255 0 46 26
2.085115 -1.116216 -0.572226 0 255 0 46 26
2.188133 -1.248177 -0.590226 0 255 0 46 26
2.089240 -1.202621 -0.510976 0 255 0 46 26
2.165094 -1.124722 -0.556226 0 255 0 46 26
2.152796 -1.201817 -0.507821 0 255 0 46 26
2.103029 -1.262803 -0.529222 0 255 0 46 26
2.190248 -1.203644 -0.560226 0 255 0 46 26
2.146512 -1.202526 -0.513151 0 255 0 46 26
2.189711 -1.215798 -0.558226 0 255 0 46 26
2.126608 -1.161491 -0.513186 0 255 0 46 26
2.161453 -1.199568 -0.509078 0 255 0 46 26
2.131816 -1.185090 -0.511020 0 255 0 46 26
2.158353 -1.098720 -0.581202 0 255 0 46 26
2.189856 -1.205605 -0.550226 0 255 0 46 26
2.131986 -1.203528 -0.511100 0 255 0 46 26
2.192111 -1.214263 -0.566226 0 255 0 46 26
2.195965 -1.186457 -0.588226 0 255 0 46 26
2.152747 -1.125092 -0.562226 0 255 0 46 26
2.106090 -1.130549 -0.524226 0 255 0 46 26
2.119681 -1.280655 -0.593160 0 255 0 46 26
2.177265 -1.173278 -0.530226 0 255 0 46 26
2.147391 -1.227249 -0.519152 0 255 0 46 26
2.130131 -1.144917 -0.516226 0 255 0 46 26
2.188300 -1.169457 -0.562226 0 255 0 46 26
2.154385 -1.218512 -0.518226 0 255 0 46 26
2.205709 -1.190573 -0.582226 0 255 0 46 26
2.140444 -1.250309 -0.525149 0 255 0 46 26
2.192385 -1.236813 -0.592845 0 255 0 46 26
2.190916 -1.147532 -0.592226 0 255 0 46 26
2.161671 -1.246642 -0.531143 0 255 0 46 26
2.145566 -1.053063 -0.583088 0 255 0 46 26
2.176966 -1.237625 -0.546226 0 255 0 46 26
2.184220 -1.198273 -0.520960 0 255 0 46 26
2.193954 -1.171717 -0.589232 0 255 0 46 26
2.203102 -1.212510 -0.568226 0 255 0 46 26
2.134514 -1.114676 -0.548226 0 255 0 46 26
2.119634 -1.252019 -0.517612 0 255 0 46 26
2.183256 -1.238962 -0.532226 0 255 0 46 26
2.178402 -1.090970 -0.580226 0 255 0 46 26
2.103691 -1.240452 -0.519188 0 255 0 46 26
2.108809 -1.124993 -0.534226 0 255 0 46 26
2.094864 -1.224263 -0.509531 0 255 0 46 26
2.189454 -1.236190 -0.538226 0 255 0 46 26
2.206987 -1.196978 -0.590465 0 255 0 46 26
2.167299 -1.268285 -0.560226 0 255 0 46 26
2.177255 -1.134843 -0.562226 0 255 0 46 26
2.117914 -1.279350 -0.578226 0 255 0 46 26
2.149054 -1.072207 -0.574226 0 255 0 46 26
2.172879 -1.097718 -0.577833 0 255 0 46 26
2.164146 -1.138800 -0.527906 0 255 0 46 26
2.140841 -1.152248 -0.512239 0 255 0 46 26
2.177319 -1.230740 -0.522226 0 255 0 46 26
2.121767 -1.126552 -0.530226 0 255 0 46 26
2.096127 -1.102888 -0.576226 0 255 0 46 26
2.150547 -1.193160 -0.507199 0 255 0 46 26
2.172540 -1.147409 -0.528226 0 255 0 46 26
2.181758 -1.195705 -0.530226 0 255 0 46 26
2.148876 -1.268358 -0.532226 0 255 0 46 26
2.153949 -1.138677 -0.531205 0 255 0 46 26
2.179344 -1.105776 -0.578226 0 255 0 46 26
2.132795 -1.222102 -0.506226 0 255 0 46 26
2.129548 -1.278663 -0.588226 0 255 0 46 26
2.191091 -1.165949 -0.586226 0 255 0 46 26
2.159080 -1.153014 -0.526226 0 255 0 46 26
2.145661 -1.110335 -0.575025 0 255 0 46 26
2.120106 -1.115126 -0.543689 0 255 0 46 26
2.155142 -1.056111 -0.592226 0 255 0 46 26
2.174427 -1.134851 -0.550226 0 255 0 46 26
2.093134 -1.107348 -0.571627 0 255 0 46 26
2.086973 -1.054922 -0.586226 0 255 0 46 26
2.143696 -1.273491 -0.539513 0 255 0 46 26
2.194956 -1.186242 -0.533015 0 255 0 46 26
2.137590 -1.129066 -0.524683 0 255 0 46 26
2.131135 -1.111336 -0.570026 0 255 0 46 26
2.189046 -1.209522 -0.544226 0 255 0 46 26
2.170225 -1.139060 -0.558226 0 255 0 46 26
2.141673 -1.148336 -0.521140 0 255 0 46 26
2.112498 -1.160537 -0.513189 0 255 0 46 26
2.180412 -1.240402 -0.568226 0 255 0 46 26
2.196619 -1.178417 -0.595197 0 255 0 46 26
2.173880 -1.112243 -0.583210 0 255 0 46 26
2.104578 -1.101602 -0.572708 0 255 0 46 26
2.201914 -1.179543 -0.564226 0 255 0 46 26
2.192952 -1.157191 -0.593197 0 255 0 46 26
2.181085 -1.252813 -0.548226 0 255 0 46 26
2.201756 -1.187688 -0.594226 0 255 0 46 26
2.189427 -1.221871 -0.571211 0 255 0 46 26
2.167983 -1.178465 -0.513476 0 255 0 46 26
2.153561 -1.073165 -0.581182 0 255 0 46 26
2.198189 -1.161414 -0.580226 0 255 0 46 26
2.199639 -1.203595 -0.544226 0 255 0 46 26
2.194479 -1.212722 -0.592226 0 255 0 46 26
2.181725 -1.210011 -0.533190 0 255 0 46 26
2.192262 -1.237396 -0.550226 0 255 0 46 26
2.151180 -1.238278 -0.521088 0 255 0 46 26
2.152654 -1.197698 -0.514226 0 255 0 46 26
2.116301 -1.123407 -0.536226 0 255 0 46 26
2.188548 -1.197148 -0.539187 0 255 0 46 26
2.135575 -1.215501 -0.512226 0 255 0 46 26
2.177028 -1.241727 -0.527691 0 255 0 46 26
2.151559 -1.159541 -0.518226 0 255 0 46 26
2.195693 -1.125059 -0.592814 0 255 0 46 26
2.181092 -1.164893 -0.539207 0 255 0 46 26
2.113112 -1.109550 -0.569416 0 255 0 46 26
2.194052 -1.161636 -0.554226 0 255 0 46 26
2.095003 -1.132282 -0.526226 0 255 0 46 26
2.191963 -1.224455 -0.594226 0 255 0 46 26
2.098492 -1.053281 -0.586987 0 255 0 46 26
2.179013 -1.092888 -0.586226 0 255 0 46 26
2.136532 -1.249477 -0.517521 0 255 0 46 26
2.196813 -1.129408 -0.584226 0 255 0 46 26
2.193633 -1.230944 -0.545777 0 255 0 46 26
2.182238 -1.154914 -0.568226 0 255 0 46 26
2.140401 -1.269753 -0.546226 0 255 0 46 26
2.142936 -1.190487 -0.512226 0 255 0 46 26
2.163315 -1.142713 -0.535173 0 255 0 46 26
2.096460 -1.091698 -0.577215 0 255 0 46 26
2.165144 -1.105246 -0.580226 0 255 0 46 26
2.139839 -1.137723 -0.527145 0 255 0 46 26
2.157527 -1.121842 -0.560226 0 255 0 46 26
2.120295 -1.229669 -0.509248 0 255 0 46 26
2.096262 -1.140728 -0.519279 0 255 0 46 26
2.197620 -1.164090 -0.568226 0 255 0 46 26
2.148326 -1.117035 -0.564706 0 255 0 46 26
2.202577 -1.171505 -0.590226 0 255 0 46 26
2.123452 -1.195580 -0.506375 0 255 0 46 26
2.179721 -1.180959 -0.517984 0 255 0 46 26
2.175939 -1.259898 -0.554226 0 255 0 46 26
2.137731 -1.268134 -0.538226 0 255 0 46 26
2.126996 -1.227003 -0.507724 0 255 0 46 26
2.193569 -1.243199 -0.580226 0 255 0 46 26
2.201714 -1.199947 -0.552226 0 255 0 46 26
2.158863 -1.154034 -0.517392 0 255 0 46 26
2.124387 -1.085366 -0.577101 0 255 0 46 26
2.151815 -1.119859 -0.554226 0 255 0 46 26
2.095221 -1.116769 -0.572226 0 255 0 46 26
2.142464 -1.279286 -0.550226 0 255 0 46 26
2.134719 -1.123332 -0.544226 0 255 0 46 26
2.124010 -1.279530 -0.542177 0 255 0 46 26
2.147105 -1.272171 -0.574226 0 255 0 46 26
2.193380 -1.218622 -0.534226 0 255 0 46 26
2.168201 -1.225538 -0.514746 0 255 0 46 26
2.196461 -1.229501 -0.558226 0 255 0 46 26
2.124706 -1.131963 -0.522226 0 255 0 46 26
2.182658 -1.138645 -0.570226 0 255 0 46 26
2.100439 -1.217269 -0.509050 0 255 0 46 26
2.163325 -1.263351 -0.574226 0 255 0 46 26
2.195863 -1.143497 -0.595145 0 255 0 46 26
2.166348 -1.118821 -0.572983 0 255 0 46 26
2.188424 -1.231882 -0.574226 0 255 0 46 26
2.182414 -1.120191 -0.585168 0 255 0 46 26
2.142334 -1.279898 -0.584226 0 255 0 46 26
2.197554 -1.215420 -0.540226 0 255 0 46 26
2.159156 -1.162276 -0.521156 0 255 0 46 26
2.203463 -1.218721 -0.576226 0 255 0 46 26
2.200902 -1.218176 -0.560226 0 255 0 46 26
2.138620 -1.076123 -0.572958 0 255 0 46 26
2.202535 -1.206255 -0.560226 0 255 0 46 26
2.166732 -1.136254 -0.566226 0 255 0 46 26
2.162577 -1.257058 -0.546226 0 255 0 46 26
2.158201 -1.128294 -0.572226 0 255 0 46 26
2.127123 -1.264883 -0.530226 0 255 0 46 26
2.154672 -1.130652 -0.548226 0 255 0 46 26
2.111591 -1.203282 -0.505749 0 255 0 46 26
2.088393 -1.067492 -0.580226 0 255 0 46 26
2.185485 -1.110621 -0.590226 0 255 0 46 26
2.155621 -1.275102 -0.574226 0 255 0 46 26
2.106970 -1.196166 -0.505839 0 255 0 46 26
2.177092 -1.260667 -0.566226 0 255 0 46 26
2.131910 -1.242361 -0.519140 0 255 0 46 26
2.124926 -1.073212 -0.577058 0 255 0 46 26
2.180472 -1.201566 -0.530226 0 255 0 46 26
2.141827 -1.205620 -0.506226 0 255 0 46 26
2.143118 -1.093437 -0.579151 0 255 0 46 26
2.188483 -1.221671 -0.558226 0 255 0 46 26
2.186469 -1.206930 -0.539212 0 255 0 46 26
2.191135 -1.199743 -0.548226 0 255 0 46 26
2.193568 -1.187992 -0.576226 0 255 0 46 26
2.186910 -1.123192 -0.590226 0 255 0 46 26
2.177254 -1.125229 -0.583215 0 255 0 46 26
2.152238 -1.117867 -0.577192 0 255 0 46 26
2.084012 -1.102167 -0.576226 0 255 0 46 26
2.159469 -1.266621 -0.595153 0 255 0 46 26
2.167662 -1.237692 -0.535203 0 255 0 46 26
2.167307 -1.253974 -0.566226 0 255 0 46 26
2.192375 -1.193873 -0.556226 0 255 0 46 26
2.201933 -1.187725 -0.558226 0 255 0 46 26
2.163286 -1.263343 -0.584226 0 255 0 46 26
2.105108 -1.253021 -0.519481 0 255 0 46 26
2.112233 -1.084827 -0.571913 0 255 0 46 26
2.169400 -1.142943 -0.546226 0 255 0 46 26
2.093968 -1.151521 -0.514226 0 255 0 46 26
2.106194 -1.065141 -0.581134 0 255 0 46 26
2.203533 -1.190110 -0.568226 0 255 0 46 26
2.138572 -1.047487 -0.585500 0 255 0 46 26
2.131590 -1.128434 -0.524226 0 255 0 46 26
2.136019 -1.271127 -0.530226 0 255 0 46 26
2.100345 -1.159998 -0.509549 0 255 0 46 26
2.125796 -1.261508 -0.522733 0 255 0 46 26
2.116090 -1.220596 -0.511166 0 255 0 46 26
2.193780 -1.165546 -0.544226 0 255 0 46 26
2.175175 -1.135010 -0.579076 0 255 0 46 26
2.163363 -1.263359 -0.536226 0 255 0 46 26
2.125337 -1.103970 -0.574226 0 255 0 46 26
2.185061 -1.146217 -0.552226 0 255 0 46 26
2.148638 -1.221380 -0.508307 0 255 0 46 26
2.106478 -1.110185 -0.570226 0 255 0 46 26
2.094975 -1.262217 -0.528226 0 255 0 46 26
2.180361 -1.087040 -0.588226 0 255 0 46 26
2.127717 -1.281329 -0.576226 0 255 0 46 26
2.118395 -1.094316 -0.571595 0 255 0 46 26
2.116165 -1.181763 -0.505222 0 255 0 46 26
2.176825 -1.247818 -0.588226 0 255 0 46 26
2.156859 -1.253798 -0.524226 0 255 0 46 26
2.166891 -1.125887 -0.568226 0 255 0 46 26
2.093625 -1.066559 -0.577515 0 255 0 46 26
2.137193 -1.227126 -0.509095 0 255 0 46 26
2.106464 -1.157209 -0.510226 0 255 0 46 26
2.161424 -1.269081 -0.546226 0 255 0 46 26
2.177237 -1.245861 -0.568226 0 255 0 46 26
2.188057 -1.189842 -0.540226 0 255 0 46 26
2.133543 -1.197725 -0.506226 0 255 0 46 26
2.132162 -1.270034 -0.538226 0 255 0 46 26
2.132165 -1.058394 -0.582599 0 255 0 46 26
2.128243 -1.221135 -0.511183 0 255 0 46 26
2.190648 -1.173059 -0.568226 0 255 0 46 26
2.113537 -1.251845 -0.518226 0 255 0 46 26
2.179840 -1.156449 -0.548226 0 255 0 46 26
2.178993 -1.078571 -0.587386 0 255 0 46 26
2.141527 -1.274076 -0.566226 0 255 0 46 26
2.175638 -1.161690 -0.522508 0 255 0 46 26
2.125843 -1.116994 -0.540226 0 255 0 46 26
2.152900 -1.095516 -0.573261 0 255 0 46 26
2.123189 -1.273774 -0.532226 0 255 0 46 26
2.115797 -1.212355 -0.509158 0 255 0 46 26
2.102575 -1.072551 -0.573418 0 255 0 46 26
2.108860 -1.071842 -0.576986 0 255 0 46 26
2.185453 -1.116748 -0.578226 0 255 0 46 26
2.087633 -1.075509 -0.579217 0 255 0 46 26
2.195154 -1.137212 -0.581110 0 255 0 46 26
2.139471 -1.168315 -0.513195 0 255 0 46 26
2.127810 -1.184698 -0.506226 0 255 0 46 26
2.185127 -1.155528 -0.579220 0 255 0 46 26
2.174578 -1.263698 -0.586226 0 255 0 46 26
2.172066 -1.197734 -0.513507 0 255 0 46 26
2.189664 -1.187162 -0.558226 0 255 0 46 26
2.123848 -1.097519 -0.577139 0 255 0 46 26
2.143006 -1.142064 -0.518226 0 255 0 46 26
2.081777 -1.254196 -0.526226 0 255 0 46 26
2.172657 -1.199905 -0.524226 0 255 0 46 26
2.160732 -1.228040 -0.512226 0 255 0 46 26
2.189847 -1.242408 -0.592226 0 255 0 46 26
2.117374 -1.229048 -0.514226 0 255 0 46 26
2.162823 -1.183502 -0.519213 0 255 0 46 26
2.154016 -1.263417 -0.527091 0 255 0 46 26
2.180355 -1.226077 -0.541205 0 255 0 46 26
2.096064 -1.189758 -0.506154 0 255 0 46 26
2.191244 -1.155608 -0.552226 0 255 0 46 26
2.114830 -1.274623 -0.542226 0 255 0 46 26
2.120569 -1.141805 -0.523183 0 255 0 46 26
2.202314 -1.093907 -0.544226 255 255 0 50 27
2.330154 -0.983061 -0.540226 255 255 0 50 27
2.334562 -1.116236 -0.556226 255 255 0 50 27
2.218010 -0.981588 -0.572226 255 255 0 50 27
2.354857 -1.048477 -0.550226 255 255 0 50 27
2.270057 -0.957974 -0.542226 255 255 0 50 27
2.193594 -1.038736 -0.571188 255 255 0 50 27
2.192612 -1.120314 -0.595200 255 255 0 50 27
2.224964 -1.078119 -0.590226 255 255 0 50 27
2.320215 -1.077918 -0.527372 255 255 0 50 27
2.330828 -1.076085 -0.579205 255 255 0 50 27
2.225992 -1.059466 -0.552226 255 255 0 50 27
2.299508 -0.973327 -0.565177 255 255 0 50 27
2.360936 -1.088618 -0.544226 255 255 0 50 27
2.339806 -1.014608 -0.557189 255 255 0 50 27
2.202204 -1.007851 -0.551498 255 255 0 50 27
2.237884 -0.974663 -0.542226 255 255 0 50 27
2.186081 -1.086211 -0.586226 255 255 0 50 27
2.225338 -1.106824 -0.568226 255 255 0 50 27
2.252557 -0.963348 -0.571143 255 255 0 50 27
2.298383 -0.968999 -0.534629 255 255 0 50 27
2.332832 -1.105136 -0.528466 255 255 0 50 27
2.327870 -1.061143 -0.551172 255 255 0 50 27
2.203639 -1.073586 -0.566226 255 255 0 50 27
2.349913 -1.096499 -0.570226 255 255 0 50 27
2.223232 -1.053214 -0.579144 255 255 0 50 27
2.352470 -1.070461 -0.565141 255 255 0 50 27
2.225092 -1.082235 -0.538226 255 255 0 50 27
2.345563 -1.071038 -0.532226 255 255 0 50 27
2.277897 -0.959566 -0.568226 255 255 0 50 27
2.196673 -1.101209 -0.568226 255 255 0 50 27
2.215019 -0.986039 -0.547459 255 255 0 50 27
2.349465 -1.026884 -0.537870 255 255 0 50 27
2.211506 -1.098761 -0.588226 255 255 0 50 27
2.325422 -1.101516 -0.573069 255 255 0 50 27
2.342633 -1.002941 -0.536226 255 255 0 50 27
2.194106 -1.071560 -0.544226 255 255 0 50 27
2.198584 -1.015260 -0.573223 255 255 0 50 27
2.319780 -0.983770 -0.561024 255 255 0 50 27
2.351287 -1.109059 -0.542226 255 255 0 50 27
2.222462 -1.104168 -0.546226 255 255 0 50 27
2.221112 -1.085479 -0.570226 255 255 0 50 27
2.319740 -1.104398 -0.546226 255 255 0 50 27
2.204832 -1.053204 -0.560226 255 255 0 50 27
2.237493 -0.976503 -0.563917 255 255 0 50 27
2.214353 -1.002255 -0.568226 255 255 0 50 27
2.349852 -1.092396 -0.527194 255 255 0 50 27
2.201953 -1.028272 -0.554226 255 255 0 50 27
2.251017 -0.960975 -0.549141 255 255 0 50 27
2.335723 -0.995338 -0.554652 255 255 0 50 27
2.344298 -1.085082 -0.554226 255 255 0 50 27
2.212496 -1.065245 -0.539410 255 255 0 50 27
2.343889 -1.033878 -0.555220 255 255 0 50 27
2.186042 -1.110739 -0.580226 255 255 0 50 27
2.190485 -1.101460 -0.595160 255 255 0 50 27
2.224806 -1.067862 -0.568226 255 255 0 50 27
2.316157 -0.971958 -0.536226 255 255 0 50 27
2.213712 -1.078762 -0.552226 255 255 0 50 27
2.355465 -1.065990 -0.546226 255 255 0 50 27
2.209522 -1.108095 -0.558226 255 255 0 50 27
2.333644 -1.088951 -0.522226 255 255 0 50 27
2.227455 -1.097050 -0.582226 255 255 0 50 27
2.335424 -1.064081 -0.566226 255 255 0 50 27
2.318684 -1.094739 -0.532226 255 255 0 50 27
2.287342 -0.958473 -0.542226 255 255 0 50 27
2.224006 -0.972616 -0.552226 255 255 0 50 27
2.328995 -1.065471 -0.534466 255 255 0 50 27
2.207213 -1.080480 -0.535299 255 255 0 50 27
2.336631 -1.091631 -0.580226 255 255 0 50 27
2.336608 -1.101849 -0.544226 255 255 0 50 27
2.265752 -0.968607 -0.562226 255 255 0 50 27
2.352810 -1.107338 -0.558430 255 255 0 50 27
2.208097 -1.090891 -0.562226 255 255 0 50 27
2.189291 -1.054179 -0.564226 255 255 0 50 27
2.344182 -1.042119 -0.541249 255 255 0 50 27
2.222118 -1.091826 -0.556226 255 255 0 50 27
2.207071 -0.994573 -0.557136 255 255 0 50 27
2.349975 -1.082199 -0.575214 255 255 0 50 27
2.292009 -0.960508 -0.562226 255 255 0 50 27
2.216971 -1.068241 -0.582226 255 255 0 50 27
2.338285 -1.108340 -0.569686 255 255 0 50 27
2.216542 -1.094305 -0.536226 255 255 0 50 27
2.210439 -1.103782 -0.574226 255 255 0 50 27
2.191653 -1.091485 -0.554226 255 255 0 50 27
2.339390 -1.016564 -0.541193 255 255 0 50 27
2.219061 -1.053599 -0.564226 255 255 0 50 27
2.312237 -0.971157 -0.558226 255 255 0 50 27
2.322050 -1.107765 -0.560226 255 255 0 50 27
2.330729 -1.115029 -0.542226 255 255 0 50 27
2.343428 -1.088986 -0.540226 255 255 0 50 27
2.356649 -1.091796 -0.558226 255 255 0 50 27
2.199504 -1.093154 -0.582226 255 255 0 50 27
2.344285 -1.056453 -0.544226 255 255 0 50 27
2.342917 -1.067307 -0.554226 255 255 0 50 27
2.258010 -0.966551 -0.537932 255 255 0 50 27
2.197091 -1.041524 -0.557666 255 255 0 50 27
2.329236 -0.996997 -0.542226 255 255 0 50 27
2.357696 -1.077706 -0.554226 255 255 0 50 27
2.203096 -1.028488 -0.568226 255 255 0 50 27
2.214452 -1.065661 -0.557218 255 255 0 50 27
2.216163 -1.086471 -0.583200 255 255 0 50 27
2.350906 -1.021056 -0.552226 255 255 0 50 27
2.333200 -1.074544 -0.524476 255 255 0 50 27
2.195267 -1.016600 -0.560226 255 255 0 50 27
2.224796 -1.069904 -0.544226 255 255 0 50 27
2.278405 -0.966797 -0.537050 255 255 0 50 27
2.353289 -1.080859 -0.536226 255 255 0 50 27
2.221148 -0.991431 -0.564226 255 255 0 50 27
2.343194 -1.075623 -0.544226 255 255 0 50 27
2.227848 -0.983398 -0.546226 255 255 0 50 27
2.205249 -1.065749 -0.576226 255 255 0 50 27
2.235864 -0.964926 -0.550226 255 255 0 50 27
2.282124 -0.968537 -0.560226 255 255 0 50 27
2.187074 -1.098268 -0.582226 255 255 0 50 27
2.196647 -1.110949 -0.587128 255 255 0 50 27
2.208753 -1.082852 -0.573148 255 255 0 50 27
2.345401 -1.103718 -0.530605 255 255 0 50 27
2.333156 -1.093990 -0.534226 255 255 0 50 27
2.248798 -0.971412 -0.562226 255 255 0 50 27
2.339323 -1.103456 -0.558226 255 255 0 50 27
2.211708 -1.054854 -0.574226 255 255 0 50 27
2.353119 -1.097180 -0.538226 255 255 0 50 27
2.237200 -0.968262 -0.573213 255 255 0 50 27
2.202077 -1.003735 -0.570226 255 255 0 50 27
2.192366 -1.030296 -0.562226 255 255 0 50 27
2.207043 -1.015014 -0.564226 255 255 0 50 27
2.344074 -1.004148 -0.552226 255 255 0 50 27
2.212203 -1.057004 -0.548585 255 255 0 50 27
2.211712 -1.097793 -0.551175 255 255 0 50 27
2.341268 -1.075066 -0.570226 255 255 0 50 27
2.340816 -1.082297 -0.530226 255 255 0 50 27
2.196361 -1.083434 -0.546226 255 255 0 50 27
2.225941 -1.076282 -0.578226 255 255 0 50 27
2.198666 -1.101450 -0.556226 255 255 0 50 27
2.209859 -0.991076 -0.569211 255 255 0 50 27
2.214527 -0.997974 -0.548226 255 255 0 50 27
2.223109 -1.063412 -0.591210 255 255 0 50 27
2.226759 -0.974221 -0.568226 255 255 0 50 27
2.353293 -1.033832 -0.548226 255 255 0 50 27
2.328594 -1.115451 -0.566226 255 255 0 50 27
2.227755 -1.064399 -0.580226 255 255 0 50 27
2.350854 -1.058825 -0.554226 255 255 0 50 27
2.192612 -1.120314 -0.581791 255 255 0 50 27
2.216601 -1.074789 -0.564226 255 255 0 50 27
2.344375 -1.046249 -0.554226 255 255 0 50 27
2.324401 -0.990887 -0.553358 255 255 0 50 27
2.343536 -1.112495 -0.550226 255 255 0 50 27
2.353510 -1.099308 -0.550226 255 255 0 50 27
2.337061 -1.066000 -0.544226 255 255 0 50 27
2.324046 -1.107991 -0.536226 255 255 0 50 27
2.265749 -0.958999 -0.568226 255 255 0 50 27
2.308045 -0.966963 -0.542226 255 255 0 50 27
2.229660 -0.985062 -0.568226 255 255 0 50 27
2.214842 -1.088235 -0.546226 255 255 0 50 27
2.248537 -0.970672 -0.542226 255 255 0 50 27
2.221786 -1.108113 -0.556520 255 255 0 50 27
2.212704 -1.064267 -0.568226 255 255 0 50 27
2.319935 -0.983040 -0.536226 255 255 0 50 27
2.186450 -1.110826 -0.591212 255 255 0 50 27
2.223559 -1.096222 -0.566226 255 255 0 50 27
2.356034 -1.083487 -0.566226 255 255 0 50 27
2.339908 -1.110322 -0.538226 255 255 0 50 27
2.197800 -1.047809 -0.566902 255 255 0 50 27
2.216701 -1.074318 -0.535320 255 255 0 50 27
2.355613 -1.055674 -0.542226 255 255 0 50 27
2.220336 -1.105315 -0.578226 255 255 0 50 27
2.334183 -0.992966 -0.533606 255 255 0 50 27
2.345795 -1.087445 -0.566226 255 255 0 50 27
2.215560 -1.094522 -0.576226 255 255 0 50 27
2.297675 -0.962714 -0.543192 255 255 0 50 27
2.323911 -1.113463 -0.550226 255 255 0 50 27
2.225944 -1.088550 -0.588704 255 255 0 50 27
2.193612 -1.024427 -0.572226 255 255 0 50 27
2.243356 -0.963437 -0.566226 255 255 0 50 27
2.222455 -1.073496 -0.554226 255 255 0 50 27
2.303319 -0.965018 -0.560226 255 255 0 50 27
2.214248 -1.100377 -0.564226 255 255 0 50 27
2.344167 -1.095277 -0.552226 255 255 0 50 27
2.227574 -1.056182 -0.570226 255 255 0 50 27
2.188652 -1.090847 -0.595112 255 255 0 50 27
2.339841 -1.098447 -0.572226 255 255 0 50 27
2.349587 -1.016687 -0.539596 255 255 0 50 27
2.339995 -1.082122 -0.578226 255 255 0 50 27
2.224697 -1.094419 -0.542472 255 255 0 50 27
2.215086 -1.110778 -0.566428 255 255 0 50 27
2.331478 -1.106893 -0.552226 255 255 0 50 27
2.201501 -1.083355 -0.564226 255 255 0 50 27
2.326670 -1.095647 -0.525461 255 255 0 50 27
2.223137 -1.082520 -0.548226 255 255 0 50 27
2.334673 -1.005338 -0.556226 255 255 0 50 27
2.202440 -1.038571 -0.566226 255 255 0 50 27
2.288186 -0.968876 -0.538674 255 255 0 50 27
2.211828 -1.073282 -0.574226 255 255 0 50 27
2.201291 -1.002525 -0.560226 255 255 0 50 27
2.343367 -1.031722 -0.544226 255 255 0 50 27
2.335572 -1.073004 -0.535200 255 255 0 50 27
2.204037 -1.018464 -0.554214 255 255 0 50 27
2.347435 -1.065292 -0.540226 255 255 0 50 27
2.345985 -1.077262 -0.560226 255 255 0 50 27
2.213063 -0.985623 -0.557157 255 255 0 50 27
2.341079 -1.023057 -0.552226 255 255 0 50 27
2.346222 -1.013279 -0.548226 255 255 0 50 27
2.214651 -1.069793 -0.548226 255 255 0 50 27
2.220207 -1.060750 -0.544226 255 255 0 50 27
2.203541 -1.073565 -0.542226 255 255 0 50 27
2.352452 -1.037743 -0.538226 255 255 0 50 27
2.216579 -1.084515 -0.533912 255 255 0 50 27
2.259673 -0.958726 -0.545169 255 255 0 50 27
2.338823 -1.096186 -0.526557 255 255 0 50 27
2.347112 -1.106127 -0.566226 255 255 0 50 27
2.353476 -1.075348 -0.544226 255 255 0 50 27
2.329165 -1.083910 -0.529193 255 255 0 50 27
2.213031 -1.101206 -0.542226 255 255 0 50 27
2.321443 -0.975945 -0.543216 255 255 0 50 27
2.292031 -0.970028 -0.560226 255 255 0 50 27
2.205269 -1.104602 -0.566226 255 255 0 50 27
2.331494 -1.106896 -0.562226 255 255 0 50 27
2.215895 -1.058874 -0.582226 255 255 0 50 27
2.306963 -0.972867 -0.534226 255 255 0 50 27
2.349975 -1.082199 -0.527577 255 255 0 50 27
2.353056 -1.067706 -0.556226 255 255 0 50 27
2.257187 -0.970425 -0.566226 255 255 0 50 27
2.224927 -1.088334 -0.578226 255 255 0 50 27
2.330535 -1.067844 -0.573189 255 255 0 50 27
2.330150 -1.060035 -0.542226 255 255 0 50 27
2.201905 -1.099798 -0.576226 255 255 0 50 27
2.228959 -0.968555 -0.545289 255 255 0 50 27
2.266176 -0.966610 -0.542226 255 255 0 50 27
2.220312 -1.095808 -0.588226 255 255 0 50 27
2.210229 -1.003423 -0.554226 255 255 0 50 27
2.214516 -1.079987 -0.542226 255 255 0 50 27
2.213854 -1.106953 -0.550226 255 255 0 50 27
2.334280 -1.059844 -0.558226 255 255 0 50 27
2.345708 -1.097650 -0.562226 255 255 0 50 27
2.351125 -1.047929 -0.540226 255 255 0 50 27
2.207629 -1.078523 -0.559599 255 255 0 50 27
2.333862 -1.004094 -0.538226 255 255 0 50 27
2.243445 -0.963455 -0.544226 255 255 0 50 27
2.312370 -0.980151 -0.557178 255 255 0 50 27
2.220179 -0.981002 -0.552928 255 255 0 50 27
2.194284 -1.102268 -0.586226 255 255 0 50 27
2.327130 -1.074244 -0.532226 255 255 0 50 27
2.193896 -1.095034 -0.562226 255 255 0 50 27
2.218027 -1.077701 -0.584226 255 255 0 50 27
2.202346 -1.093758 -0.553210 255 255 0 50 27
2.225102 -1.063835 -0.560226 255 255 0 50 27
2.342689 -1.068382 -0.563233 255 255 0 50 27
2.333247 -1.103180 -0.577068 255 255 0 50 27
2.354981 -1.099620 -0.562226 255 255 0 50 27
2.206381 -1.084392 -0.543215 255 255 0 50 27
2.216556 -1.084622 -0.558226 255 255 0 50 27
2.318552 -1.085743 -0.531119 255 255 0 50 27
2.232136 -0.975364 -0.550226 255 255 0 50 27
2.329535 -1.101408 -0.538226 255 255 0 50 27
2.272952 -0.963593 -0.561667 255 255 0 50 27
2.331212 -0.988245 -0.558226 255 255 0 50 27
2.196495 -1.051621 -0.558226 255 255 0 50 27
2.216371 -1.056634 -0.556226 255 255 0 50 27
2.213375 -1.089968 -0.569200 255 255 0 50 27
2.218675 -1.060424 -0.574226 255 255 0 50 27
2.340780 -1.096602 -0.537192 255 255 0 50 27
2.198725 -1.024219 -0.562226 255 255 0 50 27
2.358997 -1.086162 -0.552226 255 255 0 50 27
2.319374 -1.101111 -0.538226 255 255 0 50 27
2.278112 -0.958556 -0.539297 255 255 0 50 27
2.222258 -1.077032 -0.570226 255 255 0 50 27
2.346770 -1.083562 -0.546226 255 255 0 50 27
2.226279 -1.070219 -0.586226 255 255 0 50 27
2.226461 -1.100928 -0.574226 255 255 0 50 27
2.218535 -1.084931 -0.591199 255 255 0 50 27
2.351005 -1.029256 -0.554992 255 255 0 50 27
2.186743 -1.119067 -0.589232 255 255 0 50 27
2.323332 -1.101731 -0.530226 255 255 0 50 27
2.344208 -1.022758 -0.544226 255 255 0 50 27
2.332123 -1.084539 -0.580226 255 255 0 50 27
2.326052 -0.989193 -0.536226 255 255 0 50 27
2.353084 -1.088994 -0.534226 255 255 0 50 27
2.330044 -1.108633 -0.571155 255 255 0 50 27
2.342443 -1.088777 -0.525151 255 255 0 50 27
2.224187 -1.100445 -0.554226 255 255 0 50 27
2.244193 -0.973838 -0.568758 255 255 0 50 27
2.191965 -1.094499 -0.588226 255 255 0 50 27
2.344827 -1.109730 -0.558226 255 255 0 50 27
2.288602 -0.966920 -0.567158 255 255 0 50 27
2.350009 -1.062802 -0.562226 255 255 0 50 27
2.207090 -1.090677 -0.537821 255 255 0 50 27
2.197786 -1.119369 -0.588226 255 255 0 50 27
2.344115 -1.011434 -0.536226 255 255 0 50 27
2.207118 -1.100166 -0.558226 255 255 0 50 27
2.212229 -1.104978 -0.582226 255 255 0 50 27
2.351638 -1.074374 -0.573126 255 255 0 50 27
2.353801 -1.091191 -0.548226 255 255 0 50 27
2.345808 -1.089492 -0.574226 255 255 0 50 27
2.203213 -1.075540 -0.574226 255 255 0 50 27
2.336240 -1.060244 -0.550226 255 255 0 50 27
2.342479 -1.103097 -0.550226 255 255 0 50 27
2.350960 -1.041515 -0.552226 255 255 0 50 27
2.225129 -1.053909 -0.558226 255 255 0 50 27
2.352730 -1.107718 -0.550226 255 255 0 50 27
2.202327 -0.997654 -0.551231 255 255 0 50 27
2.337391 -1.064447 -0.536226 255 255 0 50 27
2.345161 -1.075989 -0.552226 255 255 0 50 27
2.208318 -0.988704 -0.551236 255 255 0 50 27
2.204031 -1.020507 -0.570226 255 255 0 50 27
2.324420 -1.086991 -0.523349 255 255 0 50 27
2.213165 -1.090953 -0.590226 255 255 0 50 27
2.283981 -0.959803 -0.561230 255 255 0 50 27
2.191638 -1.038320 -0.563237 255 255 0 50 27
2.341376 -1.002673 -0.544226 255 255 0 50 27
2.352438 -1.072499 -0.536226 255 255 0 50 27
2.355494 -1.091551 -0.566226 255 255 0 50 27
2.331584 -1.111005 -0.535278 255 255 0 50 27
2.324060 -0.982874 -0.554226 255 255 0 50 27
2.194549 -1.024626 -0.555339 255 255 0 50 27
2.194673 -1.096216 -0.574226 255 255 0 50 27
2.338402 -1.112454 -0.562226 255 255 0 50 27
2.220621 -0.989274 -0.552226 255 255 0 50 27
2.258842 -0.962639 -0.565350 255 255 0 50 27
2.252973 -0.961391 -0.541416 255 255 0 50 27
2.208489 -1.007142 -0.565923 255 255 0 50 27
2.206383 -1.103622 -0.550226 255 255 0 50 27
2.224942 -1.074025 -0.537442 255 255 0 50 27
2.214044 -1.092155 -0.556226 255 255 0 50 27
2.303741 -0.972649 -0.558226 255 255 0 50 27
2.201372 -1.011764 -0.558955 255 255 0 50 27
2.343143 -1.080747 -0.538226 255 255 0 50 27
2.240696 -0.971050 -0.549087 255 255 0 50 27
2.190979 -1.046359 -0.560226 255 255 0 50 27
2.343958 -1.048205 -0.546226 255 255 0 50 27
2.324401 -0.990887 -0.561218 255 255 0 50 27
2.205259 -1.065752 -0.566226 255 255 0 50 27
2.327543 -1.106056 -0.544226 255 255 0 50 27
2.347519 -1.079632 -0.568226 255 255 0 50 27
2.220746 -1.050641 -0.572226 255 255 0 50 27
2.222844 -0.987702 -0.570904 255 255 0 50 27
2.212042 -1.081506 -0.566226 255 255 0 50 27
2.355244 -1.083319 -0.544226 255 255 0 50 27
2.211654 -1.054843 -0.566226 255 255 0 50 27
2.312884 -0.977735 -0.540226 255 255 0 50 27
2.193619 -1.110305 -0.594226 255 255 0 50 27
