ply
format ascii 1.0
element vertex 1108
property float x
property float y
property float z
property uchar red
property uchar green
property uchar blue
property uchar semantic_label
property uchar instance_label
end_header
-0.880049 -0.669040 -1.223702 35 42 50 2 2
-0.367151 -1.122908 -1.228272 26 27 31 2 2
-0.350170 -1.131318 -1.226907 34 36 39 2 2
-0.069528 -1.291466 -1.236458 25 27 31 2 2
-0.079506 -1.271311 -1.237061 24 28 31 2 2
-0.053513 -1.289701 -1.237766 25 28 31 2 2
-0.895120 -0.843491 -1.224201 46 50 54 2 2
-0.696799 -1.003232 -1.224318 37 42 46 2 2
-0.778319 -0.650295 -1.223712 32 35 43 2 2
-0.753887 -0.658320 -1.223092 32 33 43 2 2
-0.641563 -1.278921 -1.232468 55 62 57 2 2
-0.645191 -1.254047 -1.231101 55 57 56 2 2
-0.517060 -1.381891 -1.235410 48 47 47 2 2
-0.480670 -1.385937 -1.237341 52 52 50 2 2
-0.495094 -1.350464 -1.236737 49 49 47 2 2
-0.034156 -1.227330 -1.238120 25 27 30 2 2
-0.763819 -0.719243 -1.224620 31 35 43 2 2
-0.090349 -0.446196 -0.940919 20 22 27 0 0
-0.100558 -0.443086 -0.924581 23 24 32 0 0
-0.108720 -0.438926 -0.917841 23 25 31 0 0
-0.853424 -1.094071 -1.223666 76 79 83 2 2
-0.885724 -1.041661 -1.223020 66 70 74 2 2
-0.765753 -0.522912 -1.223813 22 26 30 2 2
-0.751076 -0.531937 -1.217815 23 27 32 2 2
-0.731403 -0.521658 -1.218635 53 55 61 2 2
-0.733548 -0.531535 -1.216405 55 58 62 2 2
-0.149465 -1.200797 -1.236013 20 22 24 2 2
-0.130870 -1.207602 -1.235744 20 22 25 2 2
-0.590138 -0.885854 -0.944620 33 32 31 7 4
-0.574837 -0.879097 -0.936051 29 31 30 7 4
-0.593194 -0.892913 -0.959616 39 40 36 0 0
-0.585611 -0.895097 -0.958234 32 33 28 0 0
-0.574908 -0.906075 -0.960201 31 32 30 7 4
-0.887194 -0.698170 -1.225131 35 40 49 2 2
-0.825783 -1.241425 -1.225267 106 105 117 2 2
-0.733569 -1.173045 -1.226636 62 63 63 2 2
-0.429310 -0.503911 -1.220058 26 31 41 2 2
-0.436158 -0.480631 -1.222360 25 30 40 2 2
-0.389288 -0.872133 -1.225928 28 33 39 2 2
-0.697538 -0.684526 -1.223485 29 32 40 2 2
-0.867773 -1.319538 -1.225837 109 110 122 2 2
-0.895850 -1.285398 -1.226703 107 107 121 2 2
-0.530076 -0.670924 -1.220027 61 61 75 2 2
-0.512197 -0.647262 -1.221435 77 79 96 2 2
-0.336369 -0.483449 -1.216942 24 28 36 2 2
-0.341177 -0.503388 -1.219733 28 33 41 2 2
-0.032309 -0.485605 -1.222788 29 31 39 2 2
-0.033754 -0.462210 -1.221364 26 29 32 2 2
-0.037365 -0.445405 -1.221030 25 32 40 2 2
-0.196980 -1.087598 -1.236029 17 20 18 2 2
-0.210861 -1.083321 -1.235691 18 20 19 2 2
-0.160951 -1.258165 -1.236902 20 22 26 2 2
-0.140898 -1.240289 -1.236656 20 23 26 2 2
-0.012903 -0.946020 -1.236510 29 31 32 2 2
-0.460980 -0.724016 -1.220687 73 74 87 2 2
-0.457837 -0.705476 -1.220843 78 81 95 2 2
-0.443609 -0.723824 -1.220196 67 70 82 2 2
-0.480899 -0.719540 -1.220251 74 72 86 2 2
-0.441242 -0.704788 -1.218966 69 69 84 2 2
-0.167813 -1.223453 -1.234908 20 23 26 2 2
-0.191469 -1.293703 -1.236290 20 24 27 2 2
-0.200721 -1.266959 -1.234021 20 23 25 2 2
-0.174568 -1.251670 -1.235687 20 23 26 2 2
-0.667275 -0.971064 -1.223926 39 42 46 2 2
-0.245298 -0.994669 -1.228342 18 21 23 2 2
-0.775318 -0.747177 -1.224646 34 38 47 2 2
-0.748637 -0.757285 -1.224653 33 38 45 2 2
-0.749694 -0.784670 -1.223564 30 35 43 2 2
-0.035121 -0.634606 -1.226898 24 27 32 2 2
-0.325527 -0.842695 -1.227268 26 30 32 2 2
-0.331819 -0.826746 -1.226972 27 32 33 2 2
-0.091965 -1.060130 -1.236122 21 22 22 2 2
-0.069482 -1.067087 -1.235245 22 22 22 2 2
-0.085393 -1.038380 -1.235830 20 21 20 2 2
-0.067791 -1.046756 -1.235853 20 21 20 2 2
-0.410979 -1.349010 -1.236663 37 39 35 2 2
-0.425939 -1.335948 -1.238042 36 38 36 2 2
-0.437485 -1.346311 -1.237585 42 39 38 2 2
-0.835972 -0.832607 -1.224018 41 44 49 2 2
-0.749985 -1.350867 -1.228085 90 89 97 2 2
-0.745444 -1.337420 -1.229138 93 93 97 2 2
-0.524103 -0.488888 -1.220546 16 15 20 2 2
-0.510783 -0.470140 -1.221313 15 15 20 2 2
-0.545529 -0.461574 -1.221458 14 14 19 2 2
-0.526634 -0.453997 -1.221406 17 17 22 2 2
-0.355866 -0.680231 -1.217395 58 61 73 2 2
-0.509412 -0.813642 -1.214838 39 41 45 2 2
-0.470654 -0.822542 -1.221252 35 37 43 2 2
-0.491609 -0.807256 -1.223488 36 38 45 2 2
-0.501223 -0.802957 -1.221580 39 41 48 2 2
-0.112554 -0.420616 -1.195232 41 45 57 0 0
-0.103472 -0.417098 -1.179749 42 45 54 0 0
-0.091838 -0.415180 -1.177017 40 44 51 0 0
-0.120306 -0.415079 -1.180288 43 47 59 0 0
-0.104177 -0.415263 -1.161105 41 47 58 0 0
-0.761578 -1.175603 -1.226472 70 72 74 2 2
-0.778190 -1.196295 -1.226218 85 87 90 2 2
-0.642272 -0.868653 -1.215570 33 38 45 2 2
-0.657768 -0.858151 -1.220997 33 37 44 2 2
-0.647549 -0.881349 -1.223453 35 39 46 2 2
-0.696401 -1.026594 -1.227670 36 39 44 2 2
-0.132611 -0.421373 -1.061888 45 47 56 0 0
-0.126974 -0.421890 -1.053073 43 45 54 0 0
-0.810819 -0.740044 -1.223219 36 39 46 2 2
-0.460575 -1.332053 -1.239020 42 41 42 2 2
-0.460771 -1.351140 -1.238138 43 44 41 2 2
-0.421014 -0.950595 -0.897913 25 25 23 0 0
-0.436722 -0.947498 -0.905321 26 25 23 0 0
-0.492133 -0.915779 -0.966947 20 21 18 0 0
-0.478051 -0.935842 -0.959187 16 17 20 0 0
-0.485685 -0.921304 -0.946702 26 27 22 0 0
-0.480179 -0.925866 -0.960240 12 14 15 0 0
-0.487692 -0.949336 -0.966635 33 32 28 7 4
-0.478646 -0.945567 -0.964475 21 21 21 7 4
-0.485623 -0.945728 -0.954901 25 25 23 7 4
-0.090808 -0.419469 -1.192106 36 40 49 0 0
-0.115924 -0.435355 -1.217434 31 34 40 2 2
-0.106199 -0.427595 -1.209410 37 40 49 0 0
-0.098717 -0.431591 -1.213699 31 32 37 2 2
-0.273938 -0.786499 -1.220481 104 109 134 2 2
-0.244703 -0.781399 -1.225959 105 110 135 2 2
-0.252725 -0.775602 -1.222035 85 89 109 2 2
-0.296735 -0.777659 -1.220162 77 79 93 2 2
-0.268998 -0.773191 -1.220618 87 92 109 2 2
-0.607542 -0.942924 -0.983958 26 30 35 7 4
-0.269194 -1.338350 -1.234742 20 23 26 2 2
-0.263274 -1.317479 -1.233962 20 23 25 2 2
-0.285751 -1.304812 -1.233867 20 24 27 2 2
-0.438463 -1.273162 -1.235651 33 35 38 2 2
-0.420390 -1.249379 -1.232006 118 123 149 2 2
-0.417284 -1.260735 -1.231429 160 169 227 2 2
-0.444476 -1.260537 -1.234637 42 44 42 2 2
-0.437119 -1.251320 -1.227623 50 51 47 2 2
-0.364734 -0.619262 -1.218438 32 37 43 2 2
-0.079057 -0.449103 -0.878343 23 25 32 0 0
-0.069771 -0.443688 -0.866054 27 28 30 7 4
-0.077367 -0.450161 -0.858180 23 23 31 0 0
-0.088901 -0.448984 -0.857498 22 24 32 0 0
-0.073557 -0.448551 -0.853246 21 23 28 0 0
-0.961088 -0.432225 -1.222026 31 34 42 2 2
-0.923194 -0.685920 -1.223927 35 43 50 2 2
-0.955569 -0.662670 -1.223219 39 44 53 2 2
-0.510588 -0.989654 -1.226659 19 23 25 2 2
-0.487232 -0.992907 -1.228889 17 18 17 2 2
-0.577221 -0.538349 -1.218503 16 21 24 2 2
-0.889007 -0.941315 -1.222580 48 56 60 2 2
-0.460042 -0.448438 -1.220953 31 35 40 2 2
-0.531129 -0.888011 -1.213990 30 30 29 2 2
-0.528386 -0.899261 -1.207699 30 31 31 2 2
-0.519306 -0.907081 -1.198223 28 29 27 2 2
-0.506416 -0.902335 -1.204530 32 31 26 2 2
-0.510462 -0.901013 -1.208528 33 32 27 2 2
-0.506906 -0.883617 -1.211963 33 32 28 2 2
-0.078794 -0.776481 -1.226881 16 16 17 2 2
-0.062744 -0.792772 -1.227024 12 12 11 2 2
-0.059812 -0.778535 -1.227259 10 10 10 2 2
-0.566549 -0.413137 -1.221063 21 26 30 2 2
-0.582691 -0.403029 -1.219254 20 25 31 2 2
-0.592996 -0.420242 -1.219546 22 27 36 2 2
-0.793361 -0.719380 -1.224150 35 39 48 2 2
-0.768511 -0.799010 -1.223106 35 39 47 2 2
-0.767506 -0.818027 -1.224091 39 41 50 2 2
-0.341606 -1.222110 -1.238571 17 20 17 2 2
-0.722248 -1.013445 -1.225080 43 47 50 2 2
-0.710242 -1.025740 -1.226204 43 45 50 2 2
-0.683826 -1.164988 -1.228785 51 54 54 2 2
-0.320452 -0.799880 -1.223006 29 32 33 2 2
-0.315315 -0.787278 -1.217295 57 61 74 2 2
-0.344179 -0.825570 -1.225563 29 30 33 2 2
-0.336967 -0.799899 -1.222432 33 34 38 2 2
-0.514891 -0.973123 -1.223426 23 23 23 2 2
-0.602919 -1.312997 -1.234567 58 61 59 2 2
-0.587217 -1.307111 -1.234619 52 56 55 2 2
-0.619194 -1.148170 -1.228722 46 47 49 2 2
-0.589951 -1.173543 -1.230015 45 47 46 2 2
-0.605319 -1.155170 -1.230040 46 49 48 2 2
-0.827489 -0.984740 -1.224866 48 55 57 2 2
-0.181140 -0.858035 -1.221811 39 43 49 2 2
-0.187821 -0.876801 -1.220782 41 44 49 2 2
-0.225229 -1.380080 -1.237069 24 26 29 2 2
-0.247232 -1.407725 -1.235113 26 28 31 2 2
-0.889481 -0.972795 -1.224110 61 66 68 2 2
-0.902154 -1.015834 -1.223125 66 73 76 2 2
-0.202559 -1.317769 -1.235790 21 25 28 2 2
-0.913030 -0.799240 -1.223450 42 46 52 2 2
-0.047616 -0.528584 -1.221004 24 28 31 2 2
-0.942906 -1.389938 -1.229438 76 82 96 2 2
-0.952015 -1.367232 -1.227872 76 81 95 2 2
-0.599091 -0.890197 -1.015595 44 45 44 0 0
-0.574090 -0.910304 -1.007024 33 33 30 0 0
-0.593855 -0.911114 -1.027384 39 40 36 0 0
-0.600301 -0.905351 -1.022858 44 44 42 0 0
-0.598033 -0.893196 -1.007839 45 43 41 0 0
-0.607572 -0.895784 -1.007251 45 46 43 7 4
-0.604493 -0.889855 -1.016429 45 46 44 7 4
-0.583354 -0.906739 -1.015125 35 35 31 0 0
-0.603135 -0.896715 -1.033368 45 46 46 0 0
-0.586237 -0.903283 -0.997022 40 41 38 0 0
-0.602371 -0.913358 -1.025676 47 47 49 7 4
-0.703585 -1.039106 -1.227647 44 48 49 2 2
-0.660194 -1.035170 -1.226479 44 47 50 2 2
-0.682648 -1.060476 -1.226160 42 45 47 2 2
-0.547710 -1.024049 -1.229065 32 37 41 2 2
-0.557736 -1.042493 -1.228432 35 39 44 2 2
-0.538425 -1.043228 -1.231258 31 35 39 2 2
-0.520853 -0.728148 -1.220771 52 54 65 2 2
-0.541738 -0.742693 -1.222454 48 49 55 2 2
-0.519164 -0.749590 -1.220449 49 49 59 2 2
-0.530630 -0.744118 -1.219071 51 52 60 2 2
-0.161621 -1.303555 -1.237096 23 26 29 2 2
-0.161998 -1.328806 -1.237567 24 27 30 2 2
-0.684893 -0.895191 -1.223937 33 37 44 2 2
-0.073586 -0.441374 -0.896925 26 27 28 7 4
-0.075465 -0.447100 -0.890171 20 25 28 0 0
-0.094669 -0.446530 -0.894600 18 22 27 0 0
-0.095179 -0.447570 -0.878452 24 25 34 0 0
-0.070977 -0.441736 -0.882724 23 26 29 7 4
-0.667607 -0.817815 -1.219459 32 37 42 2 2
-0.640860 -0.807305 -1.221741 37 41 49 2 2
-0.647755 -0.811542 -1.196472 33 36 43 2 2
-0.656332 -0.807779 -1.207458 35 38 45 2 2
-0.654694 -0.794079 -1.201261 33 35 42 2 2
-0.642897 -0.813528 -1.206028 35 37 45 2 2
-0.670180 -0.795622 -1.219627 33 37 44 2 2
-0.654881 -0.824253 -1.214121 31 36 41 2 2
-0.055627 -0.981300 -0.861265 21 22 23 5 7
-0.049331 -0.969247 -0.857740 26 28 28 5 7
-0.043719 -0.970241 -0.859034 23 24 25 5 7
-0.037579 -0.983575 -0.860818 19 19 22 5 7
-0.059187 -0.964270 -0.859592 35 37 36 5 7
-0.033264 -0.961143 -0.852630 22 24 23 5 7
-0.045811 -0.958417 -0.853771 36 38 37 5 7
-0.947210 -0.954808 -1.222722 62 67 70 2 2
-0.676600 -0.723236 -1.241744 30 32 43 2 2
-0.676262 -0.735407 -1.230628 30 34 41 2 2
-0.533574 -0.437649 -1.222189 15 17 22 2 2
-0.492161 -0.928464 -0.895084 29 28 27 7 4
-0.495495 -0.914828 -0.879006 40 41 43 7 4
-0.494668 -0.934502 -0.878938 30 31 26 7 4
-0.494337 -0.935686 -0.899066 29 31 26 7 4
-0.971440 -1.169994 -1.224445 113 114 128 2 2
-0.990627 -1.142076 -1.223393 107 110 124 2 2
-0.996444 -1.173170 -1.223493 114 115 129 2 2
-0.683589 -0.945005 -1.226294 37 41 47 2 2
-0.679194 -0.939170 -1.225918 37 41 47 2 2
-0.131313 -0.417433 -1.131695 42 43 54 0 0
-0.138608 -0.415519 -1.149343 42 44 55 0 0
-0.120495 -0.418109 -1.133743 40 44 56 0 0
-0.141734 -0.409022 -1.141007 41 43 53 0 0
-0.207170 -0.861719 -1.220070 48 48 53 2 2
-0.917868 -0.483003 -1.223353 32 36 42 2 2
-0.907628 -0.460990 -1.220939 32 35 40 2 2
-0.703113 -0.673853 -1.223351 28 32 40 2 2
-0.710185 -0.665518 -1.222630 29 32 41 2 2
-0.715731 -0.664718 -1.223533 30 34 43 2 2
-0.765177 -0.533572 -1.221743 29 31 37 2 2
-0.776597 -0.521167 -1.221111 25 27 36 2 2
-0.017591 -0.536539 -1.221168 23 28 31 2 2
-0.093951 -0.826463 -1.226179 17 17 19 2 2
-0.115532 -0.837254 -1.229746 18 19 18 2 2
-0.307461 -1.030922 -1.232279 18 20 21 2 2
-0.313117 -1.402483 -1.228251 164 176 219 2 2
-0.146159 -0.917655 -0.848105 16 16 19 0 0
-0.135059 -0.923713 -0.848294 19 19 22 0 0
-0.405145 -0.412250 -1.219781 21 26 35 2 2
-0.396081 -0.425928 -1.219560 24 29 40 2 2
-0.337683 -0.868969 -1.227768 26 28 30 2 2
-0.331576 -0.857399 -1.226294 27 29 32 2 2
-0.252472 -0.919513 -1.227547 26 29 31 2 2
-0.236909 -0.904976 -1.227957 27 29 31 2 2
-0.222330 -0.913877 -1.226507 27 29 31 2 2
-0.223367 -0.891672 -1.227406 26 29 31 2 2
-0.305748 -0.880877 -1.227526 26 28 31 2 2
-0.304418 -0.917143 -1.228763 24 28 31 2 2
-0.293939 -0.904249 -1.228653 26 29 31 2 2
-0.312119 -0.900223 -1.228843 25 27 30 2 2
-0.007949 -1.352996 -0.835241 10 10 10 5 7
0.000333 -1.345573 -0.834391 10 10 9 5 7
-0.009251 -1.367960 -0.830740 9 9 8 5 7
-0.925186 -1.046333 -1.222638 76 79 84 2 2
-0.899444 -1.034420 -1.223074 72 76 82 2 2
-0.785194 -0.956170 -1.224178 46 49 52 2 2
-0.761259 -0.955238 -1.225517 46 48 52 2 2
-0.758164 -1.249185 -1.228150 76 80 83 2 2
-0.735214 -1.266667 -1.228450 78 82 86 2 2
-0.483387 -0.606531 -1.217563 53 60 70 2 2
-0.497495 -0.621190 -1.220463 98 99 127 2 2
-1.005784 -0.822463 -1.225430 51 54 61 2 2
-0.326978 -0.779528 -1.218280 41 42 50 2 2
-0.338943 -0.788086 -1.220907 30 31 33 2 2
-0.337394 -0.772498 -1.216674 75 80 96 2 2
-0.313393 -0.766111 -1.221254 83 86 106 2 2
-0.793060 -1.042034 -1.224908 47 54 53 2 2
-0.619174 -0.906916 -0.992487 54 59 64 7 4
-0.621593 -0.906370 -0.973475 107 108 108 7 4
-0.622479 -0.899613 -0.993264 103 104 109 7 4
-0.614746 -0.903236 -0.991806 102 103 106 7 4
-0.618321 -0.895798 -1.000246 77 77 81 0 0
-0.621112 -0.905379 -0.978978 27 31 35 7 4
-0.625995 -0.891242 -0.982893 107 108 111 7 4
-0.623239 -0.890488 -0.995743 84 85 89 7 4
-0.614434 -0.893595 -0.990074 48 51 53 0 0
-0.616347 -0.919285 -0.978323 33 37 43 7 4
-0.650871 -0.600640 -1.217630 72 79 92 2 2
-0.672627 -0.581801 -1.220866 54 58 67 2 2
-0.657737 -0.580871 -1.214777 56 60 71 2 2
-0.644827 -0.578498 -1.214943 74 81 97 2 2
-0.071429 -1.010692 -1.235358 19 20 18 2 2
-0.126329 -1.079453 -1.235862 20 22 21 2 2
-0.166308 -1.067325 -1.234342 18 20 19 2 2
-0.126645 -0.435926 -0.898723 24 25 31 0 0
-0.324196 -1.109691 -1.224069 30 31 35 2 2
-0.411640 -1.303474 -1.235513 38 38 42 2 2
-0.382944 -1.332696 -1.232875 32 33 40 2 2
-0.387189 -1.323238 -1.233688 36 35 41 2 2
-0.388705 -1.307894 -1.227917 117 123 166 2 2
-0.786735 -0.546188 -1.218700 28 31 37 2 2
-0.795683 -0.529966 -1.220097 28 31 37 2 2
-0.774428 -0.543641 -1.220589 27 31 37 2 2
-0.664179 -0.568324 -1.215858 75 80 99 2 2
-0.683177 -0.581001 -1.216267 69 73 86 2 2
-0.697554 -0.580432 -1.216789 67 69 80 2 2
-0.681245 -0.592072 -1.218301 77 81 99 2 2
-0.622314 -0.709163 -1.225590 45 48 57 2 2
-0.601615 -0.709642 -1.223320 81 85 104 2 2
-0.616983 -0.698511 -1.220165 62 66 80 2 2
-0.252566 -1.237750 -1.235054 23 26 27 2 2
-0.276160 -1.208599 -1.234630 25 27 27 2 2
-0.390826 -1.032840 -1.233564 24 28 31 2 2
-0.381726 -1.019776 -1.232585 24 28 32 2 2
-0.404454 -1.034578 -1.232620 26 28 32 2 2
-0.919576 -0.439584 -1.222176 31 33 40 2 2
-0.904303 -0.432549 -1.220238 26 32 38 2 2
-0.234480 -0.819047 -1.224081 82 86 105 2 2
-0.774295 -0.615199 -1.223940 30 34 40 2 2
-0.779884 -0.625266 -1.223385 28 33 41 2 2
-0.874207 -1.250556 -1.225849 112 114 126 2 2
-0.890509 -1.264463 -1.225912 106 107 119 2 2
-0.604996 -0.946233 -0.966738 31 33 38 7 4
-0.277434 -1.236332 -1.234664 24 25 27 2 2
-0.262156 -1.253171 -1.235362 22 24 26 2 2
-0.799526 -1.324136 -1.228147 96 97 105 2 2
-0.836707 -1.330872 -1.226731 95 97 109 2 2
-0.205604 -0.646852 -1.221133 34 36 42 2 2
-0.192431 -0.670645 -1.222806 30 34 38 2 2
-0.181871 -0.651067 -1.223572 30 34 39 2 2
-0.933826 -1.351705 -1.226253 80 86 101 2 2
-0.954781 -1.326766 -1.226643 84 87 101 2 2
-0.875819 -0.599045 -1.223262 34 38 46 2 2
-0.879194 -0.576170 -1.223408 33 40 45 2 2
-0.859500 -0.590372 -1.222830 31 35 41 2 2
-0.902048 -0.565275 -1.223314 35 39 46 2 2
-0.779319 -0.848795 -1.224443 39 41 50 2 2
-0.752131 -1.209805 -1.227437 67 71 73 2 2
-0.620623 -0.641531 -1.217460 71 73 80 2 2
-0.622168 -0.659564 -1.224365 80 86 99 2 2
-0.630561 -0.658118 -1.219608 75 80 89 2 2
-0.607016 -0.660193 -1.220853 84 91 107 2 2
-0.500237 -0.675663 -1.221357 77 80 100 2 2
-0.871694 -0.781670 -1.223651 42 43 52 2 2
-0.062220 -1.400484 -1.239190 28 32 35 2 2
-0.000697 -1.380268 -1.237870 27 31 34 0 0
-0.775194 -0.899170 -1.224589 42 45 54 2 2
-0.635726 -0.719491 -1.228851 56 60 74 2 2
-0.610760 -0.895555 -1.017667 43 44 48 7 4
-0.612937 -0.909136 -1.003230 46 47 51 7 4
-0.606418 -0.914470 -1.019552 39 39 44 7 4
-0.607838 -0.895361 -1.035065 46 47 49 7 4
-0.705301 -1.205704 -1.228441 58 61 59 2 2
-0.666224 -1.195482 -1.229468 56 60 58 2 2
-0.668433 -0.740256 -1.236989 34 35 42 2 2
-0.651997 -0.734136 -1.235045 33 34 41 2 2
-0.657205 -0.725447 -1.234782 48 54 62 2 2
-0.124120 -0.516006 -1.224879 34 39 51 2 2
-0.140487 -0.549980 -1.222932 32 39 49 2 2
-0.281784 -1.327891 -1.233531 20 23 26 2 2
-0.297194 -1.310170 -1.234722 19 23 26 2 2
-0.158736 -0.415304 -0.945936 21 26 29 0 0
-0.150838 -0.417906 -0.967306 20 24 28 0 0
-0.611367 -0.944560 -0.885931 23 25 30 7 4
-0.608086 -0.951290 -0.899838 25 28 33 7 4
-0.604147 -0.956165 -0.871454 22 24 29 7 4
-0.613049 -0.942335 -0.873988 24 26 30 7 4
-0.258519 -0.756331 -1.225498 63 67 79 2 2
-0.111187 -1.166863 -1.236271 20 21 25 2 2
-0.125217 -1.152799 -1.235376 20 22 25 2 2
-0.564918 -0.953797 -1.169921 40 41 38 2 2
-0.558986 -0.953010 -1.182021 33 33 30 2 2
-0.561090 -0.958262 -1.193095 38 37 35 2 2
-0.292045 -1.110829 -1.234293 21 23 23 2 2
-0.273269 -1.123659 -1.235111 21 23 23 2 2
-0.260016 -1.112898 -1.234845 20 21 24 2 2
-0.271004 -1.088150 -1.234507 68 71 65 2 2
-0.266777 -1.073997 -1.232088 58 60 56 2 2
-0.722833 -0.720816 -1.227328 34 36 46 2 2
-0.020671 -1.088213 -1.238028 26 27 27 2 2
0.006178 -1.100829 -1.238012 28 29 29 2 2
-0.525424 -0.840193 -1.216253 25 28 35 2 2
-0.509707 -0.833841 -1.216107 39 41 42 2 2
-0.354450 -1.159708 -1.234750 86 88 85 2 2
-0.366611 -1.151803 -1.226043 21 21 23 2 2
-0.362495 -1.171672 -1.235063 16 17 19 2 2
-0.013654 -0.949788 -0.820019 97 99 99 0 0
-0.024472 -0.949187 -0.812876 99 101 101 0 0
-0.760142 -0.546603 -1.225244 25 33 40 2 2
-0.748006 -0.568314 -1.231406 28 30 38 2 2
-0.646728 -0.900981 -1.227006 34 39 44 2 2
-0.134707 -0.426174 -0.980258 54 56 66 0 0
-0.139372 -0.421619 -1.000506 24 25 31 0 0
-0.129298 -0.428136 -0.965283 32 34 41 0 0
-0.122610 -0.429898 -0.982323 24 26 32 0 0
-0.145959 -0.420265 -0.996985 41 43 51 0 0
-0.127439 -0.427745 -0.998092 61 63 73 0 0
-0.143305 -0.421191 -0.976949 19 22 26 0 0
-0.154780 -0.416321 -0.998851 28 29 35 0 0
-0.094282 -0.440426 -0.970469 44 48 54 0 0
-0.082636 -0.440376 -0.989073 42 45 53 0 0
-0.080233 -0.445405 -0.976537 51 53 61 0 0
-0.077183 -0.446275 -0.969457 46 48 56 7 4
-0.163748 -0.523940 -1.223753 33 39 50 2 2
-0.162958 -0.555868 -1.222782 35 38 47 2 2
-0.181687 -0.559779 -1.222008 36 39 47 2 2
-0.427077 -1.069267 -1.231325 23 27 30 2 2
-0.411925 -1.077838 -1.232358 23 27 30 2 2
-0.868444 -0.695295 -1.224344 35 39 49 2 2
-0.366303 -1.290640 -1.236719 95 97 125 2 2
-0.386498 -1.264214 -1.236370 26 27 28 2 2
-0.368676 -1.271606 -1.238051 26 27 27 2 2
-0.351060 -1.258840 -1.238287 25 29 27 2 2
-0.488987 -0.481835 -1.220371 23 26 34 2 2
-0.500276 -0.496859 -1.219690 21 25 31 2 2
-0.014406 -0.577329 -1.222230 24 28 32 2 2
-0.010530 -0.596878 -1.222813 24 28 32 2 2
-0.484253 -0.625100 -1.218762 92 92 115 2 2
-0.475623 -0.654137 -1.219471 87 88 112 2 2
-0.491926 -0.653522 -1.220845 84 88 109 2 2
-0.249333 -0.547574 -1.224123 29 32 37 2 2
-0.268728 -0.535612 -1.224447 29 31 36 2 2
-0.559787 -0.631781 -1.222117 52 54 66 2 2
-0.571770 -0.640872 -1.220962 47 47 55 2 2
-0.065954 -0.548252 -1.224257 24 29 34 2 2
-0.066321 -0.535199 -1.222672 24 28 33 2 2
-0.088510 -0.545590 -1.223194 29 33 41 2 2
-0.181118 -0.523206 -1.223037 37 41 53 2 2
-0.150327 -0.512002 -1.223707 35 41 53 2 2
-0.110804 -1.190417 -1.237467 20 24 25 2 2
-0.087590 -1.193723 -1.236577 20 22 24 2 2
-0.606407 -0.951956 -0.912291 28 32 37 7 4
-0.491646 -0.914524 -0.922862 26 27 24 7 4
-0.500274 -0.902283 -0.923040 28 29 27 7 4
-0.497619 -0.904929 -0.901428 29 30 28 7 4
-0.495411 -0.910285 -0.932669 23 25 21 7 4
-0.484244 -0.919470 -0.932208 23 24 21 7 4
-0.863840 -1.113155 -1.223313 82 87 93 2 2
-0.872806 -1.134233 -1.224168 89 95 102 2 2
-0.739892 -0.592165 -1.227833 27 33 38 2 2
-0.013989 -0.893401 -1.233922 38 38 41 2 2
-0.041401 -0.885089 -1.233235 38 38 42 2 2
-0.208358 -1.028916 -1.233207 98 101 94 2 2
-0.291340 -1.396270 -1.225051 25 26 26 2 2
-0.271581 -0.802463 -1.223284 97 102 128 2 2
-0.286649 -0.803594 -1.221565 95 101 126 2 2
-0.463597 -0.977406 -1.229029 18 19 21 2 2
-0.448616 -0.966966 -1.229233 23 24 26 2 2
-0.599255 -0.958270 -1.023745 30 34 41 7 4
-0.587473 -0.970877 -1.026590 35 38 42 7 4
-0.582059 -0.971579 -1.021668 41 42 46 7 4
-0.573831 -0.956225 -1.106470 43 43 46 2 2
-0.559604 -0.776715 -1.219426 72 77 101 2 2
-0.535166 -0.778858 -1.220970 46 52 58 2 2
-0.541579 -0.787963 -1.216143 60 65 82 2 2
-0.564010 -0.764492 -1.221702 77 81 110 2 2
-0.545548 -0.767969 -1.221425 49 54 61 2 2
-0.916212 -0.551773 -1.222441 35 40 46 2 2
-0.894385 -0.538560 -1.221749 35 37 44 2 2
-0.170650 -0.911578 -0.842314 79 78 80 0 0
-0.157807 -0.914840 -0.849811 59 57 59 0 0
-0.170165 -0.924066 -0.849624 24 23 28 0 0
-0.001830 -0.499424 -1.221854 28 31 40 2 2
-0.021301 -0.483926 -1.222138 31 35 47 2 2
-0.503368 -0.951995 -0.951258 33 33 29 7 4
-0.488552 -0.924259 -0.921494 23 24 21 7 4
-0.490011 -0.929614 -0.917269 24 25 23 7 4
-0.492295 -0.920164 -0.900285 26 27 26 7 4
-0.484947 -0.931047 -0.929287 20 20 18 7 4
-0.497300 -0.946732 -0.932548 33 32 28 7 4
-0.485095 -0.938289 -0.937643 18 19 17 7 4
-0.476620 -0.928372 -0.934709 20 20 18 0 0
-0.235097 -0.790258 -1.228438 78 82 98 2 2
-0.224248 -0.778581 -1.230001 97 101 125 2 2
-0.225095 -0.795884 -1.228495 77 80 97 2 2
-0.238500 -0.764383 -1.228640 63 67 80 2 2
-0.292226 -1.378626 -1.232427 25 26 28 2 2
-0.278840 -1.376327 -1.235574 24 26 28 2 2
-0.285748 -1.366448 -1.236285 24 26 29 2 2
-0.252127 -1.389236 -1.236233 25 27 30 2 2
-0.580211 -0.483818 -1.221182 12 17 18 2 2
-0.604218 -0.504057 -1.217743 14 18 21 2 2
-0.512323 -0.961207 -1.001472 31 31 36 7 4
-0.524006 -0.968520 -1.012656 33 35 44 7 4
-0.593602 -0.896615 -0.993953 45 46 45 0 0
-0.572130 -0.908414 -0.984471 33 33 29 0 0
-0.590479 -0.893192 -0.970753 36 37 32 0 0
-0.605758 -0.892996 -0.980395 43 45 41 0 0
-0.594238 -0.896355 -0.982347 40 42 37 0 0
-0.585390 -0.906161 -0.972140 33 34 30 0 0
-0.595544 -0.901494 -1.007075 44 44 42 0 0
-0.604124 -0.893036 -0.993061 47 48 46 0 0
-0.305290 -1.264623 -0.815511 20 21 24 5 7
-0.592849 -0.946081 -1.210459 34 37 43 2 2
-0.519236 -1.013353 -1.229331 31 35 38 2 2
-0.515444 -1.041045 -1.229715 29 33 35 2 2
-0.998194 -1.261670 -1.226571 98 99 114 2 2
-0.660708 -0.653985 -1.217045 67 73 86 2 2
-0.631615 -0.639181 -1.217131 78 83 96 2 2
-0.668668 -0.656447 -1.215375 48 54 60 2 2
-0.657272 -0.642922 -1.220847 70 74 83 2 2
-0.476234 -1.009729 -1.230333 21 26 29 2 2
-0.498510 -1.019184 -1.228782 24 28 32 2 2
-0.028575 -1.373824 -1.241091 28 33 36 2 2
-0.024194 -1.346170 -1.239922 28 31 35 2 2
-0.067099 -0.828589 -1.231149 34 35 38 2 2
-0.043187 -0.810260 -1.231604 33 35 38 2 2
-0.055130 -0.803691 -1.229894 25 22 23 2 2
-0.850194 -1.074670 -1.224251 63 67 70 2 2
-0.828819 -1.076545 -1.224613 65 69 72 2 2
-0.865694 -1.058545 -1.223984 62 67 70 2 2
-0.097263 -0.454973 -1.223399 28 29 32 2 2
-0.098823 -0.445765 -1.221408 40 43 49 2 2
-0.584175 -0.869050 -1.212542 35 35 33 2 2
-0.578692 -0.867801 -1.204683 35 36 34 2 2
-0.595446 -0.879307 -1.217411 22 26 33 2 2
-0.573626 -0.852887 -1.208280 35 36 37 2 2
-0.582667 -0.889904 -1.202297 34 35 31 2 2
-0.394296 -1.055819 -1.233488 23 27 30 2 2
-0.979319 -1.105920 -1.223458 118 121 132 2 2
-0.978006 -1.074232 -1.224080 105 113 122 2 2
-0.471451 -0.961946 -1.225827 20 19 16 2 2
-0.898093 -1.102412 -1.224246 89 95 103 2 2
-0.908657 -1.078331 -1.222243 82 90 95 2 2
-0.852694 -1.029170 -1.223749 60 64 68 2 2
-0.547495 -1.196479 -1.232769 37 41 42 2 2
-0.537708 -1.181670 -1.231531 38 42 43 2 2
-0.494078 -0.950037 -1.054970 39 36 31 7 4
-0.485347 -0.940003 -1.056961 37 35 33 7 4
-0.484095 -0.938460 -1.048566 39 39 44 0 0
-0.490422 -0.930681 -1.068925 38 38 38 0 0
-0.495507 -0.923604 -1.064550 36 35 32 0 0
-0.489526 -0.925335 -1.040113 33 33 32 0 0
-0.680589 -0.491471 -1.220207 42 48 58 2 2
-0.699677 -0.483627 -1.224205 48 53 64 2 2
-0.688964 -0.492094 -1.216105 48 55 69 2 2
-0.674719 -0.500839 -1.216248 41 47 59 2 2
-0.686701 -0.481475 -1.215228 44 50 60 2 2
-0.839194 -1.156170 -1.224153 95 96 104 2 2
-0.823194 -1.160170 -1.225284 81 87 94 2 2
-0.851694 -1.136170 -1.224120 79 83 91 2 2
-0.567156 -0.448243 -1.219759 16 17 21 2 2
-0.091425 -0.917395 -0.851436 27 28 28 5 7
-0.093992 -0.908389 -0.849322 27 28 28 5 7
-0.073123 -0.907230 -0.844936 26 27 28 5 7
-0.079891 -0.917203 -0.846642 32 30 33 5 7
-0.091359 -0.903217 -0.845611 21 22 23 5 7
0.004025 -0.420914 -1.222660 40 43 54 2 2
-0.612538 -1.295843 -1.233598 56 59 57 2 2
-0.575194 -1.276170 -1.233416 53 54 54 2 2
-0.599870 -1.277723 -1.232375 52 54 54 2 2
-0.176355 -0.825100 -1.228888 48 51 58 2 2
-0.171591 -0.803141 -1.228413 57 57 64 2 2
-0.185083 -0.802798 -1.228349 50 52 59 2 2
-0.161957 -0.805917 -1.228785 48 52 59 2 2
-0.175309 -0.790902 -1.228191 48 52 59 2 2
-0.506624 -0.917033 -1.058491 33 32 27 0 0
-0.526517 -0.917400 -1.051968 32 30 26 0 0
-0.527862 -0.912780 -1.031130 30 30 29 0 0
-0.538846 -0.916109 -1.016886 33 34 42 0 0
-0.610061 -0.908358 -1.196051 33 36 42 2 2
-0.653420 -0.955063 -1.224014 33 38 41 2 2
-0.611323 -0.936632 -1.220167 31 37 42 2 2
-0.632367 -0.916733 -1.225400 29 36 42 2 2
-0.601916 -0.934324 -1.210926 34 36 43 2 2
-0.246720 -1.329783 -0.812424 16 16 16 5 7
-0.602042 -0.883515 -0.968191 51 51 51 0 0
-0.012280 -1.278065 -1.239415 29 31 35 2 2
-0.802507 -1.390215 -1.228675 96 97 111 2 2
-0.505936 -0.950938 -1.187797 28 28 26 2 2
-0.509091 -0.965583 -1.218092 24 26 24 2 2
-0.529843 -0.944876 -1.213518 31 31 36 2 2
-0.590579 -0.875884 -0.940424 43 45 44 7 4
-0.588260 -1.088924 -1.229549 38 42 45 2 2
-0.078658 -0.653788 -1.223986 31 34 40 2 2
-0.078721 -0.666822 -1.225380 30 34 42 2 2
-0.209223 -0.675286 -1.223973 47 48 54 2 2
-0.944420 -0.774487 -1.225039 43 48 54 2 2
-0.963363 -0.755411 -1.225677 41 47 50 2 2
-0.915021 -0.584136 -1.223117 35 40 48 2 2
-0.644194 -1.135545 -1.227446 46 51 51 2 2
-0.612582 -0.763219 -1.228921 49 55 68 2 2
-0.619722 -0.764148 -1.223738 50 55 67 2 2
-0.627876 -0.766858 -1.227231 43 48 55 2 2
-0.607425 -0.758304 -1.224165 39 43 50 2 2
-0.416714 -0.831679 -1.221367 34 35 40 2 2
-0.452490 -0.844804 -1.220606 36 38 43 2 2
-0.435108 -0.850083 -1.221682 34 36 41 2 2
-0.256079 -1.164343 -1.237670 23 23 25 2 2
-0.340913 -1.102536 -1.227303 24 27 32 2 2
-0.317403 -1.088126 -1.225055 19 21 25 2 2
-0.284623 -1.053415 -1.225702 18 21 23 2 2
-0.274775 -1.064725 -1.225544 21 24 25 2 2
-0.523198 -1.156503 -1.231381 36 39 42 2 2
-0.054110 -0.930170 -1.233942 25 26 24 2 2
-0.067952 -0.951517 -1.233870 24 24 21 2 2
-0.614763 -0.853365 -1.220649 37 42 52 2 2
-0.072945 -0.916941 -1.231962 37 37 32 2 2
-0.621995 -0.861078 -1.212202 42 44 49 2 2
-0.080110 -0.937856 -1.232491 34 35 29 2 2
-0.616103 -0.881947 -1.209431 34 37 43 2 2
-0.623325 -0.883672 -1.206006 34 36 42 2 2
-0.630658 -0.866335 -1.210930 35 38 45 2 2
-0.665537 -1.008077 -1.226299 37 42 45 2 2
-0.646669 -1.007336 -1.225823 38 40 44 2 2
-0.664130 -0.986422 -1.225585 34 36 41 2 2
-0.196212 -0.495382 -1.223615 35 40 52 2 2
-0.207552 -0.490277 -1.221523 35 38 50 2 2
-0.902194 -1.313670 -1.226676 103 103 117 2 2
-0.929559 -1.309652 -1.227344 103 105 118 2 2
-0.542121 -0.947585 -0.909727 24 28 32 7 4
-0.556511 -0.945815 -0.912511 31 33 31 7 4
-0.032152 -1.015305 -0.867685 7 8 10 5 7
-0.040716 -0.990395 -0.863950 18 19 22 5 7
-0.028067 -0.997398 -0.862670 19 17 21 5 7
-0.055644 -0.992417 -0.862412 15 15 18 5 7
-0.763340 -0.590201 -1.221879 31 37 46 2 2
-0.794134 -0.591461 -1.222980 29 34 41 2 2
-0.790814 -0.575651 -1.222009 28 34 41 2 2
-0.771911 -0.569180 -1.221969 29 32 40 2 2
-0.473382 -0.930802 -0.930827 35 36 36 0 0
-0.454175 -0.953979 -0.906296 26 29 30 0 0
-0.464288 -0.939223 -0.929187 32 30 32 0 0
-0.471487 -0.947830 -0.925025 13 15 13 0 0
-0.459168 -0.935334 -0.943423 66 64 67 0 0
-0.473140 -0.939590 -0.927459 26 24 22 0 0
-0.451536 -0.948054 -0.929773 57 59 61 0 0
-0.459353 -0.942411 -0.917894 27 24 23 0 0
-0.320923 -0.831492 -1.225329 30 33 34 2 2
-0.091799 -0.489772 -1.221303 24 29 36 2 2
-0.098515 -0.470940 -1.222783 34 37 48 2 2
-0.102895 -0.493364 -1.223747 31 34 45 2 2
-0.894804 -0.420659 -1.219993 26 31 36 2 2
-0.878463 -0.397677 -1.221036 24 29 37 2 2
-0.883558 -0.432115 -1.219072 28 32 38 2 2
-0.259378 -0.702593 -1.223730 40 42 51 2 2
-0.267988 -0.713836 -1.221344 39 44 51 2 2
-0.558856 -0.957315 -1.086917 35 35 31 7 4
-0.566472 -0.959806 -1.091567 38 38 36 7 4
-0.548950 -0.955914 -1.077453 33 35 36 7 4
-0.564481 -0.961310 -1.061723 39 40 37 7 4
-0.059059 -1.042380 -1.235963 21 22 21 2 2
-0.044490 -1.026552 -1.235354 23 25 23 2 2
-0.093048 -0.886340 -1.220805 23 24 23 2 2
-0.110272 -0.860804 -1.227720 23 23 21 2 2
-0.096377 -0.863005 -1.222105 18 18 16 2 2
-0.070074 -0.418646 -1.006523 39 40 40 7 4
-0.068878 -0.419417 -0.984793 35 37 35 7 4
-0.067817 -0.420207 -0.978256 39 41 40 7 4
-0.073423 -0.436163 -0.987489 36 38 37 7 4
-0.072619 -0.426371 -0.987830 44 47 55 7 4
-0.072312 -0.434106 -0.976674 44 48 60 7 4
-0.070013 -0.425213 -0.965127 44 48 59 7 4
-0.529452 -0.917731 -1.065678 32 33 34 0 0
-0.523809 -0.947811 -1.100032 32 31 30 7 4
-0.518564 -0.917852 -1.074739 32 32 27 0 0
-0.508959 -0.920957 -1.090052 34 32 28 0 0
-0.507596 -0.921704 -1.075787 34 33 27 0 0
-0.583412 -0.469296 -1.220964 17 18 22 2 2
-0.084537 -0.449278 -1.218625 31 35 38 2 2
-0.084426 -0.435824 -1.212608 29 32 36 2 2
-0.071796 -0.419287 -1.205317 23 23 26 2 2
-0.060653 -0.419940 -1.213072 24 25 28 2 2
-0.074477 -0.413443 -1.194814 35 35 33 0 0
-0.085208 -0.426926 -1.204049 30 30 35 2 2
-0.560899 -0.943808 -1.146586 33 33 28 2 2
-0.553676 -0.944118 -1.195354 32 34 31 2 2
-0.559186 -0.936195 -1.177887 36 35 32 2 2
-0.559139 -0.949163 -1.175489 36 35 32 2 2
-0.014629 -0.763992 -1.229247 20 22 20 2 2
-0.006335 -0.777420 -1.231931 39 40 44 2 2
-0.264796 -0.992229 -1.229173 22 24 27 2 2
-0.253032 -0.982243 -1.229055 23 24 28 2 2
-0.279311 -0.980039 -1.227855 23 24 27 2 2
-0.267829 -1.005865 -1.228604 19 22 23 2 2
-0.597788 -0.956061 -1.060432 31 35 44 7 4
-0.576193 -0.965313 -1.057638 41 43 46 7 4
-0.594462 -0.965135 -1.035696 29 35 42 7 4
-0.592053 -0.965767 -1.057586 35 40 46 7 4
-0.575008 -0.963071 -1.019116 41 44 45 7 4
-0.584496 -0.972168 -1.044351 37 42 49 7 4
-0.624636 -0.754623 -1.225033 42 47 55 2 2
-0.616070 -0.753987 -1.225720 60 66 77 2 2
-0.609204 -0.752380 -1.227101 42 46 53 2 2
-0.613173 -0.754344 -1.220084 32 35 41 2 2
-0.607367 -0.751778 -1.219138 34 39 43 2 2
-0.611530 -0.748297 -1.214176 31 35 41 2 2
-0.620447 -0.725083 -1.221561 34 38 44 2 2
-0.612038 -0.734798 -1.219407 45 51 60 2 2
-0.621187 -0.738545 -1.220166 37 41 48 2 2
-0.610585 -0.719855 -1.223430 47 54 63 2 2
-0.507852 -0.434004 -1.222782 14 15 18 2 2
-0.498997 -0.415378 -1.221995 14 16 18 2 2
-0.478194 -0.793170 -1.222243 43 44 52 2 2
-0.501747 -0.770972 -1.222313 44 46 55 2 2
-0.477687 -0.758428 -1.220941 56 55 67 2 2
-0.160748 -1.125737 -1.235498 21 24 24 2 2
-0.188823 -1.140557 -1.236179 23 25 26 2 2
-0.407821 -0.969945 -1.230029 24 25 27 2 2
-0.869622 -1.233651 -1.224689 109 113 123 2 2
-0.841913 -1.213939 -1.225035 103 107 117 2 2
-0.859194 -1.220170 -1.225040 104 109 118 2 2
-0.666189 -0.615734 -1.222408 69 74 85 2 2
-0.679353 -0.611184 -1.220974 73 79 93 2 2
-0.671289 -0.603925 -1.218701 72 77 89 2 2
-0.683606 -0.619446 -1.220178 64 67 76 2 2
-0.664928 -0.629874 -1.221278 63 66 75 2 2
-0.699292 -0.623865 -1.225598 61 64 73 2 2
-0.070426 -0.434533 -0.961008 40 42 51 7 4
-0.070888 -0.421854 -0.947251 35 36 41 7 4
-0.297809 -0.932758 -1.230398 25 27 30 2 2
-0.301081 -0.949107 -1.231313 24 27 31 2 2
-0.069652 -0.415724 -0.955580 40 41 45 7 4
-0.078234 -0.451512 -0.958616 56 57 62 0 0
-0.069307 -0.438751 -0.948879 40 42 48 7 4
-0.074277 -0.449786 -0.958112 50 50 58 7 4
-0.157784 -0.994082 -1.235212 65 68 59 2 2
-0.181080 -0.991771 -1.230603 23 27 30 2 2
-0.906694 -1.198170 -1.223072 112 112 123 2 2
-0.917194 -1.178170 -1.223426 117 121 128 2 2
-0.534710 -0.900634 -1.191627 31 33 36 2 2
-0.529910 -0.910253 -1.168487 31 34 34 2 2
-0.520353 -0.913252 -1.162986 30 29 26 2 2
-0.512492 -0.908064 -1.199552 30 30 26 2 2
-0.529859 -0.907914 -1.179374 28 30 29 2 2
-0.518495 -0.912402 -1.184712 31 30 28 2 2
-0.512409 -0.915994 -1.173584 32 30 27 2 2
-0.538868 -0.909374 -1.183118 31 32 33 2 2
-0.813944 -0.866420 -1.224728 41 44 52 2 2
-0.565194 -1.360670 -1.236601 56 59 55 2 2
-0.580194 -1.331170 -1.235761 57 60 58 2 2
-0.559194 -1.344170 -1.236166 52 55 52 2 2
-0.491636 -0.911725 -1.187599 34 33 28 7 4
-0.505034 -0.911198 -1.182507 33 32 27 2 2
-0.507408 -0.916184 -1.159925 36 34 30 2 2
-0.494887 -0.913609 -1.165802 32 34 28 7 4
-0.495102 -0.900886 -1.188813 33 35 28 7 4
-0.499051 -0.902366 -1.182924 32 34 27 2 2
-0.079096 -1.358731 -1.239678 27 31 33 2 2
-0.071565 -1.342317 -1.239627 26 30 33 2 2
-0.845992 -1.187151 -1.224514 101 108 117 2 2
-0.545527 -0.978054 -1.226095 17 19 21 2 2
-0.032558 -0.869280 -1.232362 40 42 44 2 2
-0.683078 -0.424648 -1.231040 39 38 44 2 2
-0.692974 -0.425914 -1.230261 33 34 43 2 2
-0.680827 -0.406392 -1.231545 25 28 35 2 2
-0.279606 -0.678870 -1.221721 37 42 49 2 2
-0.273053 -0.694392 -1.223255 39 42 50 2 2
-0.257838 -0.682252 -1.223594 38 40 45 2 2
-0.281719 -0.664864 -1.220617 35 38 45 2 2
-0.251559 -0.658310 -1.219809 37 39 44 2 2
-0.236575 -0.615522 -1.221068 31 35 41 2 2
-0.240176 -0.600489 -1.222500 31 35 41 2 2
-0.238968 -0.628507 -1.223401 33 33 41 2 2
-0.627828 -1.024933 -1.227452 37 41 45 2 2
-0.932741 -0.442337 -1.222834 31 35 42 2 2
-0.848444 -0.768420 -1.222983 36 42 47 2 2
-0.854141 -0.794746 -1.223434 35 42 46 2 2
-0.827382 -0.786891 -1.223404 35 41 46 2 2
-0.543908 -0.429934 -1.221086 22 27 31 2 2
-0.032075 -1.189135 -1.237883 24 27 29 2 2
-0.028438 -1.173449 -1.238359 24 27 29 2 2
-0.041194 -1.206292 -1.237629 26 29 30 2 2
-0.545142 -1.284176 -1.236064 43 45 43 2 2
-0.905819 -0.870045 -1.223986 47 51 56 2 2
-0.582726 -0.689730 -1.219183 86 92 107 2 2
-0.576262 -0.676750 -1.220904 89 94 111 2 2
-0.345397 -0.433844 -1.217432 21 24 31 2 2
-0.371375 -0.441995 -1.218863 23 27 36 2 2
-0.367746 -0.420990 -1.218612 23 26 34 2 2
-0.345051 -0.638220 -1.219726 35 40 47 2 2
-0.318010 -0.644331 -1.219516 37 40 49 2 2
-0.343453 -0.650040 -1.218632 40 44 53 2 2
-0.177437 -0.722584 -1.225586 36 38 43 2 2
-0.159682 -0.901250 -1.223307 10 11 11 2 2
-0.133769 -0.889364 -1.222951 14 14 12 2 2
-0.142086 -0.878134 -1.223908 7 7 5 2 2
-0.150118 -0.863047 -1.223231 9 9 8 2 2
-0.427015 -0.949782 -1.227154 28 29 31 2 2
-0.439940 -0.984368 -1.230060 22 23 25 2 2
-0.067495 -1.178949 -1.236987 21 23 26 2 2
-0.092258 -1.155639 -1.236334 22 24 27 2 2
-0.949194 -0.544170 -1.223656 32 39 46 2 2
-0.960620 -0.708479 -1.223519 42 48 56 2 2
-0.394933 -0.763046 -1.218074 45 45 53 2 2
-0.400504 -0.739155 -1.218470 48 49 58 2 2
-0.687526 -0.917713 -1.225434 33 38 46 2 2
-0.674427 -0.881490 -1.224353 33 37 45 2 2
-0.979380 -1.328893 -1.226348 78 84 100 2 2
-0.994196 -1.361848 -1.228262 51 54 62 2 2
-0.961386 -1.346887 -1.227255 74 80 94 2 2
-0.141529 -0.434130 -0.835193 23 24 32 0 0
-0.153584 -0.429996 -0.818264 22 25 32 0 0
-0.419272 -0.865254 -1.224260 35 37 43 2 2
-0.438974 -0.868352 -1.223517 36 37 43 2 2
-0.001971 -0.949452 -0.831647 19 21 23 0 0
-0.017166 -0.937050 -0.827731 92 94 93 0 0
-0.010220 -0.945805 -0.834996 25 27 26 5 7
-0.024250 -0.934384 -0.837041 22 24 23 5 7
-0.526405 -0.966696 -0.997823 36 40 47 7 4
-0.520886 -0.965087 -0.985208 32 33 38 7 4
-0.535941 -0.962923 -0.976001 33 39 44 7 4
-0.525748 -0.956556 -0.964391 31 33 38 7 4
-0.050019 -0.904917 -0.826091 101 103 102 5 7
-0.043407 -0.915824 -0.831381 24 23 25 5 7
-0.048398 -0.912859 -0.835912 25 25 27 5 7
-0.056702 -0.916320 -0.841189 24 23 27 5 7
-0.307248 -0.806682 -1.219713 53 57 71 2 2
-0.296820 -0.801852 -1.221678 57 60 74 2 2
-0.313047 -0.816787 -1.223966 30 31 34 2 2
-0.296931 -0.814614 -1.228493 29 30 32 2 2
-0.014005 -0.927866 -1.235051 34 37 37 2 2
-0.062714 -1.081031 -1.235769 23 25 24 2 2
-0.045764 -1.097048 -1.237443 20 23 22 2 2
-0.063817 -1.112687 -1.236115 21 23 22 2 2
-0.086587 -1.111134 -1.235820 22 24 23 2 2
-0.850149 -1.371251 -1.227127 89 91 102 2 2
-0.849576 -1.393747 -1.228141 86 88 99 2 2
-0.814971 -1.408891 -1.230239 89 91 104 2 2
-0.536447 -0.906808 -0.944921 33 32 31 7 4
-0.520829 -0.905938 -0.944311 33 32 28 7 4
-0.434383 -1.236633 -1.224277 24 27 27 2 2
-0.791194 -1.250170 -1.227308 96 99 106 2 2
-0.766893 -1.359201 -1.227759 85 87 97 2 2
-0.105744 -0.430890 -1.031176 34 37 43 0 0
-0.104691 -0.431534 -1.056773 34 37 42 0 0
-0.122207 -0.424503 -1.045506 34 35 42 0 0
-0.090378 -0.435543 -1.049647 32 34 39 0 0
-0.112853 -0.426863 -1.037366 40 42 49 0 0
-0.694165 -1.255544 -1.230162 61 64 62 2 2
-0.938140 -0.866903 -1.225887 53 58 62 2 2
-0.529797 -0.958583 -1.221865 17 19 16 2 2
-0.566309 -0.964149 -1.216082 34 34 31 2 2
-0.546142 -0.964836 -1.221142 30 32 31 2 2
-0.553433 -0.953519 -1.202827 37 36 32 2 2
-0.553328 -0.960205 -1.211970 31 31 29 2 2
-0.141450 -1.056133 -1.235258 17 19 17 2 2
-0.136371 -1.031345 -1.233666 17 19 17 2 2
-0.148423 -1.025900 -1.233690 16 18 17 2 2
-0.137821 -1.007312 -1.235063 16 17 16 2 2
-0.353762 -0.473373 -1.219343 27 32 42 2 2
-0.258776 -0.520423 -1.223331 27 28 33 2 2
-0.235734 -0.530682 -1.223427 26 29 35 2 2
-0.527375 -0.911907 -1.017408 31 30 32 0 0
-0.512352 -0.909709 -1.036976 32 33 28 0 0
-0.133373 -0.436151 -0.825494 23 25 33 0 0
-0.819398 -1.289044 -1.227576 102 101 115 2 2
-0.834912 -1.311220 -1.227625 108 108 119 2 2
-0.980194 -0.721169 -1.224780 41 47 54 2 2
-0.757065 -0.574723 -1.225085 27 32 39 2 2
-0.335686 -0.729107 -1.220330 66 71 83 2 2
-0.381598 -0.741675 -1.215690 77 81 98 2 2
-0.355831 -0.735845 -1.217375 86 90 111 2 2
-0.367975 -0.752962 -1.217138 74 78 95 2 2
-0.595334 -0.919420 -1.077210 43 45 48 0 0
-0.599251 -0.917385 -1.046929 40 42 47 0 0
-0.567872 -0.916920 -1.034539 35 34 32 0 0
-0.591654 -0.913389 -1.038631 43 43 47 0 0
-0.467569 -1.054295 -1.230626 21 25 28 2 2
-0.262172 -0.568295 -1.221877 30 33 39 2 2
-0.223756 -0.563375 -1.223047 31 34 39 2 2
-0.236569 -0.555001 -1.224689 28 32 38 2 2
-0.212337 -0.547765 -1.222057 31 36 40 2 2
-0.828531 -0.704269 -1.222709 32 36 46 2 2
-0.705581 -1.110282 -1.225440 47 49 50 2 2
-0.009090 -1.162382 -1.237648 26 29 28 2 2
-0.845316 -0.435136 -1.220975 24 28 33 2 2
-0.849998 -0.840171 -1.224155 41 43 49 2 2
-0.994819 -0.954795 -1.224156 73 79 85 2 2
-0.972974 -0.945977 -1.222709 67 73 77 2 2
-0.557218 -0.877163 -1.208559 35 36 42 2 2
-0.574902 -0.869844 -1.199645 35 36 36 2 2
-0.557097 -0.860097 -1.208703 29 32 37 2 2
-0.544315 -0.868734 -1.214239 29 32 35 2 2
-0.547157 -0.879978 -1.209164 33 33 37 2 2
-0.422774 -0.696081 -1.217476 67 70 79 2 2
-0.427344 -0.717954 -1.219274 62 64 76 2 2
-0.413883 -0.720750 -1.218092 63 66 76 2 2
-0.401661 -0.562203 -1.221323 30 35 43 2 2
-0.388835 -0.547697 -1.220059 28 32 39 2 2
-0.613401 -0.898901 -0.969835 46 48 52 7 4
-0.220241 -1.271862 -1.234948 19 22 25 2 2
-0.221981 -1.246194 -1.236382 19 20 23 2 2
-0.449036 -1.110763 -1.232582 26 30 33 2 2
-0.742754 -0.495421 -1.224061 24 28 34 2 2
-0.742144 -0.501663 -1.222743 26 30 37 2 2
-0.753188 -0.504841 -1.224681 25 28 32 2 2
-0.688663 -1.096118 -1.226532 46 49 49 2 2
-0.682827 -1.078940 -1.226265 43 49 49 2 2
-0.472791 -0.426936 -1.223135 20 23 30 2 2
-0.476134 -0.413183 -1.221901 17 19 24 2 2
-0.444797 -0.421849 -1.219906 17 23 31 2 2
-0.503158 -0.949722 -0.937313 31 32 32 7 4
-0.507757 -0.948945 -0.927116 31 31 29 7 4
-0.517123 -0.950093 -0.918168 32 32 30 7 4
-0.192647 -0.829590 -1.229465 46 51 56 2 2
-0.163641 -0.406758 -0.937606 21 24 29 7 4
-0.155368 -0.423626 -0.914673 23 23 30 0 0
-0.199276 -1.250170 -1.234698 20 22 26 2 2
-0.903069 -0.787357 -1.223883 41 45 50 2 2
-0.591996 -0.762789 -1.219826 63 69 90 2 2
-0.598988 -0.750347 -1.221892 40 42 49 2 2
-0.598271 -0.780569 -1.217649 37 39 43 2 2
-0.601322 -0.767844 -1.213210 38 41 46 2 2
-0.482944 -1.227544 -1.234780 38 39 40 2 2
-0.499273 -1.258337 -1.235106 39 39 40 2 2
-0.516901 -1.240229 -1.234945 42 42 44 2 2
-0.691427 -0.823385 -1.224286 32 38 44 2 2
-0.666561 -0.835585 -1.221344 32 36 43 2 2
-0.678426 -0.816264 -1.223287 31 36 44 2 2
-0.690999 -0.809080 -1.225415 30 34 43 2 2
-0.381774 -0.584112 -1.221712 33 37 45 2 2
-0.416504 -0.596103 -1.217888 35 39 47 2 2
-0.399940 -0.574220 -1.220868 33 37 46 2 2
-0.385502 -0.568387 -1.222383 30 35 42 2 2
-0.783324 -1.008152 -1.226648 49 56 55 2 2
-0.770412 -1.003924 -1.226655 47 50 52 2 2
-0.601943 -1.331781 -1.234775 62 65 62 2 2
-0.606017 -1.344408 -1.235742 60 67 64 2 2
-0.617803 -1.312471 -1.233419 58 64 61 2 2
-0.636599 -1.329576 -1.233987 63 67 65 2 2
-0.113997 -0.415304 -1.144366 45 48 59 0 0
-0.094643 -0.416411 -1.131764 44 45 56 0 0
-0.089766 -0.414496 -1.153727 43 44 54 0 0
-0.131917 -0.413339 -1.163252 42 46 58 0 0
-0.105858 -0.418406 -1.131554 43 48 59 0 0
-0.495601 -0.910409 -1.019589 31 31 27 0 0
-0.494564 -0.910243 -1.002030 29 29 25 0 0
-0.496610 -0.909560 -1.035497 29 30 29 0 0
-0.504249 -0.907687 -1.019851 33 33 29 0 0
-0.618480 -0.841956 -1.220893 36 41 48 2 2
-0.602263 -0.846774 -1.219395 37 44 53 2 2
-0.637589 -0.820613 -1.219024 42 46 54 2 2
-0.607748 -0.825913 -1.220388 44 50 61 2 2
-0.629620 -0.845970 -1.211053 38 41 45 2 2
-0.605372 -0.881897 -0.986170 48 50 48 0 0
-0.613959 -0.885541 -0.998785 54 58 66 0 0
-0.751712 -0.741670 -1.225355 35 39 46 2 2
-0.562528 -0.971730 -1.222982 32 35 40 2 2
-0.595703 -0.972269 -1.225433 33 37 44 2 2
-0.580181 -0.966681 -1.221616 34 40 44 2 2
-0.589070 -0.957948 -1.217536 33 37 42 2 2
-0.576980 -0.958683 -1.209119 34 36 41 2 2
-0.498567 -0.587835 -1.216957 83 87 106 2 2
-0.468676 -0.576165 -1.218394 51 56 68 2 2
-0.524082 -0.914674 -1.152111 28 29 27 2 2
-0.596033 -0.926942 -1.107718 38 41 46 0 0
-0.589218 -0.920967 -1.103370 38 40 44 0 0
-0.577804 -0.949557 -1.123174 42 42 45 2 2
-0.591074 -0.919513 -1.125055 40 41 41 0 0
-0.589798 -0.948578 -1.102339 35 37 43 7 4
-0.596812 -0.937162 -1.103678 42 44 48 7 4
-0.597879 -0.926505 -1.122876 37 38 43 0 0
-0.571114 -0.920859 -1.108629 39 39 36 0 0
-0.098415 -0.840595 -1.225657 17 19 16 2 2
-0.054194 -0.855170 -1.231707 40 41 45 2 2
-0.410296 -1.232724 -1.237330 29 29 31 2 2
-0.397186 -1.222368 -1.238273 25 26 26 2 2
-0.967156 -1.148985 -1.223699 113 114 123 2 2
-0.940017 -1.150321 -1.224751 106 109 118 2 2
-0.946379 -0.645181 -1.222682 37 41 51 2 2
-0.484590 -0.942281 -1.007591 31 32 30 0 0
-0.483996 -0.935199 -1.006947 30 31 30 0 0
-0.482836 -0.940805 -1.021974 29 30 33 0 0
-0.484922 -0.928698 -1.022436 30 30 30 0 0
-0.482974 -0.947316 -1.034419 34 34 33 7 4
-0.096845 -0.807629 -1.226574 12 11 11 2 2
-0.067535 -0.802878 -1.227716 12 12 11 2 2
-0.083515 -0.802894 -1.226130 9 9 8 2 2
-0.078179 -0.823962 -1.227367 11 11 9 2 2
-0.400714 -0.674141 -1.218540 66 70 82 2 2
-0.418917 -0.668585 -1.217953 58 65 77 2 2
-0.817211 -0.482495 -1.220732 25 29 34 2 2
-0.793839 -0.488028 -1.221429 25 29 34 2 2
-0.405465 -1.098799 -1.233048 24 27 30 2 2
-0.388564 -1.117984 -1.232709 23 25 29 2 2
-0.382101 -1.085599 -1.233240 23 26 29 2 2
-0.957522 -1.308495 -1.226793 90 91 105 2 2
-0.649804 -0.799225 -1.184717 33 35 40 2 2
-0.318192 -0.416270 -1.213064 14 17 22 2 2
-0.332098 -0.414219 -1.213282 13 16 19 2 2
-0.500621 -0.900895 -0.884733 37 39 39 7 4
-0.505919 -0.889615 -0.889565 40 42 43 7 4
-0.272284 -0.875272 -1.227565 27 28 31 2 2
-0.266905 -0.862543 -1.227609 28 31 34 2 2
-0.494684 -0.927810 -0.867248 33 35 34 7 4
-0.498567 -0.935438 -0.855631 32 33 34 7 4
-0.506560 -0.947582 -0.868297 34 33 30 7 4
-0.494539 -0.925795 -0.842188 32 34 32 7 4
-0.103735 -1.330589 -1.238855 26 28 32 2 2
-0.121292 -1.324410 -1.238209 25 27 31 2 2
-0.270222 -1.037723 -1.225837 19 20 22 2 2
-0.264478 -1.024330 -1.227253 20 21 23 2 2
-0.281688 -1.012459 -1.230979 19 20 23 2 2
-0.301992 -0.632769 -1.221565 35 36 43 2 2
-0.297676 -0.655655 -1.219992 35 40 47 2 2
-0.215845 -1.388538 -1.236854 24 27 29 2 2
-0.214841 -1.361791 -1.235953 25 27 29 2 2
-0.189682 -1.385291 -1.236039 25 27 30 2 2
-0.462388 -0.837725 -1.221300 40 42 52 2 2
-0.561694 -1.068170 -1.229257 38 40 45 2 2
-0.579694 -1.050107 -1.227544 38 41 43 2 2
-0.007937 -1.326259 -1.240273 29 30 34 2 2
-0.023466 -1.294083 -1.238798 30 33 36 2 2
-0.114030 -1.214456 -1.237057 20 23 25 2 2
-0.097776 -1.226896 -1.236335 20 22 25 2 2
-0.585471 -1.217692 -1.231479 47 51 49 2 2
-0.626029 -0.610807 -1.224359 71 75 89 2 2
-0.630638 -0.595849 -1.218635 69 76 89 2 2
-0.624752 -0.593627 -1.221872 69 77 91 2 2
-0.613497 -0.633767 -1.219193 72 75 85 2 2
-0.621452 -0.617995 -1.219320 72 75 85 2 2
-0.608514 -0.613531 -1.217500 70 78 94 2 2
-0.631262 -0.625546 -1.214857 77 83 97 2 2
-0.119729 -0.423162 -1.071303 45 47 57 0 0
-0.143115 -0.408661 -1.068694 46 49 59 0 0
-0.134950 -0.418448 -1.077619 41 44 52 0 0
-0.618194 -1.166170 -1.229549 46 49 48 2 2
-0.571460 -0.908797 -0.974653 30 32 33 0 0
-0.545384 -0.909956 -0.990104 31 32 35 0 0
-0.528572 -0.910754 -1.005518 33 34 39 0 0
-0.562371 -0.909984 -0.994741 33 34 35 0 0
-0.278502 -0.762546 -1.223205 67 71 83 2 2
-0.596333 -1.028405 -1.227109 32 38 42 2 2
-0.580500 -1.019506 -1.226912 35 38 43 2 2
-0.960814 -1.287247 -1.225683 105 106 124 2 2
-0.982502 -1.293098 -1.226700 91 92 109 2 2
-0.465370 -1.267032 -1.236860 39 40 39 2 2
-0.490938 -0.974618 -1.225683 26 27 22 2 2
-0.499689 -0.956945 -1.204879 28 28 26 2 2
-0.490726 -0.961133 -1.216570 33 34 27 2 2
-0.505166 -0.955448 -1.201618 28 28 25 2 2
-0.480354 -0.957655 -1.220906 32 32 24 2 2
-0.490856 -0.951903 -1.204438 31 31 26 7 4
-0.177495 -1.300467 -1.236400 22 25 28 2 2
-0.193151 -0.779325 -1.229366 49 51 59 2 2
-0.214928 -0.781586 -1.229239 57 61 72 2 2
-0.200934 -0.780829 -1.227932 54 55 66 2 2
-0.200006 -0.773120 -1.229472 52 55 65 2 2
-0.211052 -0.758110 -1.231619 52 54 65 2 2
-0.834739 -0.472008 -1.222303 26 30 35 2 2
-0.850656 -0.478201 -1.221399 26 30 33 2 2
-0.836594 -0.493976 -1.222109 27 31 35 2 2
-0.428235 -0.889190 -1.226711 30 34 38 2 2
-0.321289 -1.408610 -1.231649 19 24 28 2 2
-0.335025 -1.382809 -1.230198 167 178 230 2 2
-0.342365 -1.390071 -1.232513 20 22 21 2 2
-0.315247 -0.462197 -1.214794 22 26 33 2 2
-0.319385 -0.431332 -1.213805 22 24 31 2 2
-0.327303 -0.444751 -1.218506 20 23 30 2 2
-0.343567 -0.443288 -1.218785 22 25 32 2 2
-0.172900 -1.148653 -1.236924 21 23 25 2 2
-0.710194 -0.922795 -1.225236 36 39 45 2 2
-0.725973 -1.036488 -1.225591 47 49 50 2 2
-0.761864 -1.028350 -1.225788 47 52 51 2 2
-0.740881 -0.994357 -1.225528 42 47 49 2 2
-0.709036 -0.893050 -1.225009 38 41 49 2 2
-0.455817 -0.906324 -1.227263 33 34 38 2 2
-0.463834 -0.898305 -1.226776 33 34 39 2 2
-0.192491 -0.427269 -1.215118 48 51 61 2 2
-0.779853 -0.778063 -1.222833 34 40 47 2 2
-0.718035 -1.233637 -1.229406 65 67 67 2 2
-0.429341 -0.742667 -1.220202 54 56 68 2 2
-0.414395 -0.741988 -1.220966 59 61 72 2 2
-0.412950 -0.756041 -1.220775 50 52 64 2 2
-0.437453 -0.945922 -0.954758 51 52 58 0 0
-0.446274 -0.949856 -0.934914 82 85 89 0 0
-0.431658 -0.945657 -0.948096 45 47 51 0 0
-0.520617 -0.880127 -0.871739 31 33 29 7 4
-0.509517 -0.887301 -0.865565 34 36 34 7 4
-0.528434 -0.871971 -0.863863 31 32 28 7 4
-0.520302 -0.877795 -0.861264 32 32 28 7 4
-0.525154 -0.873363 -0.839584 32 33 29 7 4
-0.566199 -0.949360 -0.842060 49 48 45 7 4
-0.600167 -0.954651 -0.822343 46 48 54 7 4
-0.587658 -0.954947 -0.828070 45 45 42 7 4
-0.588879 -0.954278 -0.814474 62 63 63 7 4
-0.594161 -0.953762 -0.859108 44 45 49 7 4
-0.603054 -0.956836 -0.836720 34 37 42 7 4
-0.027444 -0.830045 -1.233027 43 44 50 2 2
-0.019403 -0.792908 -1.233767 39 41 46 2 2
-0.580270 -0.953135 -0.925112 42 44 41 7 4
-0.601754 -0.958193 -0.912098 27 31 36 7 4
-0.600930 -0.958199 -0.932704 34 36 40 7 4
-0.606099 -0.949434 -0.930776 29 31 36 7 4
-0.589499 -0.956080 -0.919374 48 50 52 7 4
-0.576807 -0.951002 -0.916358 46 47 45 7 4
-0.597804 -0.963124 -0.908496 29 31 36 7 4
-0.590973 -0.955817 -0.937964 47 47 48 7 4
-0.575862 -0.580906 -1.220436 21 22 26 2 2
-0.586911 -0.591545 -1.222061 25 26 26 2 2
-0.601574 -0.582962 -1.218968 44 48 55 2 2
