ply
format ascii 1.0
element vertex 1110
property float x
property float y
property float z
property uchar red
property uchar green
property uchar blue
property uchar semantic_label
property uchar instance_label
end_header
-0.117386 -0.429445 -0.489534 28 32 43 5 2
-0.117278 -0.457168 -0.459704 26 29 42 5 2
-0.109453 -0.438898 -0.469734 27 31 43 5 2
-0.131427 -0.459541 -0.486594 27 31 41 5 2
-0.122244 -0.443533 -0.479586 27 31 43 5 2
-0.503930 -0.344548 -0.818430 57 48 47 2 3
-0.147861 -0.147436 -0.386874 24 29 42 5 2
-0.156872 -0.115448 -0.387811 24 28 40 5 2
-0.180924 -0.115792 -0.387245 25 29 42 5 2
-0.173714 -0.127207 -0.387049 23 28 40 5 2
-0.171240 -0.151177 -0.387160 25 28 42 5 2
0.067335 -0.133996 -0.559663 65 51 35 14 1
0.065756 -0.135517 -0.578502 44 36 28 14 1
-0.099586 -0.440535 -0.754850 23 28 42 2 3
0.385276 -0.204812 -0.531769 175 137 102 14 1
0.374581 -0.205677 -0.561269 169 134 101 14 1
0.356735 -0.203684 -0.530268 171 140 101 14 1
0.150902 -0.203083 -0.513768 161 124 98 14 1
0.136809 -0.202086 -0.501269 156 121 95 14 1
0.169996 -0.203517 -0.502572 162 127 101 14 1
-0.067886 0.025043 -0.813420 28 28 29 2 3
-0.049388 0.014324 -0.812748 32 31 36 2 3
-0.038934 0.028680 -0.811781 32 30 34 2 3
-0.060383 -0.159207 -0.770892 23 23 25 5 2
-0.078318 -0.164916 -0.767986 20 22 23 5 2
-0.068757 -0.154803 -0.758377 21 22 23 5 2
-0.072709 -0.143789 -0.766882 21 23 24 5 2
-0.063139 -0.149960 -0.779103 30 32 36 5 2
-0.057865 -0.136907 -0.766797 23 23 25 5 2
-0.075198 -0.153757 -0.776496 27 30 35 5 2
-0.203273 -0.494607 -0.817591 102 79 81 2 3
-0.194849 -0.471705 -0.817684 96 76 74 2 3
0.155908 -0.209984 -0.656519 148 119 97 14 1
-0.010109 -0.498640 -0.819205 99 72 72 2 3
-0.220626 -0.280920 -0.392644 25 31 48 5 2
-0.208195 -0.266206 -0.396887 28 36 49 5 2
-0.193076 -0.286254 -0.395603 26 32 46 5 2
-0.202463 -0.258438 -0.394136 29 34 49 5 2
-0.060342 -0.299250 -0.454835 18 18 19 5 2
-0.053598 -0.295085 -0.451011 18 19 20 5 2
-0.219889 -0.501352 -0.457828 33 38 48 5 2
-0.201371 -0.506267 -0.441513 28 36 43 5 2
-0.214344 -0.495783 -0.437497 27 33 41 5 2
-0.202060 0.156350 -0.814125 31 28 33 2 3
-0.105158 -0.037840 -0.816977 28 26 30 2 3
-0.609248 -0.228981 -0.814776 48 39 40 2 3
-0.620505 -0.214412 -0.812277 42 39 46 2 3
-0.604600 -0.216308 -0.811634 38 35 40 2 3
-0.079081 -0.431468 -0.776269 31 32 36 5 2
-0.070487 -0.438742 -0.777337 29 31 38 5 2
-0.083339 -0.435956 -0.775456 31 34 37 2 3
-0.060129 -0.445269 -0.761715 30 33 37 5 2
-0.076563 -0.432306 -0.757143 24 23 27 5 2
-0.246539 -0.130053 -0.822954 16 18 19 0 0
-0.251029 -0.119060 -0.829431 19 22 30 2 3
-0.239309 -0.117392 -0.827311 20 21 30 0 0
-0.232052 -0.120555 -0.827997 19 19 27 0 0
-0.185794 0.008545 -0.816055 29 24 31 2 3
-0.184660 -0.028545 -0.815393 27 25 31 2 3
-0.169160 -0.032731 -0.815159 29 25 32 2 3
-0.164209 -0.067864 -0.394957 21 26 37 5 2
-0.173835 -0.067795 -0.392942 21 26 37 5 2
-0.152616 -0.086103 -0.392137 22 26 38 5 2
-0.158550 -0.054798 -0.397642 22 26 38 5 2
-0.178924 0.361044 -0.797643 20 17 16 2 3
-0.202869 0.371934 -0.804350 22 17 14 2 3
-0.189670 0.364716 -0.804241 19 17 15 2 3
-0.192983 0.367558 -0.798451 23 16 14 2 3
-0.216260 0.011119 -0.814396 28 24 33 2 3
0.036165 -0.003120 -0.813760 26 26 23 2 3
-0.095455 -0.223761 -0.743151 25 26 37 5 2
-0.092452 -0.207152 -0.726991 21 21 30 5 2
-0.104462 -0.200529 -0.733794 17 20 29 5 2
-0.096208 -0.200638 -0.760917 24 25 34 5 2
-0.097434 -0.220458 -0.720686 21 22 32 5 2
0.019211 -0.130055 -0.813996 36 26 32 2 3
-0.019357 -0.029002 -0.812995 36 30 33 2 3
0.002463 -0.040407 -0.813991 39 34 36 2 3
-0.020140 -0.185267 -0.799296 27 27 36 2 3
-0.014262 -0.194706 -0.802226 27 30 38 2 3
-0.319295 -0.484172 -0.418127 38 48 73 5 2
-0.310322 -0.499634 -0.399996 38 45 65 5 2
-0.311269 -0.505760 -0.391190 38 44 65 5 2
-0.310054 -0.504875 -0.413067 35 39 54 5 2
-0.315162 -0.475465 -0.418932 27 39 57 5 2
-0.317879 -0.478736 -0.409162 31 40 53 5 2
-0.309437 -0.494654 -0.430571 27 39 58 5 2
-0.187199 -0.383830 -0.717305 27 29 33 5 2
-0.197805 -0.384728 -0.714330 27 28 36 5 2
-0.194113 -0.374277 -0.702606 24 28 36 5 2
-0.191650 -0.384661 -0.710869 24 28 35 5 2
-0.210573 -0.362154 -0.692566 24 27 38 5 2
-0.175738 -0.381382 -0.709254 24 26 35 5 2
-0.346676 -0.456006 -0.761566 24 30 33 5 2
-0.340427 -0.427903 -0.763581 23 26 29 5 2
-0.327239 -0.435378 -0.765689 28 28 34 5 2
-0.342827 -0.447321 -0.752754 28 30 32 5 2
-0.336870 -0.440523 -0.762067 28 30 32 5 2
-0.342862 -0.453215 -0.770065 26 30 36 5 2
-0.314854 -0.443733 -0.760763 43 37 40 5 2
-0.334353 -0.457805 -0.767238 31 31 37 5 2
-0.334902 -0.438425 -0.768331 22 24 28 5 2
0.494517 -0.141477 -0.773537 110 71 49 14 1
0.072757 -0.125685 -0.524113 50 36 29 14 1
0.074971 -0.132276 -0.529816 141 114 80 14 1
0.073637 -0.126419 -0.503555 35 29 25 14 1
0.246818 -0.197738 -0.389144 181 146 110 14 1
0.490650 -0.027978 -0.571222 109 67 49 14 1
0.489378 -0.024662 -0.543269 110 68 49 14 1
0.224208 -0.199066 -0.411269 171 139 112 14 1
0.332548 -0.207182 -0.571303 175 143 114 14 1
0.338980 -0.205137 -0.552417 171 139 107 14 1
-0.275640 -0.064859 -0.758386 8 8 9 2 3
-0.259250 -0.070098 -0.770235 14 15 17 2 3
-0.265227 -0.066787 -0.755019 8 8 9 2 3
-0.116280 -0.388442 -0.486528 14 15 15 5 2
-0.105727 -0.380952 -0.477728 22 24 32 5 2
-0.110243 -0.388686 -0.489672 27 28 33 5 2
-0.123324 -0.382765 -0.488594 14 15 15 5 2
-0.115910 -0.373289 -0.487410 10 10 10 5 2
0.497359 0.036823 -0.700110 102 65 48 14 1
-0.412553 -0.063837 -0.404499 22 27 39 5 2
-0.418808 -0.055120 -0.411282 19 24 31 5 2
-0.065487 -0.064991 -0.391712 21 25 34 5 2
-0.096444 -0.060190 -0.393753 21 25 34 5 2
0.308912 -0.255961 -0.818155 97 63 49 2 3
0.320536 -0.276602 -0.817962 107 74 56 2 3
-0.136726 0.259609 -0.804421 22 21 21 2 3
-0.140409 0.223454 -0.811791 30 29 33 2 3
-0.149999 0.247438 -0.810445 30 28 33 2 3
-0.322035 -0.419321 -0.766002 31 30 36 5 2
-0.321491 -0.405771 -0.765997 31 33 40 5 2
-0.313194 -0.428115 -0.761964 28 28 34 5 2
-0.306384 -0.418425 -0.758851 28 28 39 5 2
-0.102976 -0.108907 -0.531271 17 20 24 5 2
-0.030471 -0.259652 -0.440064 25 25 35 5 2
-0.042204 -0.243068 -0.443927 22 23 31 5 2
-0.024341 -0.224270 -0.438448 31 29 36 5 2
-0.044621 -0.215883 -0.445368 17 16 18 5 2
-0.040163 -0.229777 -0.442002 21 20 25 5 2
-0.273111 -0.502771 -0.530940 30 29 31 5 2
-0.293216 -0.490922 -0.535510 25 25 29 5 2
-0.285079 -0.488308 -0.543630 30 28 31 5 2
0.195196 -0.170414 -0.796907 98 74 65 14 1
0.151761 -0.171103 -0.806284 103 79 68 14 1
0.169939 -0.175310 -0.812198 68 44 40 2 3
0.176155 -0.188174 -0.815924 69 46 41 2 3
0.106943 -0.208272 -0.555618 110 82 66 14 1
0.117597 -0.208186 -0.589738 145 113 93 14 1
0.133483 -0.207185 -0.601268 150 115 91 14 1
0.101595 -0.210922 -0.590286 74 57 47 14 1
0.114091 -0.205766 -0.562085 143 108 90 14 1
0.121232 -0.205184 -0.568704 149 114 92 14 1
0.106309 -0.211092 -0.579316 80 61 52 14 1
-0.170429 -0.325229 -0.819298 59 46 44 2 3
-0.164456 -0.306474 -0.818121 55 44 43 2 3
0.431707 -0.210141 -0.717166 163 129 92 14 1
0.472935 -0.203500 -0.571781 166 125 88 14 1
-0.271938 -0.338782 -0.817655 35 34 45 2 3
-0.057634 -0.126198 -0.777281 21 22 23 5 2
-0.042618 -0.113811 -0.782289 23 26 28 5 2
-0.049894 -0.138423 -0.761676 20 22 22 5 2
0.440027 -0.194431 -0.749824 150 117 85 14 1
0.466362 -0.198229 -0.744672 142 109 74 14 1
0.443239 -0.204204 -0.732652 152 118 83 14 1
0.448670 -0.207915 -0.721701 162 126 90 14 1
-0.343720 0.109239 -0.811295 27 26 32 2 3
-0.349293 0.108572 -0.807887 28 28 32 2 3
-0.341815 0.098998 -0.804944 25 24 30 2 3
-0.343109 0.091327 -0.803374 25 23 29 2 3
-0.129237 -0.260114 -0.818621 43 31 37 2 3
-0.110411 -0.256094 -0.817452 48 35 39 2 3
-0.091221 -0.250316 -0.817645 45 34 36 2 3
-0.113903 -0.229812 -0.816737 38 30 32 2 3
-0.138914 0.158275 -0.810582 31 30 35 2 3
-0.152814 0.129494 -0.812504 29 29 32 2 3
-0.160127 0.150842 -0.812391 31 29 34 2 3
-0.088282 -0.420578 -0.753853 21 23 30 5 2
-0.095492 -0.431147 -0.765968 25 24 27 2 3
-0.108799 -0.418109 -0.761586 15 20 26 2 3
-0.100211 -0.412688 -0.760541 21 23 30 5 2
-0.107688 -0.429107 -0.758516 21 27 39 2 3
-0.101900 -0.439452 -0.749867 24 26 42 2 3
-0.110948 -0.428642 -0.749064 21 27 42 5 2
-0.098510 -0.427809 -0.761573 24 26 34 2 3
-0.486916 -0.296276 -0.811770 49 39 41 2 3
-0.463335 -0.288884 -0.785723 24 25 31 2 3
-0.237890 -0.125243 -0.389508 23 31 44 5 2
-0.248237 -0.144876 -0.391854 23 29 43 5 2
-0.236148 -0.148245 -0.393781 24 30 43 5 2
0.097249 -0.204690 -0.450517 64 54 45 14 1
0.098649 -0.203724 -0.480127 71 55 47 14 1
0.102259 -0.205192 -0.489403 102 81 75 14 1
0.082164 -0.186273 -0.459689 115 95 85 14 1
0.092894 -0.197405 -0.482349 70 55 47 14 1
0.466174 -0.205966 -0.571487 165 126 89 14 1
0.470842 -0.203180 -0.546472 179 138 99 14 1
-0.050387 -0.388550 -0.816822 64 43 38 2 3
-0.026553 -0.361801 -0.817506 61 39 39 2 3
-0.033857 -0.379127 -0.817007 67 46 43 2 3
-0.302125 -0.078016 -0.389862 23 27 39 5 2
-0.311512 -0.064040 -0.396721 26 28 39 5 2
-0.301751 -0.063679 -0.395505 24 29 41 5 2
-0.316271 -0.070429 -0.392462 24 29 35 5 2
0.120866 -0.210213 -0.618888 141 107 84 14 1
0.123168 -0.211802 -0.655230 135 104 84 14 1
0.128445 -0.209572 -0.644718 140 108 87 14 1
0.106450 -0.213832 -0.633559 57 43 38 14 1
0.113712 -0.216618 -0.642172 95 71 55 14 1
0.245743 -0.202624 -0.502424 169 137 113 14 1
-0.194018 -0.391365 -0.816904 56 50 56 2 3
-0.173614 -0.393315 -0.815116 40 38 48 2 3
-0.207027 -0.372445 -0.815352 38 40 49 2 3
-0.188922 -0.379984 -0.816110 27 32 39 2 3
-0.162093 -0.532024 -0.431955 36 40 50 5 2
-0.161607 -0.523792 -0.409141 32 37 47 5 2
-0.156159 -0.522214 -0.411184 37 42 52 5 2
-0.153197 -0.522964 -0.426856 32 40 49 5 2
-0.166127 -0.518855 -0.399571 29 31 40 5 2
0.358141 -0.204961 -0.558268 167 134 106 14 1
0.406295 -0.205453 -0.571268 168 132 96 14 1
-0.161551 -0.445412 -0.818929 107 86 80 2 3
-0.174801 -0.462872 -0.817607 109 84 80 2 3
0.527860 -0.013442 -0.815888 91 57 42 2 3
0.536583 -0.033725 -0.816081 89 55 44 2 3
-0.088099 -0.237684 -0.385989 24 31 48 5 2
-0.103461 -0.254415 -0.388226 23 32 42 5 2
-0.342703 -0.460318 -0.817412 89 74 68 2 3
-0.165804 -0.436513 -0.372410 29 33 40 5 2
0.051168 -0.190277 -0.816253 58 41 37 2 3
0.043215 -0.179830 -0.815468 61 43 40 2 3
0.082562 -0.189248 -0.815602 57 42 37 2 3
0.054564 -0.167975 -0.817056 57 40 37 2 3
-0.214760 -0.470599 -0.386196 29 36 43 5 2
-0.219683 -0.460072 -0.389952 25 31 36 5 2
-0.233300 -0.483004 -0.372380 21 25 33 5 2
-0.222370 -0.475176 -0.369954 26 32 40 5 2
-0.219794 -0.466517 -0.381106 27 32 38 5 2
0.514657 -0.009577 -0.815453 79 50 41 2 3
0.168355 -0.278456 -0.817769 101 66 53 2 3
-0.175038 -0.334007 -0.402536 26 32 42 5 2
-0.161121 -0.317696 -0.398753 27 33 43 5 2
0.231524 -0.423359 -0.820769 112 81 64 2 3
0.215487 -0.402969 -0.821250 113 81 67 2 3
-0.032586 -0.180305 -0.808696 37 28 36 2 3
-0.047427 -0.152386 -0.804920 25 23 33 2 3
-0.022279 -0.171008 -0.787852 20 23 30 2 3
-0.037424 -0.155464 -0.796967 22 24 32 2 3
-0.042545 -0.151446 -0.794784 24 26 33 5 2
-0.332054 -0.437776 -0.818971 83 63 63 2 3
-0.307940 -0.421983 -0.818585 75 58 59 2 3
-0.327291 -0.413090 -0.817988 92 77 75 2 3
-0.289222 -0.412016 -0.818247 86 69 69 2 3
-0.259799 -0.233805 -0.384458 28 33 46 5 2
-0.262442 -0.223671 -0.387878 33 36 49 5 2
-0.254120 -0.230335 -0.389988 29 37 48 5 2
-0.259631 -0.216847 -0.387130 26 34 46 5 2
-0.249518 -0.219483 -0.388949 27 34 47 5 2
-0.231952 -0.231171 -0.391252 26 35 45 5 2
-0.253272 -0.240280 -0.391221 29 36 51 5 2
0.356070 -0.208262 -0.651019 170 132 99 14 1
0.485981 -0.095258 -0.512848 112 72 46 14 1
-0.277046 -0.345852 -0.746383 20 25 25 5 2
-0.261759 -0.353770 -0.746113 23 27 28 5 2
-0.282766 -0.337712 -0.751980 17 21 21 0 0
-0.256034 -0.332334 -0.752760 16 17 19 5 2
-0.261547 -0.348191 -0.742441 22 25 27 5 2
-0.271314 -0.341272 -0.742485 19 21 26 5 2
-0.167220 0.202742 -0.811320 30 29 34 2 3
-0.186937 0.183259 -0.813125 30 29 34 2 3
-0.165198 0.182653 -0.811827 30 29 34 2 3
-0.014914 -0.283781 -0.413979 22 26 35 5 2
-0.022633 -0.257942 -0.395706 25 26 37 5 2
-0.027656 -0.285219 -0.400286 24 27 38 5 2
-0.030836 -0.305545 -0.403625 23 30 38 5 2
-0.132330 0.059192 -0.813495 30 26 31 2 3
-0.135305 0.087387 -0.813603 33 29 35 2 3
-0.128341 0.039025 -0.813567 29 23 32 2 3
0.485907 -0.011845 -0.445268 108 71 51 14 1
-0.157349 -0.176634 -0.385709 25 30 42 5 2
0.444356 -0.191648 -0.819099 103 71 54 2 3
0.444457 -0.217972 -0.820286 107 74 57 2 3
0.118292 -0.196195 -0.810203 79 55 44 2 3
-0.386658 0.153068 -0.815592 34 33 35 2 3
0.493372 -0.119115 -0.738705 106 68 50 14 1
-0.356973 -0.373576 -0.781722 24 25 27 2 3
-0.347497 -0.354016 -0.773315 22 23 25 2 3
-0.345406 -0.371173 -0.779468 22 25 26 0 0
-0.349142 -0.377252 -0.772479 23 25 24 5 2
-0.353488 -0.365663 -0.775343 24 25 23 2 3
-0.353446 -0.352776 -0.779586 24 25 24 2 3
0.066951 -0.130748 -0.545605 112 84 48 14 1
-0.111250 -0.426831 -0.725606 22 25 35 5 2
-0.088621 -0.430397 -0.727858 21 26 37 5 2
-0.106533 -0.405726 -0.758864 20 24 35 5 2
-0.097137 -0.441013 -0.736152 20 26 35 5 2
-0.091661 -0.423189 -0.732317 20 26 38 5 2
-0.098763 -0.412524 -0.740547 20 26 35 5 2
-0.108005 -0.434343 -0.731803 21 28 40 5 2
-0.097817 -0.431175 -0.727032 20 26 39 5 2
-0.099616 -0.424474 -0.725583 20 25 35 5 2
-0.115776 -0.424550 -0.716659 23 24 35 5 2
-0.104732 -0.410842 -0.727771 20 24 38 5 2
0.001806 -0.147981 -0.743048 19 20 30 5 2
0.006502 -0.156340 -0.737272 19 19 31 5 2
-0.003703 -0.166951 -0.726702 17 20 27 5 2
0.006527 -0.153648 -0.749417 18 20 31 5 2
-0.010961 -0.150645 -0.737505 21 21 29 5 2
0.010918 -0.162250 -0.746885 19 23 31 5 2
-0.142893 -0.381017 -0.813413 34 32 32 2 3
0.308112 -0.196305 -0.475949 186 152 123 14 1
0.294929 -0.196726 -0.476779 167 131 102 14 1
0.307051 -0.201826 -0.497770 196 164 139 14 1
0.320902 -0.201578 -0.499551 194 160 131 14 1
0.297943 -0.197483 -0.484855 191 161 137 14 1
0.318441 -0.196742 -0.485416 191 161 137 14 1
-0.007696 -0.249054 -0.417753 25 23 35 5 2
-0.002672 -0.237991 -0.412095 28 25 36 5 2
-0.016964 -0.267166 -0.403668 25 27 37 5 2
-0.011881 -0.268595 -0.420720 23 25 33 5 2
-0.007940 -0.258161 -0.411197 23 25 35 5 2
-0.016090 -0.259402 -0.429735 31 31 39 5 2
-0.010311 -0.246505 -0.424791 33 29 36 5 2
-0.365792 -0.509302 -0.385172 34 34 38 5 2
-0.373076 -0.496552 -0.373269 35 35 38 5 2
-0.346267 -0.526395 -0.379698 31 34 38 5 2
-0.372561 -0.503512 -0.393330 40 37 39 5 2
0.494596 -0.072698 -0.709019 105 69 49 14 1
0.494612 -0.052672 -0.691518 108 71 52 14 1
-0.080095 -0.406483 -0.568774 28 25 35 5 2
-0.080234 -0.385481 -0.576328 26 26 36 5 2
-0.099259 -0.393289 -0.577053 28 27 37 5 2
-0.089655 -0.389483 -0.580319 25 25 32 5 2
-0.041430 -0.183761 -0.814815 47 37 37 2 3
0.088632 -0.356013 -0.817740 90 62 50 2 3
0.093256 -0.319392 -0.817764 95 64 51 2 3
0.369260 -0.207009 -0.591769 169 133 102 14 1
0.392045 -0.206654 -0.576796 169 133 98 14 1
0.358696 -0.206814 -0.585268 170 134 104 14 1
0.006111 -0.186452 -0.761493 17 23 28 5 2
0.005107 -0.189811 -0.768717 25 30 38 2 3
0.009366 -0.202238 -0.784298 28 29 38 2 3
0.012262 -0.189980 -0.767994 27 30 38 2 3
0.012928 -0.175043 -0.772872 18 23 31 2 3
0.022458 -0.176069 -0.785078 26 30 40 2 3
0.019270 -0.193178 -0.776610 30 30 41 2 3
-0.077112 -0.078774 -0.388323 21 25 34 5 2
-0.057165 -0.088518 -0.386295 20 24 33 5 2
-0.070006 -0.098103 -0.385889 21 25 34 5 2
-0.133822 -0.419558 -0.415431 26 30 42 5 2
-0.125564 -0.392865 -0.411784 27 31 43 5 2
-0.098031 -0.404661 -0.412373 25 34 43 5 2
-0.167141 0.064241 -0.814212 28 25 32 2 3
-0.144867 0.058459 -0.812851 30 25 33 2 3
-0.156107 0.084405 -0.814493 29 26 33 2 3
0.495459 -0.078852 -0.741394 75 51 33 14 1
0.493815 -0.100042 -0.719456 106 69 52 14 1
-0.264385 -0.279663 -0.810924 22 24 27 2 3
-0.263592 -0.278625 -0.798585 23 27 28 5 2
-0.053643 -0.140941 -0.434776 13 15 14 5 2
-0.044062 -0.136102 -0.438549 20 21 22 5 2
-0.048874 -0.133327 -0.433088 15 18 17 5 2
-0.059120 -0.128872 -0.440042 13 15 13 5 2
0.076532 -0.490553 -0.819076 116 91 81 2 3
-0.073057 -0.240160 -0.387083 24 30 40 5 2
-0.063885 -0.235766 -0.386661 24 29 39 5 2
-0.069753 -0.216369 -0.386236 23 29 39 5 2
0.330354 -0.365298 -0.820826 118 82 63 2 3
0.344203 -0.347929 -0.819856 111 75 64 2 3
0.311152 -0.351533 -0.820487 120 83 68 2 3
0.027755 -0.030817 -0.814207 25 24 20 2 3
0.038277 -0.025079 -0.814882 25 24 20 2 3
0.045136 -0.024837 -0.811117 30 28 29 2 3
0.042034 -0.015655 -0.812288 26 25 24 2 3
-0.533334 -0.259131 -0.804213 32 29 33 2 3
-0.517130 -0.265125 -0.793598 23 27 29 2 3
-0.509112 -0.271085 -0.793989 25 29 31 2 3
-0.523459 -0.252368 -0.787011 28 31 36 2 3
-0.545919 -0.258012 -0.810988 40 35 37 2 3
-0.197585 0.421535 -0.676648 12 13 13 1 5
-0.194348 0.414287 -0.684596 11 14 12 1 5
-0.211458 0.423585 -0.669185 16 18 27 1 5
-0.211676 0.432200 -0.660071 18 23 35 1 5
-0.198492 0.422500 -0.659959 13 15 24 1 5
-0.190238 0.425382 -0.656758 14 16 23 1 5
-0.187695 0.419967 -0.665830 13 12 14 1 5
-0.188242 0.416369 -0.673981 12 13 12 1 5
-0.186920 0.430098 -0.676509 5 8 6 1 5
-0.193927 0.423721 -0.667770 13 12 17 1 5
-0.183003 0.424480 -0.655492 16 20 29 1 5
-0.385468 0.081506 -0.817254 36 31 36 2 3
-0.377254 0.094388 -0.817264 38 32 38 2 3
0.441910 -0.204485 -0.534268 176 140 102 14 1
-0.368939 -0.121719 -0.381085 25 33 46 5 2
-0.374822 -0.104914 -0.387147 29 33 50 5 2
-0.376621 -0.090321 -0.393243 24 32 46 5 2
-0.358535 -0.108559 -0.389324 27 31 47 5 2
-0.362615 -0.120282 -0.384620 27 33 50 5 2
-0.367229 -0.092874 -0.391373 28 31 43 5 2
-0.380730 -0.112447 -0.381819 13 16 24 5 2
-0.361341 -0.066408 -0.399342 24 29 39 5 2
-0.386618 0.027305 -0.808747 30 29 34 2 3
-0.380425 0.017825 -0.810617 26 27 32 2 3
-0.386681 0.011802 -0.810950 30 28 34 2 3
-0.277621 -0.462614 -0.418184 27 32 40 5 2
-0.281963 -0.484766 -0.431189 32 38 57 5 2
-0.270284 -0.487207 -0.433572 38 43 59 5 2
-0.254341 -0.480313 -0.426589 30 37 55 5 2
-0.046792 -0.093960 -0.427272 18 20 20 5 2
-0.029377 -0.110649 -0.426845 20 23 32 5 2
-0.038022 -0.096481 -0.427625 19 21 30 5 2
-0.051116 -0.107410 -0.432790 18 19 18 5 2
-0.043256 -0.105508 -0.426997 7 9 10 5 2
0.049728 -0.214036 -0.817205 64 44 39 2 3
-0.027383 -0.213851 -0.439380 26 26 30 5 2
-0.029836 -0.201592 -0.438464 20 23 32 5 2
-0.017154 -0.220179 -0.432738 31 28 33 5 2
-0.212234 0.439455 -0.605374 53 57 76 1 5
-0.038811 -0.218718 -0.439597 21 20 28 5 2
-0.187213 0.430468 -0.590595 56 59 78 1 5
-0.186520 0.427162 -0.607709 54 59 74 1 5
-0.208368 0.433433 -0.610938 51 60 81 1 5
-0.063286 -0.392284 -0.563019 25 25 34 5 2
-0.071871 -0.276155 -0.590312 24 28 38 5 2
-0.058862 -0.259705 -0.588735 21 24 32 5 2
-0.039385 -0.269445 -0.565643 23 23 32 5 2
-0.040003 -0.255579 -0.570764 21 22 31 5 2
-0.049194 -0.270922 -0.581281 22 24 33 5 2
-0.186359 -0.016898 -0.417865 22 26 29 5 2
-0.175195 -0.021739 -0.415130 21 26 35 5 2
-0.165045 -0.038625 -0.403354 22 26 40 5 2
-0.162307 -0.028018 -0.411220 22 26 36 5 2
-0.182780 -0.026310 -0.408874 22 25 37 5 2
-0.378881 -0.371573 -0.807851 30 30 29 2 3
-0.391593 -0.381446 -0.812949 32 30 29 2 3
-0.527170 -0.279931 -0.814246 51 39 41 2 3
0.143572 -0.209141 -0.727241 138 109 92 14 1
0.145678 -0.212010 -0.714794 140 110 94 14 1
0.128095 -0.213333 -0.718417 140 110 94 14 1
0.310414 -0.324707 -0.819184 121 88 67 2 3
0.342324 -0.327198 -0.821173 116 79 60 2 3
0.303828 -0.306264 -0.818894 122 85 67 2 3
-0.498484 -0.018211 -0.825944 41 38 46 2 3
-0.484424 -0.002571 -0.820695 39 37 39 2 3
-0.500515 0.009238 -0.819432 43 39 45 2 3
-0.489889 0.004959 -0.821425 46 42 49 2 3
-0.497979 -0.003509 -0.823070 35 36 46 2 3
-0.507724 -0.007659 -0.821757 38 37 44 2 3
-0.438205 0.112764 -0.818595 31 30 38 2 3
-0.431753 0.123549 -0.817411 28 29 36 2 3
-0.448092 0.117290 -0.821631 27 32 39 2 3
-0.422443 0.112102 -0.819320 34 32 34 2 3
-0.325027 0.320429 -0.816799 30 28 32 2 3
-0.328419 0.307964 -0.819625 31 29 33 2 3
-0.334390 0.297043 -0.819689 31 30 36 2 3
-0.337388 0.319435 -0.819423 30 29 33 2 3
-0.153791 -0.124886 -0.807535 22 23 30 0 0
-0.165018 -0.111709 -0.817192 21 22 29 0 0
-0.163432 -0.095375 -0.823034 25 25 32 0 0
-0.146774 -0.098536 -0.819107 23 22 28 5 2
-0.004364 -0.439973 -0.818453 61 40 37 2 3
-0.091479 -0.367919 -0.470064 19 21 22 5 2
0.183630 -0.217507 -0.816798 78 52 43 2 3
-0.138681 -0.256493 -0.703999 19 22 30 5 2
-0.131569 -0.268293 -0.716093 25 28 38 5 2
-0.125875 -0.252396 -0.712861 22 25 34 5 2
-0.180071 -0.373987 -0.407497 25 31 44 5 2
-0.189739 -0.403396 -0.410631 28 34 47 5 2
-0.167999 -0.391938 -0.409023 26 33 47 5 2
0.241518 -0.202812 -0.817120 81 57 48 2 3
0.241646 -0.181125 -0.814954 84 57 49 2 3
0.219035 -0.205501 -0.817223 86 60 47 2 3
0.148547 -0.199628 -0.746376 123 91 78 14 1
0.163297 -0.204201 -0.735410 130 97 84 14 1
0.174841 -0.204991 -0.733597 136 102 89 14 1
0.166440 -0.195399 -0.750267 126 93 79 14 1
-0.161909 0.351975 -0.802965 17 15 11 2 3
-0.153716 0.353746 -0.805510 17 13 10 2 3
-0.463380 -0.072983 -0.830015 19 22 29 2 3
-0.477306 -0.067788 -0.830218 18 20 25 2 3
-0.145795 -0.330773 -0.714475 22 23 34 5 2
-0.176152 -0.320320 -0.687949 20 25 38 5 2
-0.159806 -0.335649 -0.700239 19 25 38 5 2
-0.147078 -0.325747 -0.703386 20 25 34 5 2
-0.153476 -0.305010 -0.698291 19 24 34 5 2
-0.156421 -0.315892 -0.697660 20 25 35 5 2
-0.172232 -0.309727 -0.688379 19 25 34 5 2
-0.310005 0.277739 -0.817035 32 29 34 2 3
-0.313141 0.296534 -0.817339 30 28 32 2 3
0.032268 -0.376191 -0.817506 64 46 42 2 3
0.046371 -0.399162 -0.817342 75 56 51 2 3
-0.204144 -0.362695 -0.815571 26 26 34 2 3
0.073149 -0.156160 -0.650899 71 58 37 14 1
0.077222 -0.167650 -0.645642 24 24 23 14 1
0.494733 -0.027714 -0.678268 108 71 49 14 1
0.492353 -0.063005 -0.638519 107 67 47 14 1
0.059152 -0.501106 -0.819514 114 91 83 2 3
0.045142 -0.481374 -0.819171 114 90 86 2 3
-0.397359 0.216088 -0.806840 25 27 34 2 3
-0.329930 -0.370909 -0.815664 67 56 57 2 3
-0.331024 -0.363642 -0.806670 75 68 70 2 3
-0.338496 -0.386231 -0.812324 76 64 69 2 3
-0.345603 -0.374461 -0.799272 26 25 28 2 3
-0.147789 -0.035258 -0.816304 29 26 31 2 3
-0.039759 -0.404839 -0.817367 65 49 41 2 3
-0.033681 -0.424388 -0.818544 60 41 34 2 3
-0.008161 -0.414940 -0.818893 63 44 41 2 3
-0.049431 -0.430192 -0.817568 77 63 65 2 3
-0.019619 -0.453484 -0.818273 61 42 38 2 3
-0.153183 -0.191416 -0.814653 25 26 32 2 3
-0.266503 0.256266 -0.812404 27 26 31 2 3
-0.245068 0.252697 -0.813072 28 27 33 2 3
-0.219899 0.258960 -0.812717 29 28 33 2 3
-0.131706 0.339283 -0.804565 15 13 11 2 3
-0.142953 0.352814 -0.803160 13 12 9 2 3
-0.135186 0.362120 -0.808786 14 13 9 2 3
-0.124468 0.361984 -0.807857 12 10 8 2 3
-0.145802 0.285444 -0.804848 16 16 16 2 3
-0.138043 0.275511 -0.803557 14 12 13 2 3
-0.128248 0.278681 -0.800382 14 13 13 2 3
-0.113009 0.261396 -0.805358 15 13 14 2 3
-0.122086 0.290957 -0.802715 15 13 14 2 3
-0.140348 0.299928 -0.800734 15 13 14 2 3
-0.113781 0.278047 -0.802937 14 12 12 2 3
-0.416684 0.070647 -0.815515 26 27 35 2 3
-0.430903 0.091699 -0.818497 30 30 37 2 3
-0.409938 0.075020 -0.817764 31 30 37 2 3
-0.130819 -0.478920 -0.818860 96 76 71 2 3
-0.130761 -0.459893 -0.817254 89 68 63 2 3
-0.118547 -0.470643 -0.817496 92 72 73 2 3
-0.109803 -0.468073 -0.814753 87 70 73 2 3
-0.139177 -0.499368 -0.817581 86 61 63 2 3
-0.202872 0.360654 -0.807038 20 17 14 2 3
-0.211986 0.355794 -0.809514 21 15 13 2 3
-0.220259 0.342109 -0.809156 19 17 14 2 3
-0.201248 0.338146 -0.809689 25 25 26 2 3
0.484082 -0.185251 -0.764067 125 88 61 14 1
0.485273 -0.182415 -0.787661 126 89 61 14 1
0.488099 -0.179522 -0.770492 121 84 56 14 1
0.476180 -0.182475 -0.779471 121 85 59 14 1
-0.204618 -0.370125 -0.732812 24 27 36 5 2
-0.216871 -0.362797 -0.739683 23 27 36 5 2
-0.223308 -0.366346 -0.733720 26 26 34 5 2
-0.197455 -0.366597 -0.741970 23 26 35 5 2
0.153616 -0.397693 -0.819962 110 81 69 2 3
-0.176958 0.422447 -0.658801 12 12 16 1 5
-0.180697 0.423540 -0.668950 6 7 7 1 5
0.379188 -0.206121 -0.601502 169 133 102 14 1
0.368844 -0.207714 -0.626018 169 133 98 14 1
0.215593 -0.170304 -0.801467 92 71 59 14 1
0.244136 -0.168840 -0.805440 71 50 42 14 1
0.206573 -0.174139 -0.811963 68 47 41 2 3
-0.365275 -0.536240 -0.486888 41 34 32 5 2
-0.364094 -0.538072 -0.477462 31 31 31 5 2
-0.370749 -0.530371 -0.483873 20 22 21 5 2
-0.143932 -0.321985 -0.400400 27 31 44 5 2
-0.102202 -0.359384 -0.404141 25 31 41 5 2
-0.118860 -0.331693 -0.400963 25 29 40 5 2
-0.109528 -0.326720 -0.400214 27 33 44 5 2
-0.171207 -0.210309 -0.818209 28 27 31 2 3
-0.150964 -0.216246 -0.818193 30 27 31 2 3
-0.183783 -0.202237 -0.813590 27 25 31 2 3
-0.138347 -0.378733 -0.814761 28 26 25 2 3
-0.141662 -0.363091 -0.820901 37 33 32 2 3
-0.155573 -0.339414 -0.820837 57 44 43 2 3
-0.129974 -0.353427 -0.819740 67 48 47 2 3
-0.171136 -0.545902 -0.451315 32 38 46 5 2
-0.169565 -0.240137 -0.697144 15 23 27 5 2
-0.182153 -0.221328 -0.718142 22 22 31 5 2
-0.185537 -0.227060 -0.707475 15 23 26 5 2
-0.344056 -0.354074 -0.779764 23 24 25 0 0
-0.334713 -0.390533 -0.765433 23 25 27 0 0
-0.344423 -0.386064 -0.765282 24 25 24 5 2
-0.335891 -0.378046 -0.771067 25 27 31 0 0
-0.315132 -0.379079 -0.761776 22 25 28 0 0
-0.311203 -0.371430 -0.756038 24 25 28 0 0
-0.324846 -0.387975 -0.763514 26 27 30 0 0
-0.325244 -0.375300 -0.764049 22 25 25 0 0
-0.120185 0.209293 -0.808385 26 27 27 2 3
-0.114215 0.214944 -0.805355 24 24 24 2 3
-0.113023 0.196801 -0.807942 31 29 31 2 3
0.328894 -0.210567 -0.696466 160 126 97 14 1
0.338484 -0.209577 -0.686333 158 126 96 14 1
0.323838 -0.209861 -0.718422 160 127 96 14 1
0.348637 -0.208718 -0.718247 158 126 96 14 1
0.495814 0.067180 -0.645268 102 67 46 14 1
-0.348143 -0.316526 -0.794642 23 24 21 0 0
-0.332080 -0.337368 -0.801809 23 24 26 2 3
-0.345969 -0.327756 -0.809750 24 27 28 2 3
-0.353967 -0.344690 -0.788658 23 23 23 0 0
-0.350584 -0.329064 -0.789870 23 23 21 0 0
-0.331551 -0.327762 -0.802622 24 26 27 2 3
-0.279578 -0.317895 -0.815888 28 30 37 2 3
-0.265773 -0.302920 -0.813829 32 34 39 2 3
-0.263284 -0.298696 -0.783601 24 26 28 5 2
-0.265524 -0.289873 -0.790332 24 27 28 5 2
-0.238304 -0.315923 -0.813557 27 30 36 2 3
-0.059534 -0.308084 -0.817110 60 40 39 2 3
-0.038163 -0.282012 -0.817218 59 40 40 2 3
0.514781 0.015277 -0.815082 77 48 40 2 3
-0.043629 -0.451201 -0.754636 26 27 33 5 2
-0.062540 -0.447171 -0.736095 24 28 41 5 2
-0.035197 -0.468147 -0.734603 27 29 44 5 2
-0.052416 -0.459458 -0.730941 23 27 41 5 2
-0.032578 -0.464799 -0.743763 26 27 35 5 2
-0.044627 -0.455202 -0.742917 25 30 37 5 2
-0.317539 -0.337439 -0.807810 62 52 62 2 3
-0.296290 -0.327101 -0.814480 49 43 53 2 3
-0.292831 -0.319357 -0.815368 31 30 39 2 3
-0.301590 -0.311312 -0.809848 32 31 37 2 3
0.162072 -0.455918 -0.820345 113 80 67 2 3
0.187371 -0.452489 -0.819058 116 82 70 2 3
-0.075886 0.312986 -0.799671 14 12 11 2 3
-0.070574 0.312356 -0.800860 10 9 9 2 3
-0.075740 0.318164 -0.797999 13 13 10 2 3
-0.267630 -0.033038 -0.776542 18 19 21 2 3
-0.260041 -0.028123 -0.782520 20 22 24 2 3
-0.333554 -0.451474 -0.740328 33 39 53 5 2
-0.321574 -0.469982 -0.728074 39 40 51 5 2
-0.322529 -0.458392 -0.730228 32 39 57 5 2
-0.318210 -0.434485 -0.730769 34 43 60 5 2
-0.341713 -0.458922 -0.747004 31 37 50 5 2
-0.340496 -0.437534 -0.752771 32 30 29 5 2
-0.332461 -0.430444 -0.744348 36 33 30 5 2
0.488112 -0.180682 -0.699894 110 72 51 14 1
0.483799 -0.195075 -0.696518 127 91 66 14 1
-0.047233 -0.179583 -0.759950 23 25 34 5 2
-0.052685 -0.198298 -0.745928 22 25 33 5 2
0.279919 -0.207904 -0.591268 167 133 107 14 1
0.443775 -0.202588 -0.504113 179 143 103 14 1
-0.070251 -0.060622 -0.510841 21 22 30 5 2
-0.063407 -0.085697 -0.520994 19 23 31 5 2
-0.062241 -0.094469 -0.514542 21 24 33 5 2
-0.064557 -0.087501 -0.503740 19 23 32 5 2
-0.067152 -0.069083 -0.502564 19 22 30 5 2
-0.064015 -0.077031 -0.505501 20 23 32 5 2
-0.244309 -0.480910 -0.550765 38 37 36 5 2
-0.104830 -0.163838 -0.385295 24 29 42 5 2
0.492406 -0.132508 -0.713893 107 70 49 14 1
-0.254583 -0.437482 -0.411483 24 26 29 5 2
-0.250769 -0.447835 -0.408750 25 27 30 5 2
-0.257268 -0.456580 -0.414301 26 31 37 5 2
-0.268845 -0.462328 -0.415551 28 30 39 5 2
-0.262746 -0.450048 -0.410397 27 30 36 5 2
-0.300464 -0.479918 -0.541578 25 24 27 5 2
-0.299941 -0.495944 -0.528387 26 29 31 5 2
0.083785 -0.152645 -0.725229 25 25 22 14 1
0.085567 -0.167790 -0.741697 28 25 24 14 1
0.082890 -0.164108 -0.723214 26 25 22 14 1
0.084905 -0.157382 -0.739958 25 25 23 14 1
-0.433999 -0.278030 -0.752469 29 31 40 2 3
-0.468125 -0.387823 -0.816668 81 57 58 2 3
-0.125530 -0.093086 -0.816745 23 23 30 5 2
-0.144028 -0.056312 -0.816990 28 26 31 2 3
-0.129189 -0.079659 -0.822161 21 22 30 2 3
-0.131280 -0.068585 -0.821469 27 25 31 2 3
-0.144005 -0.084415 -0.822789 22 22 28 2 3
-0.155768 -0.075699 -0.818909 27 25 32 2 3
-0.254519 -0.489486 -0.546614 35 34 33 5 2
-0.228915 -0.492591 -0.543276 40 37 35 5 2
-0.252550 -0.511149 -0.528463 35 29 29 5 2
-0.239905 -0.492965 -0.545788 42 40 41 5 2
-0.230807 -0.480710 -0.549959 30 28 25 5 2
0.492699 0.035576 -0.577018 105 65 46 14 1
0.380575 -0.171340 -0.815980 89 60 52 2 3
-0.288385 -0.055416 -0.804681 25 30 40 2 3
-0.282003 -0.063881 -0.781642 12 13 14 2 3
-0.270262 -0.071957 -0.779147 12 13 14 2 3
-0.277998 -0.063435 -0.811040 17 24 33 2 3
-0.284531 -0.065675 -0.790974 18 18 21 2 3
0.002648 -0.338505 -0.817159 80 56 48 2 3
-0.186434 0.291632 -0.810896 30 29 34 2 3
-0.206146 0.264918 -0.812308 29 27 32 2 3
-0.114147 -0.495807 -0.482202 26 29 42 5 2
-0.105901 -0.199735 -0.817859 39 29 34 2 3
-0.430786 -0.243740 -0.813320 31 30 36 2 3
-0.420018 -0.249725 -0.826001 31 30 36 2 3
-0.414267 -0.264582 -0.828384 29 29 30 2 3
-0.405880 -0.262488 -0.828873 26 25 25 2 3
-0.411501 -0.246956 -0.827404 26 25 26 2 3
-0.400982 -0.252874 -0.825808 23 22 23 2 3
-0.430700 -0.258838 -0.816560 34 33 39 2 3
-0.212921 -0.022018 -0.414054 20 23 29 5 2
-0.213006 -0.009662 -0.425431 28 32 43 5 2
-0.204122 -0.017066 -0.416573 23 27 33 5 2
-0.218182 -0.017401 -0.424031 26 28 36 5 2
0.482745 -0.033943 -0.374768 113 73 50 14 1
-0.400201 -0.345601 -0.819344 33 30 29 2 3
-0.411901 -0.333614 -0.824243 33 31 29 2 3
-0.418342 -0.327342 -0.823798 36 34 33 2 3
-0.415181 -0.308061 -0.824766 34 32 32 2 3
0.318109 -0.209193 -0.818474 92 60 46 2 3
0.301907 -0.184422 -0.817712 94 64 50 2 3
-0.138754 -0.177159 -0.763195 20 20 21 5 2
0.484175 -0.077828 -0.438830 113 73 52 14 1
0.484216 -0.058553 -0.431643 110 74 50 14 1
0.479760 -0.202555 -0.702269 158 121 88 14 1
0.465965 -0.208902 -0.700268 159 123 85 14 1
0.470924 -0.209542 -0.720210 164 127 87 14 1
-0.074973 -0.185484 -0.817481 34 26 32 2 3
-0.078373 -0.161320 -0.816027 35 27 33 2 3
-0.093919 -0.188202 -0.817221 33 27 33 2 3
-0.277438 -0.056062 -0.797762 20 27 37 2 3
-0.277475 -0.059266 -0.792409 20 26 38 2 3
-0.271543 -0.058036 -0.790597 16 18 20 2 3
-0.253424 -0.058912 -0.785593 23 23 29 2 3
-0.257994 -0.061007 -0.780948 16 18 20 2 3
-0.260927 -0.060663 -0.798907 23 24 30 2 3
-0.259243 -0.067370 -0.809809 25 25 30 2 3
-0.392301 0.182001 -0.810334 32 32 35 2 3
-0.371199 0.187509 -0.812388 29 27 32 2 3
-0.395041 0.203605 -0.810468 27 26 33 2 3
-0.383009 0.206106 -0.810039 31 28 35 2 3
-0.369973 0.204367 -0.810533 30 30 36 2 3
-0.385217 0.179256 -0.813163 31 28 32 2 3
-0.386327 0.191648 -0.813765 29 28 32 2 3
-0.210516 -0.304454 -0.814534 22 20 24 2 3
0.268194 -0.197848 -0.487156 189 160 141 14 1
0.230650 -0.196454 -0.477647 166 134 107 14 1
0.217867 -0.196622 -0.484312 186 160 137 14 1
0.240461 -0.199395 -0.490720 193 163 142 14 1
0.227623 -0.202146 -0.500812 188 161 139 14 1
-0.002745 -0.227230 -0.410137 20 23 32 5 2
-0.004927 -0.208721 -0.415116 21 24 33 5 2
-0.003318 -0.231623 -0.415699 29 28 34 5 2
-0.012074 -0.229918 -0.427345 22 24 29 5 2
-0.008686 -0.218960 -0.423655 30 29 35 5 2
-0.360737 -0.499443 -0.761823 26 28 34 5 2
-0.363317 -0.491920 -0.758303 22 25 27 5 2
-0.372335 -0.499535 -0.762269 32 31 37 2 3
-0.350291 -0.505336 -0.771583 30 29 36 5 2
-0.338650 -0.488480 -0.763758 50 44 46 5 2
-0.394234 -0.293736 -0.818122 27 26 26 2 3
-0.395098 -0.309697 -0.819830 26 27 26 2 3
-0.406667 -0.312254 -0.825386 31 28 27 2 3
-0.023401 0.017568 -0.812692 38 33 34 2 3
-0.027274 0.006666 -0.812906 32 31 35 2 3
-0.009211 -0.006136 -0.813662 39 36 37 2 3
0.500226 -0.023128 -0.793143 96 65 47 14 1
0.504467 -0.004056 -0.806760 82 53 41 14 1
0.502991 -0.032745 -0.806315 77 48 35 14 1
0.508873 -0.024738 -0.813309 82 51 42 2 3
0.519285 -0.028657 -0.815643 84 52 44 2 3
-0.256426 -0.360615 -0.666072 21 21 24 5 2
-0.080029 -0.457707 -0.532073 31 31 42 5 2
-0.088857 -0.473964 -0.531028 28 32 39 5 2
-0.105919 -0.476966 -0.550925 25 29 38 5 2
-0.085608 -0.462062 -0.540978 25 29 39 5 2
-0.091521 -0.454447 -0.549892 26 29 38 5 2
0.307123 -0.197122 -0.375893 187 151 119 14 1
0.290662 -0.198222 -0.379268 183 147 113 14 1
0.308263 -0.198635 -0.408269 182 147 112 14 1
0.324077 -0.196764 -0.373268 183 148 112 14 1
0.072463 -0.170436 -0.377221 59 62 57 14 1
0.064749 -0.155045 -0.395408 43 45 41 14 1
-0.318498 -0.541131 -0.506639 48 45 50 5 2
-0.308932 -0.530479 -0.505920 34 35 46 5 2
-0.295458 -0.542688 -0.492442 31 37 46 5 2
-0.298285 -0.526635 -0.505562 45 51 65 5 2
0.450533 -0.208981 -0.706788 162 125 91 14 1
-0.039588 0.218438 -0.795217 14 14 12 2 3
0.118818 -0.218033 -0.699202 67 46 37 14 1
0.105763 -0.211576 -0.675724 55 40 36 14 1
0.104849 -0.211801 -0.652287 45 31 28 14 1
0.114659 -0.217668 -0.663145 86 66 53 14 1
0.109650 -0.213667 -0.695057 51 32 29 14 1
0.116119 -0.216657 -0.675600 99 76 64 14 1
0.125416 -0.213910 -0.682283 131 105 88 14 1
0.128921 -0.211660 -0.671009 139 106 87 14 1
-0.494736 -0.361816 -0.815268 78 59 61 2 3
-0.096186 -0.428317 -0.418750 27 31 43 5 2
-0.099627 -0.422565 -0.416306 25 30 40 5 2
-0.093330 -0.438526 -0.426739 31 34 44 5 2
0.361281 -0.199808 -0.455621 163 129 95 14 1
0.346185 -0.199287 -0.435268 179 142 110 14 1
0.383760 -0.199060 -0.446268 164 129 98 14 1
0.380370 -0.198749 -0.457573 186 151 116 14 1
0.476066 -0.205142 -0.661269 163 125 90 14 1
0.466873 -0.208325 -0.671269 164 128 90 14 1
0.476541 -0.205389 -0.695268 162 125 90 14 1
0.471747 -0.207625 -0.678268 160 123 88 14 1
-0.400313 0.035912 -0.812151 32 32 36 2 3
-0.404456 0.061511 -0.812947 27 26 35 2 3
-0.392878 0.052370 -0.810566 11 12 16 2 3
-0.392928 0.057246 -0.814315 26 25 33 2 3
-0.372917 0.107468 -0.811351 25 24 30 2 3
-0.361406 0.102256 -0.813999 27 26 31 2 3
-0.355877 0.103867 -0.809437 27 26 31 2 3
-0.376595 0.120283 -0.813469 30 31 35 2 3
-0.367071 0.116046 -0.814318 27 26 30 2 3
-0.346996 0.119932 -0.812910 28 27 33 2 3
0.270691 -0.209987 -0.694550 156 122 98 14 1
0.493827 -0.159106 -0.786040 104 70 47 14 1
-0.174445 0.016891 -0.815425 29 25 33 2 3
-0.174321 -0.006367 -0.815729 29 25 31 2 3
-0.105918 -0.402997 -0.493844 28 31 42 5 2
-0.104397 -0.408337 -0.487493 31 33 45 5 2
-0.112603 -0.421729 -0.497981 28 31 43 5 2
-0.110425 -0.425627 -0.481085 29 31 42 5 2
-0.090835 -0.431221 -0.459269 29 32 40 5 2
0.083451 -0.248064 -0.819089 67 44 38 2 3
0.074959 -0.218940 -0.817515 66 43 38 2 3
0.085105 -0.227032 -0.818397 64 41 38 2 3
-0.033636 0.119840 -0.801032 17 15 13 2 3
-0.040628 0.133995 -0.801253 18 15 14 14 1
-0.022183 0.132934 -0.801830 20 18 19 14 1
-0.023469 0.115911 -0.802177 21 21 21 14 1
-0.043986 0.112748 -0.809717 32 28 31 2 3
-0.100741 -0.108011 -0.513786 23 24 30 5 2
-0.110384 -0.102048 -0.518985 19 21 25 5 2
-0.260168 0.433866 -0.711134 18 18 21 1 5
-0.247359 0.434830 -0.682121 14 15 18 1 5
-0.325370 -0.539855 -0.403979 35 42 52 5 2
-0.318884 -0.548061 -0.422159 34 39 50 5 2
-0.323048 -0.552468 -0.426367 33 35 43 5 2
-0.333456 -0.548890 -0.431202 33 37 39 5 2
-0.316668 -0.549424 -0.430646 31 39 44 5 2
-0.126857 -0.484161 -0.475475 21 28 38 5 2
-0.134164 -0.462567 -0.477919 19 25 34 5 2
-0.129274 -0.490317 -0.463733 22 28 37 5 2
-0.132443 -0.477122 -0.471021 23 28 38 5 2
-0.130545 -0.469729 -0.483285 26 30 39 5 2
-0.114301 -0.470934 -0.496816 23 27 38 5 2
-0.132635 -0.476082 -0.460236 22 27 38 5 2
-0.130090 -0.467310 -0.462635 20 25 36 5 2
0.476529 -0.192201 -0.496347 112 74 52 14 1
0.477196 -0.194456 -0.526519 144 104 70 14 1
0.480601 -0.178754 -0.494518 118 74 50 14 1
0.480030 -0.185785 -0.514018 114 75 55 14 1
-0.282413 0.411355 -0.816016 42 40 45 2 3
-0.290958 0.417662 -0.816619 42 40 45 2 3
-0.118753 -0.249498 -0.388319 28 34 45 5 2
-0.132104 -0.451444 -0.422976 29 30 44 5 2
-0.116435 -0.442359 -0.421954 24 26 40 5 2
-0.125168 -0.457753 -0.427656 27 32 40 5 2
0.369189 -0.197292 -0.389609 191 154 114 14 1
0.377920 -0.197576 -0.376755 192 154 113 14 1
0.113212 -0.199573 -0.750254 132 105 84 14 1
0.121637 -0.213031 -0.727565 126 96 79 14 1
0.106562 -0.206432 -0.723442 95 74 59 14 1
0.273484 -0.168922 -0.801253 121 92 71 14 1
0.279918 -0.170881 -0.793047 123 93 76 14 1
0.268410 -0.173823 -0.784021 124 95 71 14 1
0.267884 -0.172490 -0.811444 75 52 44 2 3
0.290948 -0.176226 -0.815788 84 58 49 2 3
-0.223324 -0.353518 -0.397685 32 37 55 5 2
-0.512529 -0.258951 -0.779169 27 31 38 2 3
-0.277985 -0.333697 -0.689609 23 23 27 5 2
0.531073 0.003565 -0.816302 78 51 42 2 3
0.553790 0.004540 -0.816253 85 53 44 2 3
0.549800 -0.014831 -0.815417 81 52 41 2 3
-0.149867 -0.549112 -0.516708 71 62 61 5 2
-0.130897 -0.547585 -0.507659 74 63 62 5 2
-0.130642 -0.539653 -0.501079 38 35 49 5 2
-0.138032 -0.558504 -0.503920 36 32 46 5 2
-0.044238 -0.306986 -0.566720 22 25 32 5 2
-0.047959 -0.301625 -0.573155 23 25 35 5 2
-0.046408 -0.325187 -0.565247 23 25 33 5 2
-0.296451 -0.046615 -0.402896 25 29 40 5 2
-0.302433 -0.039189 -0.407973 26 29 39 5 2
0.024196 -0.403869 -0.818415 82 60 56 2 3
0.050317 -0.384015 -0.817434 80 60 54 2 3
-0.083035 -0.168797 -0.531448 10 13 21 5 2
-0.076119 -0.198299 -0.537435 22 26 37 5 2
-0.076446 -0.191313 -0.532050 4 8 13 5 2
-0.080647 -0.180281 -0.531797 17 20 26 5 2
0.309456 -0.207524 -0.575269 163 131 103 14 1
0.309909 -0.206655 -0.561269 162 130 103 14 1
-0.567475 -0.286166 -0.818044 50 40 39 2 3
-0.113306 -0.254954 -0.548302 18 22 29 5 2
-0.113848 -0.268096 -0.542921 14 16 24 5 2
-0.190521 -0.315148 -0.818178 28 26 28 2 3
-0.160939 -0.346969 -0.818260 57 49 46 2 3
0.207483 -0.208931 -0.643155 158 126 104 14 1
0.235652 -0.208005 -0.639643 162 129 107 14 1
0.223171 -0.208846 -0.625427 160 128 105 14 1
0.075967 -0.156287 -0.484279 29 23 21 14 1
0.080209 -0.176557 -0.486584 117 99 86 14 1
0.077092 -0.173523 -0.465002 33 27 20 14 1
0.074304 -0.154009 -0.472634 31 26 22 14 1
0.071825 -0.149954 -0.464225 33 25 22 14 1
-0.087344 -0.225713 -0.816243 42 33 33 2 3
-0.055482 -0.231774 -0.817553 49 35 36 2 3
0.493713 -0.078823 -0.685268 108 70 49 14 1
0.490343 -0.140421 -0.671768 107 68 47 14 1
0.490983 -0.095710 -0.647577 109 72 50 14 1
0.491278 -0.107087 -0.662268 109 71 49 14 1
0.492062 -0.111057 -0.694081 108 68 50 14 1
-0.411896 -0.236826 -0.801038 23 23 26 2 3
-0.408573 -0.235041 -0.813791 25 22 23 2 3
0.172452 -0.385715 -0.821083 112 83 65 2 3
0.486389 0.053574 -0.414268 109 72 49 14 1
0.486171 0.012912 -0.427080 111 73 53 14 1
0.007984 -0.483452 -0.818811 103 75 70 2 3
0.034126 -0.464831 -0.819305 114 86 81 2 3
-0.182428 -0.444220 -0.407420 26 33 44 5 2
-0.188029 -0.437256 -0.405891 29 33 45 5 2
-0.164454 -0.446034 -0.416686 26 32 43 5 2
-0.188369 -0.435173 -0.411985 26 32 43 5 2
-0.369646 -0.520303 -0.468620 29 29 30 5 2
0.368554 -0.252808 -0.818533 93 60 48 2 3
0.395907 -0.260054 -0.820597 102 66 49 2 3
-0.046885 -0.146465 -0.435170 18 19 20 5 2
-0.034520 -0.160667 -0.431782 13 15 14 5 2
-0.027194 -0.177140 -0.433801 18 21 21 5 2
-0.043920 -0.155430 -0.431892 13 15 14 5 2
-0.220416 0.428338 -0.683703 9 16 15 1 5
-0.224545 0.428368 -0.672445 8 14 16 1 5
-0.252642 0.432991 -0.676470 13 13 18 1 5
-0.223557 0.429170 -0.663076 17 19 27 1 5
-0.235088 0.438146 -0.686400 11 15 16 1 5
-0.221478 0.434733 -0.652085 28 25 37 1 5
-0.302698 -0.494385 -0.439149 27 34 46 5 2
-0.306567 -0.501533 -0.436899 24 35 52 5 2
-0.308308 -0.503359 -0.458781 27 30 45 5 2
-0.302146 -0.489770 -0.433165 31 38 52 5 2
-0.233170 -0.377062 -0.697921 27 31 44 5 2
-0.230305 -0.389587 -0.712807 26 29 35 5 2
-0.231306 -0.386448 -0.704292 26 29 42 5 2
-0.219451 -0.384370 -0.703229 25 31 42 5 2
-0.206633 -0.383557 -0.714289 25 30 42 5 2
0.031468 -0.145592 -0.814269 35 26 32 2 3
0.043013 -0.143575 -0.814141 43 29 34 2 3
0.026904 -0.119401 -0.815144 42 29 29 2 3
0.058030 -0.141846 -0.811613 50 31 30 2 3
0.480483 -0.113777 -0.391894 117 74 53 14 1
-0.219821 -0.524058 -0.508033 32 33 38 5 2
-0.248880 -0.513976 -0.516241 48 58 74 5 2
-0.223366 -0.528795 -0.500292 32 39 49 5 2
-0.289585 0.368331 -0.810432 25 25 26 2 3
-0.269545 0.364538 -0.811243 27 26 28 2 3
-0.273169 0.345861 -0.811263 29 27 29 2 3
-0.255112 0.359627 -0.811529 27 26 30 2 3
-0.250449 0.444696 -0.612660 60 67 89 1 5
-0.234352 0.437919 -0.603605 61 64 85 1 5
-0.230676 0.442470 -0.621090 59 69 89 1 5
-0.223737 0.442786 -0.608180 57 66 86 1 5
-0.213696 0.437719 -0.600728 58 66 85 1 5
-0.221032 0.442037 -0.596301 55 68 86 1 5
-0.003892 0.160441 -0.799429 12 10 9 14 1
-0.020731 0.158771 -0.796143 14 12 9 14 1
-0.016726 0.184183 -0.792666 14 14 11 14 1
-0.010315 0.179705 -0.792760 15 13 11 14 1
-0.007706 0.166722 -0.793534 14 12 10 14 1
-0.031264 0.180578 -0.798132 15 15 11 14 1
0.260839 -0.197425 -0.369143 181 146 109 14 1
-0.174586 -0.200173 -0.775551 18 20 20 5 2
-0.169080 -0.223539 -0.755822 18 20 20 5 2
-0.160093 -0.189315 -0.778866 21 22 22 5 2
-0.179164 -0.210848 -0.767575 18 19 19 5 2
-0.024044 -0.048605 -0.814076 37 25 27 2 3
-0.168094 -0.356293 -0.703654 21 25 34 5 2
-0.152298 -0.365509 -0.709845 22 23 34 5 2
-0.192513 -0.353800 -0.692857 22 25 35 5 2
-0.173679 -0.367565 -0.705160 21 26 35 5 2
-0.156175 -0.351105 -0.707547 20 24 35 5 2
-0.178837 -0.341393 -0.693541 23 26 39 5 2
0.492545 -0.028019 -0.627393 108 70 46 14 1
0.494491 -0.115524 -0.774268 106 69 50 14 1
0.495954 -0.108872 -0.793559 106 70 52 14 1
-0.270347 0.040663 -0.820327 23 23 29 2 3
-0.265021 0.053831 -0.818155 22 24 29 2 3
-0.249302 0.049879 -0.816529 24 25 32 2 3
-0.044896 -0.514412 -0.782371 29 37 44 2 3
-0.037016 -0.515381 -0.782669 26 31 42 2 3
-0.061556 -0.512186 -0.801043 31 37 47 2 3
-0.038868 -0.518654 -0.812442 81 60 59 2 3
-0.041846 -0.516577 -0.805397 57 53 58 2 3
-0.173311 -0.050686 -0.399071 22 27 38 5 2
-0.068732 -0.170637 -0.588510 19 22 30 5 2
-0.032461 -0.482714 -0.781086 21 21 28 5 2
-0.035157 -0.499883 -0.767255 51 61 87 2 3
-0.043339 -0.499679 -0.761457 38 47 69 2 3
-0.041175 -0.504031 -0.768988 59 74 108 2 3
-0.032367 -0.493936 -0.769172 24 25 31 5 2
-0.070814 -0.079829 -0.816009 27 26 26 5 2
-0.062251 -0.070916 -0.818052 21 23 22 5 2
-0.048982 -0.450263 -0.798570 68 58 58 5 2
-0.045988 -0.456243 -0.783083 23 25 26 5 2
-0.040025 -0.464119 -0.785253 31 26 30 5 2
-0.035594 -0.458802 -0.809743 52 35 34 5 2
-0.062029 -0.447751 -0.790845 24 26 31 5 2
-0.148160 -0.512310 -0.420479 32 38 49 5 2
-0.145333 -0.501379 -0.417934 33 37 45 5 2
-0.146997 -0.498751 -0.401499 28 35 45 5 2
-0.142835 -0.507322 -0.428580 30 38 46 5 2
-0.140835 -0.499690 -0.432697 30 37 44 5 2
-0.615538 -0.200701 -0.610959 24 20 24 14 1
-0.600980 -0.203387 -0.620300 22 21 24 14 1
-0.606566 -0.202291 -0.605213 15 14 16 14 1
-0.620540 -0.207367 -0.594425 29 27 27 14 1
-0.599252 -0.207642 -0.586703 15 14 17 14 1
-0.604481 -0.204829 -0.593746 15 14 17 14 1
-0.610864 -0.204089 -0.625356 24 22 21 14 1
-0.612610 -0.204116 -0.592452 31 28 28 14 1
-0.612912 -0.201825 -0.599510 29 27 28 14 1
-0.598157 -0.199976 -0.606184 22 21 25 14 1
0.307967 -0.207698 -0.636518 162 129 100 14 1
-0.142345 0.030713 -0.816071 28 24 31 2 3
-0.172183 0.042407 -0.815245 29 25 32 2 3
-0.617224 -0.197793 -0.801356 42 37 41 2 3
-0.610693 -0.206253 -0.807195 47 41 42 2 3
-0.603070 -0.190522 -0.806321 31 31 35 2 3
-0.599295 -0.211457 -0.808646 38 36 41 2 3
-0.589972 -0.201154 -0.811693 30 32 37 2 3
-0.583277 -0.207021 -0.809457 30 31 36 2 3
-0.597242 -0.186913 -0.813644 28 27 32 2 3
-0.096513 -0.064658 -0.539851 15 19 18 5 2
-0.088161 -0.064156 -0.536658 25 27 31 5 2
-0.090884 -0.071701 -0.545996 17 19 19 5 2
-0.075897 -0.066170 -0.532739 19 22 29 5 2
-0.086295 -0.080026 -0.549681 17 21 24 5 2
-0.094940 -0.059225 -0.533863 15 17 20 5 2
-0.381763 -0.034812 -0.806673 29 27 33 2 3
-0.231503 -0.323006 -0.635132 21 24 24 5 2
-0.211425 -0.312982 -0.642204 19 21 20 5 2
-0.219324 -0.326280 -0.644688 23 27 29 5 2
-0.216531 -0.316015 -0.645516 23 26 27 5 2
-0.224810 -0.332855 -0.641617 23 24 26 5 2
0.103808 -0.190693 -0.753251 132 103 83 14 1
-0.497291 -0.319662 -0.817777 50 41 41 2 3
-0.517585 -0.317680 -0.818180 55 44 41 2 3
0.404067 -0.201822 -0.495730 201 168 133 14 1
0.127921 -0.201435 -0.455334 162 131 103 14 1
-0.338074 -0.321584 -0.785390 23 24 23 0 0
-0.338786 -0.339394 -0.779280 23 24 23 0 0
-0.328240 -0.316952 -0.778431 18 21 18 0 0
-0.357201 -0.341478 -0.783351 23 24 25 2 3
-0.323899 -0.341164 -0.769852 22 24 23 0 0
-0.351738 -0.338239 -0.778426 17 18 19 2 3
0.505448 -0.069521 -0.811794 79 48 37 2 3
0.513288 -0.073735 -0.816101 84 53 43 2 3
-0.056463 -0.147235 -0.566943 20 21 31 5 2
-0.067665 -0.150135 -0.578050 20 21 25 5 2
-0.071875 -0.139972 -0.576393 15 19 23 5 2
-0.072826 -0.157942 -0.584392 19 21 23 5 2
-0.197371 -0.202942 -0.776774 18 18 20 5 2
-0.181414 -0.195474 -0.778282 17 19 18 5 2
-0.207305 -0.201831 -0.778653 18 19 19 5 2
-0.184290 -0.097225 -0.823993 27 26 34 2 3
-0.158077 -0.084946 -0.822946 26 25 32 2 3
-0.184393 -0.086549 -0.817991 27 26 34 2 3
-0.183839 -0.080957 -0.816523 27 26 32 2 3
-0.191239 -0.109442 -0.823000 21 21 32 0 0
-0.178036 -0.102427 -0.824540 20 21 28 0 0
0.505634 -0.098698 -0.815034 91 58 46 2 3
0.000956 -0.197546 -0.783765 27 30 38 2 3
0.017559 -0.201670 -0.781236 28 28 39 2 3
0.030966 -0.183774 -0.805719 23 23 32 2 3
-0.006702 -0.201198 -0.805090 28 26 35 2 3
0.004549 -0.204093 -0.805221 36 28 34 2 3
0.016791 -0.201866 -0.804846 43 31 32 2 3
0.024011 -0.194640 -0.787751 26 26 36 2 3
0.022552 -0.198945 -0.807386 57 39 39 2 3
0.031320 -0.202671 -0.814961 59 40 40 2 3
0.017878 -0.209244 -0.814094 59 40 40 2 3
-0.460229 0.038514 -0.815757 38 33 39 2 3
-0.462689 0.050688 -0.820425 39 33 39 2 3
-0.455022 0.043978 -0.817262 29 29 36 2 3
-0.244644 0.443770 -0.588621 64 78 91 1 5
-0.267053 0.447252 -0.580224 72 77 100 1 5
-0.253024 0.449300 -0.582920 72 78 100 1 5
-0.261187 0.452150 -0.566446 76 84 97 1 5
-0.274162 0.451680 -0.562869 71 75 93 1 5
-0.255281 0.456162 -0.559524 75 82 95 1 5
-0.249885 0.450587 -0.568078 71 82 92 1 5
-0.072261 -0.253880 -0.588028 17 18 27 5 2
-0.065795 -0.249905 -0.591633 18 21 24 5 2
-0.075266 -0.267877 -0.589190 26 29 40 5 2
-0.293956 0.222146 -0.819861 32 31 35 2 3
-0.292226 0.231857 -0.819362 32 30 34 2 3
-0.300674 0.215994 -0.815798 37 30 39 2 3
-0.315763 0.229923 -0.815967 37 31 38 2 3
0.391323 -0.197695 -0.407144 188 152 114 14 1
0.369542 -0.198220 -0.418518 186 150 115 14 1
-0.402852 0.071098 -0.821698 26 25 33 2 3
-0.284926 -0.348701 -0.746427 25 27 31 5 2
-0.275255 -0.358349 -0.748342 26 28 33 5 2
-0.311241 -0.535024 -0.426555 36 40 54 5 2
-0.311554 -0.519306 -0.404947 35 40 51 5 2
-0.256662 0.331204 -0.810775 29 27 30 2 3
-0.259027 0.351527 -0.812689 28 28 33 2 3
-0.058820 0.100733 -0.810674 31 29 30 14 1
-0.040902 0.094907 -0.811876 30 29 30 14 1
-0.046462 0.085533 -0.811637 30 30 31 2 3
-0.029907 0.103189 -0.804275 27 25 26 14 1
-0.031222 0.083425 -0.809611 27 25 26 14 1
-0.073144 0.103903 -0.811815 36 35 38 2 3
-0.327395 -0.535789 -0.752726 26 29 36 5 2
-0.340431 -0.510615 -0.765420 37 36 39 5 2
-0.171902 -0.555484 -0.470784 37 39 47 5 2
-0.163348 -0.555593 -0.470601 32 40 50 5 2
-0.181427 -0.558776 -0.483656 29 32 37 5 2
-0.171428 -0.566941 -0.491852 34 32 40 5 2
-0.162353 -0.567512 -0.482524 36 42 52 5 2
0.005238 -0.114477 -0.812975 25 24 29 2 3
-0.009997 -0.112916 -0.809831 22 22 29 2 3
-0.203982 -0.300916 -0.658439 18 19 21 5 2
-0.216095 -0.284532 -0.661007 16 17 18 5 2
-0.214873 -0.296215 -0.654844 21 24 25 5 2
0.488491 0.001861 -0.503643 107 69 48 14 1
-0.481489 -0.018926 -0.820265 30 30 40 2 3
-0.469553 -0.030022 -0.817082 34 34 41 2 3
-0.465274 -0.005080 -0.819760 35 38 38 2 3
-0.455849 -0.010565 -0.816696 26 26 35 2 3
-0.156272 -0.460921 -0.818338 88 70 70 2 3
0.098277 -0.207041 -0.814818 64 45 40 2 3
0.069215 -0.189343 -0.816413 68 49 44 2 3
0.395176 -0.209616 -0.682769 162 129 94 14 1
0.375863 -0.210059 -0.686143 161 130 95 14 1
