ply
format ascii 1.0
element vertex 1090
property float x
property float y
property float z
property uchar red
property uchar green
property uchar blue
property uchar semantic_label
property uchar instance_label
end_header
-0.581797 0.093201 -0.241946 255 125 0 81 10
-0.581979 0.202325 -0.235819 255 125 0 81 10
-0.486265 0.111138 -0.235859 255 125 0 81 10
-0.540629 0.090923 -0.235861 255 125 0 81 10
-0.465804 0.096708 -0.238982 255 125 0 81 10
-0.605077 0.095655 -0.243489 255 125 0 81 10
-0.598548 0.159227 -0.235956 255 125 0 81 10
-0.475524 0.069287 -0.242982 255 125 0 81 10
-0.506916 0.118985 -0.235965 255 125 0 81 10
-0.533218 0.065057 -0.241907 255 125 0 81 10
-0.498381 0.204917 -0.240982 255 125 0 81 10
-0.507038 0.130171 -0.240982 255 125 0 81 10
-0.483112 0.154104 -0.241903 255 125 0 81 10
-0.473246 0.151518 -0.235586 255 125 0 81 10
-0.474672 0.214519 -0.240982 255 125 0 81 10
-0.469299 0.113989 -0.243755 255 125 0 81 10
-0.468118 0.175719 -0.245961 255 125 0 81 10
-0.468598 0.133674 -0.235659 255 125 0 81 10
-0.589203 0.027832 -0.235924 255 125 0 81 10
-0.589301 0.219248 -0.241912 255 125 0 81 10
-0.605513 0.049138 -0.243961 255 125 0 81 10
-0.496077 0.059086 -0.240982 255 125 0 81 10
-0.598587 0.072462 -0.243972 255 125 0 81 10
-0.498099 0.041253 -0.241960 255 125 0 81 10
-0.567774 0.213198 -0.241894 255 125 0 81 10
-0.578560 0.218459 -0.241891 255 125 0 81 10
-0.542157 0.153975 -0.240982 255 125 0 81 10
-0.484450 0.210387 -0.234982 255 125 0 81 10
-0.579431 0.125425 -0.241963 255 125 0 81 10
-0.587195 0.187067 -0.241974 255 125 0 81 10
-0.513406 0.142177 -0.235487 255 125 0 81 10
-0.584915 0.068020 -0.234982 255 125 0 81 10
-0.480556 0.027035 -0.242982 255 125 0 81 10
-0.524764 0.205573 -0.235272 255 125 0 81 10
-0.511956 0.085840 -0.241944 255 125 0 81 10
-0.551723 0.127487 -0.241949 255 125 0 81 10
-0.576338 0.035959 -0.242982 255 125 0 81 10
-0.515242 0.056290 -0.236025 255 125 0 81 10
-0.494995 0.179926 -0.236127 255 125 0 81 10
-0.574342 0.062862 -0.235294 255 125 0 81 10
-0.473423 0.169406 -0.235717 255 125 0 81 10
-0.504065 0.102018 -0.241957 255 125 0 81 10
-0.559962 0.055848 -0.241951 255 125 0 81 10
-0.507528 0.090355 -0.235601 255 125 0 81 10
-0.590085 0.117270 -0.241968 255 125 0 81 10
-0.565751 0.098726 -0.235610 255 125 0 81 10
-0.593239 0.074304 -0.235763 255 125 0 81 10
-0.553388 0.114949 -0.241944 255 125 0 81 10
-0.571017 0.179176 -0.241885 255 125 0 81 10
-0.524852 0.214516 -0.241937 255 125 0 81 10
-0.540011 0.028317 -0.235651 255 125 0 81 10
-0.544615 0.041688 -0.241974 255 125 0 81 10
-0.571606 0.027411 -0.242982 255 125 0 81 10
-0.537292 0.024766 -0.243446 255 125 0 81 10
-0.603539 0.030374 -0.243517 255 125 0 81 10
-0.493584 0.217067 -0.240982 255 125 0 81 10
-0.554959 0.025043 -0.236982 255 125 0 81 10
-0.558493 0.223104 -0.240982 255 125 0 81 10
-0.585525 0.108371 -0.235107 255 125 0 81 10
-0.490340 0.070847 -0.241884 255 125 0 81 10
-0.594904 0.061765 -0.235732 255 125 0 81 10
-0.485350 0.199700 -0.235819 255 125 0 81 10
-0.514133 0.202612 -0.234982 255 125 0 81 10
-0.593465 0.187900 -0.235073 255 125 0 81 10
-0.512970 0.188694 -0.241962 255 125 0 81 10
-0.514018 0.113547 -0.235637 255 125 0 81 10
-0.602359 0.092104 -0.235884 255 125 0 81 10
-0.562421 0.123804 -0.235832 255 125 0 81 10
-0.554876 0.084522 -0.241848 255 125 0 81 10
-0.568816 0.046816 -0.241943 255 125 0 81 10
-0.459395 0.198167 -0.237568 255 125 0 81 10
-0.573994 0.118323 -0.241913 255 125 0 81 10
-0.462814 0.182032 -0.236511 255 125 0 81 10
-0.511393 0.210177 -0.241957 255 125 0 81 10
-0.591920 0.031383 -0.243612 255 125 0 81 10
-0.509937 0.062603 -0.241966 255 125 0 81 10
-0.580572 0.150459 -0.241981 255 125 0 81 10
-0.505113 0.026872 -0.235607 255 125 0 81 10
-0.545669 0.057779 -0.235408 255 125 0 81 10
-0.491923 0.140600 -0.235160 255 125 0 81 10
-0.528575 0.138450 -0.241895 255 125 0 81 10
-0.538749 0.172339 -0.235421 255 125 0 81 10
-0.526909 0.150988 -0.235590 255 125 0 81 10
-0.573867 0.196144 -0.235776 255 125 0 81 10
-0.527124 0.082112 -0.241912 255 125 0 81 10
-0.517177 0.161819 -0.235700 255 125 0 81 10
-0.461325 0.212459 -0.238152 255 125 0 81 10
-0.507445 0.172648 -0.241935 255 125 0 81 10
-0.532909 0.033753 -0.235810 255 125 0 81 10
-0.570708 0.147874 -0.235120 255 125 0 81 10
-0.569920 0.158615 -0.235585 255 125 0 81 10
-0.591659 0.175894 -0.240982 255 125 0 81 10
-0.492403 0.098555 -0.241870 255 125 0 81 10
-0.519063 0.171639 -0.241910 255 125 0 81 10
-0.481617 0.093294 -0.241903 255 125 0 81 10
-0.479693 0.170238 -0.241930 255 125 0 81 10
-0.559487 0.189130 -0.241946 255 125 0 81 10
-0.520199 0.105437 -0.241883 255 125 0 81 10
-0.489414 0.205054 -0.240982 255 125 0 81 10
-0.581274 0.130774 -0.235660 255 125 0 81 10
-0.578682 0.049403 -0.236280 255 125 0 81 10
-0.493064 0.165633 -0.235908 255 125 0 81 10
-0.513186 0.119817 -0.241910 255 125 0 81 10
-0.586495 0.206753 -0.241977 255 125 0 81 10
-0.485124 0.086104 -0.235540 255 125 0 81 10
-0.525195 0.067820 -0.235788 255 125 0 81 10
-0.466888 0.141741 -0.243586 255 125 0 81 10
-0.516515 0.094739 -0.235734 255 125 0 81 10
-0.483509 0.194351 -0.241945 255 125 0 81 10
-0.487671 0.163004 -0.241975 255 125 0 81 10
-0.551332 0.178476 -0.241974 255 125 0 81 10
-0.602935 0.143564 -0.240982 255 125 0 81 10
-0.535546 0.115147 -0.234982 255 125 0 81 10
-0.505559 0.162827 -0.235930 255 125 0 81 10
-0.583463 0.080662 -0.234952 255 125 0 81 10
-0.526474 0.197506 -0.236268 255 125 0 81 10
-0.475529 0.201585 -0.235992 255 125 0 81 10
-0.519581 0.042830 -0.235944 255 125 0 81 10
-0.494068 0.086016 -0.235638 255 125 0 81 10
-0.470307 0.125607 -0.235314 255 125 0 81 10
-0.559002 0.139938 -0.236068 255 125 0 81 10
-0.564085 0.111265 -0.235578 255 125 0 81 10
-0.541418 0.080182 -0.235914 255 125 0 81 10
-0.497045 0.025163 -0.243728 255 125 0 81 10
-0.559305 0.080006 -0.235404 255 125 0 81 10
-0.532214 0.144675 -0.235397 255 125 0 81 10
-0.591843 0.204911 -0.235953 255 125 0 81 10
-0.497839 0.105657 -0.235637 255 125 0 81 10
-0.563910 0.093377 -0.241853 255 125 0 81 10
-0.518617 0.035683 -0.241875 255 125 0 81 10
-0.551944 0.149847 -0.235561 255 125 0 81 10
-0.541638 0.102541 -0.241923 255 125 0 81 10
-0.475607 0.028057 -0.235350 255 125 0 81 10
-0.583335 0.158483 -0.241966 255 125 0 81 10
-0.552727 0.047870 -0.241914 255 125 0 81 10
-0.486051 0.180015 -0.241954 255 125 0 81 10
-0.544704 0.050632 -0.241980 255 125 0 81 10
-0.580087 0.101268 -0.241934 255 125 0 81 10
-0.504412 0.046558 -0.241939 255 125 0 81 10
-0.533086 0.051641 -0.241927 255 125 0 81 10
-0.590785 0.097585 -0.241911 255 125 0 81 10
-0.593327 0.083248 -0.241937 255 125 0 81 10
-0.548261 0.139150 -0.241968 255 125 0 81 10
-0.545806 0.162430 -0.241949 255 125 0 81 10
-0.489022 0.034600 -0.240982 255 125 0 81 10
-0.485049 0.127318 -0.240982 255 125 0 81 10
-0.465814 0.075510 -0.240982 255 125 0 81 10
-0.505471 0.153883 -0.241936 255 125 0 81 10
-0.483856 0.138890 -0.236274 255 125 0 81 10
-0.573339 0.142481 -0.241944 255 125 0 81 10
-0.521870 0.184134 -0.236055 255 125 0 81 10
-0.551640 0.209780 -0.241944 255 125 0 81 10
-0.488372 0.143319 -0.241959 255 125 0 81 10
-0.540991 0.135806 -0.234982 255 125 0 81 10
-0.484379 0.101318 -0.241885 255 125 0 81 10
-0.591148 0.215461 -0.234982 255 125 0 81 10
-0.481265 0.057519 -0.235200 255 125 0 81 10
-0.497227 0.134287 -0.241909 255 125 0 81 10
-0.556592 0.167690 -0.241976 255 125 0 81 10
-0.523050 0.122404 -0.241872 255 125 0 81 10
-0.547599 0.072071 -0.235053 255 125 0 81 10
-0.601835 0.129676 -0.239736 255 125 0 81 10
-0.517789 0.133189 -0.235289 255 125 0 81 10
-0.488791 0.019276 -0.240982 255 125 0 81 10
-0.600655 0.191407 -0.238089 255 125 0 81 10
-0.492359 0.094083 -0.235104 255 125 0 81 10
-0.567984 0.053086 -0.235700 255 125 0 81 10
-0.489337 0.150465 -0.236127 255 125 0 81 10
-0.469916 0.176596 -0.235946 255 125 0 81 10
-0.529055 0.096405 -0.235728 255 125 0 81 10
-0.487578 0.062824 -0.235493 255 125 0 81 10
-0.572109 0.108503 -0.241972 255 125 0 81 10
-0.579823 0.074436 -0.241948 255 125 0 81 10
-0.522608 0.077684 -0.235616 255 125 0 81 10
-0.583506 0.085134 -0.241868 255 125 0 81 10
-0.491178 0.155814 -0.241891 255 125 0 81 10
-0.501440 0.198646 -0.235879 255 125 0 81 10
-0.510947 0.074221 -0.235724 255 125 0 81 10
-0.581444 0.057425 -0.241947 255 125 0 81 10
-0.536862 0.162519 -0.241901 255 125 0 81 10
-0.519846 0.069662 -0.241895 255 125 0 81 10
-0.546287 0.120385 -0.241878 255 125 0 81 10
-0.606699 0.078644 -0.237930 255 125 0 81 10
-0.519676 0.143009 -0.241947 255 125 0 81 10
-0.581846 0.188909 -0.235188 255 125 0 81 10
-0.598113 0.205743 -0.241400 255 125 0 81 10
-0.462468 0.164062 -0.238982 255 125 0 81 10
-0.488107 0.116488 -0.241955 255 125 0 81 10
-0.569611 0.127311 -0.241830 255 125 0 81 10
-0.532611 0.184922 -0.241948 255 125 0 81 10
-0.474281 0.087491 -0.242982 255 125 0 81 10
-0.545712 0.062250 -0.241936 255 125 0 81 10
-0.601614 0.107317 -0.235797 255 125 0 81 10
-0.493715 0.050240 -0.241914 255 125 0 81 10
-0.501572 0.212062 -0.241951 255 125 0 81 10
-0.610400 0.052805 -0.238982 255 125 0 81 10
-0.596250 0.178133 -0.234982 255 125 0 81 10
-0.469255 0.109518 -0.236002 255 125 0 81 10
-0.570046 0.080794 -0.235456 255 125 0 81 10
-0.576448 0.095043 -0.235536 255 125 0 81 10
-0.471119 0.121552 -0.242982 255 125 0 81 10
-0.579084 0.180886 -0.241980 255 125 0 81 10
-0.568204 0.075446 -0.241898 255 125 0 81 10
-0.601702 0.116261 -0.234946 255 125 0 81 10
-0.472899 0.206978 -0.241936 255 125 0 81 10
-0.555489 0.055892 -0.235563 255 125 0 81 10
-0.468328 0.056669 -0.240982 255 125 0 81 10
-0.519107 0.176111 -0.235531 255 125 0 81 10
-0.546374 0.129329 -0.235562 255 125 0 81 10
-0.467942 0.157831 -0.243763 255 125 0 81 10
-0.541898 0.038137 -0.235562 255 125 0 81 10
-0.500911 0.144983 -0.235414 255 125 0 81 10
-0.499240 0.066287 -0.241935 255 125 0 81 10
-0.480828 0.104036 -0.235298 255 125 0 81 10
-0.469964 0.044189 -0.240982 255 125 0 81 10
-0.490649 0.102150 -0.235158 255 125 0 81 10
-0.522040 0.110785 -0.235302 255 125 0 81 10
-0.491349 0.082465 -0.241904 255 125 0 81 10
-0.462026 0.147150 -0.240982 255 125 0 81 10
-0.545327 0.204475 -0.241972 255 125 0 81 10
-0.577242 0.175537 -0.235086 255 125 0 81 10
-0.485692 0.053003 -0.241944 255 125 0 81 10
-0.551507 0.196364 -0.235679 255 125 0 81 10
-0.507489 0.177119 -0.235486 255 125 0 81 10
-0.525768 0.125955 -0.235113 255 125 0 81 10
-0.487804 0.176419 -0.235410 255 125 0 81 10
-0.562503 0.041512 -0.241942 255 125 0 81 10
-0.575119 0.189015 -0.240982 255 125 0 81 10
-0.513501 0.196728 -0.240982 255 125 0 81 10
-0.564179 0.211445 -0.235442 255 125 0 81 10
-0.531822 0.195664 -0.241945 255 125 0 81 10
-0.586710 0.137876 -0.241965 255 125 0 81 10
-0.521203 0.025819 -0.243616 255 125 0 81 10
-0.473643 0.191765 -0.241973 255 125 0 81 10
-0.595174 0.142004 -0.234982 255 125 0 81 10
-0.501083 0.071635 -0.235483 255 125 0 81 10
-0.543705 0.221486 -0.241942 255 125 0 81 10
-0.513758 0.177953 -0.241939 255 125 0 81 10
-0.476669 0.146511 -0.240982 255 125 0 81 10
-0.589081 0.196889 -0.241895 255 125 0 81 10
-0.586097 0.166505 -0.241913 255 125 0 81 10
-0.599797 0.099756 -0.246982 255 125 0 81 10
-0.532876 0.211754 -0.241930 255 125 0 81 10
-0.479560 0.156823 -0.235322 255 125 0 81 10
-0.501396 0.194175 -0.241930 255 125 0 81 10
-0.559172 0.066590 -0.235567 255 125 0 81 10
-0.545150 0.186588 -0.241906 255 125 0 81 10
-0.546639 0.156161 -0.235360 255 125 0 81 10
-0.550625 0.106926 -0.241976 255 125 0 81 10
-0.507616 0.099299 -0.235853 255 125 0 81 10
-0.605408 0.133645 -0.244982 255 125 0 81 10
-0.546242 0.115913 -0.235878 255 125 0 81 10
-0.560187 0.169444 -0.235403 255 125 0 81 10
-0.463034 0.204392 -0.235696 255 125 0 81 10
-0.475353 0.183698 -0.235977 255 125 0 81 10
-0.610729 0.033881 -0.245898 255 125 0 81 10
-0.590344 0.052866 -0.241877 255 125 0 81 10
-0.591164 0.226832 -0.240982 255 125 0 81 10
-0.534756 0.130338 -0.241964 255 125 0 81 10
-0.476577 0.126440 -0.241917 255 125 0 81 10
-0.557728 0.101489 -0.235687 255 125 0 81 10
-0.556283 0.136387 -0.241951 255 125 0 81 10
-0.499681 0.111006 -0.241948 255 125 0 81 10
-0.598692 0.174874 -0.242982 255 125 0 81 10
-0.477321 0.111227 -0.235737 255 125 0 81 10
-0.568431 0.189042 -0.236065 255 125 0 81 10
-0.512524 0.052739 -0.241866 255 125 0 81 10
-0.594639 0.034933 -0.236038 255 125 0 81 10
-0.546154 0.106970 -0.236138 255 125 0 81 10
-0.525062 0.054404 -0.241963 255 125 0 81 10
-0.534541 0.199215 -0.235585 255 125 0 81 10
-0.472103 0.062615 -0.242982 255 125 0 81 10
-0.463823 0.193651 -0.243683 255 125 0 81 10
-0.508807 0.220041 -0.238051 255 125 0 81 10
-0.528751 0.156337 -0.241956 255 125 0 81 10
-0.536537 0.220215 -0.238982 255 125 0 81 10
-0.600164 0.050980 -0.235862 255 125 0 81 10
-0.527321 0.145584 -0.240982 255 125 0 81 10
-0.530482 0.102602 -0.240982 255 125 0 81 10
-0.482885 0.040508 -0.236344 255 125 0 81 10
-0.565144 0.218591 -0.236485 255 125 0 81 10
-0.471978 0.106395 -0.242982 255 125 0 81 10
-0.492668 0.125387 -0.241891 255 125 0 81 10
-0.494205 0.190668 -0.235840 255 125 0 81 10
-0.555015 0.189174 -0.235953 255 125 0 81 10
-0.471532 0.068348 -0.235296 255 125 0 81 10
-0.500029 0.055545 -0.236039 255 125 0 81 10
-0.552574 0.075557 -0.240982 255 125 0 81 10
-0.508096 0.057255 -0.235296 255 125 0 81 10
-0.505790 0.020919 -0.240982 255 125 0 81 10
-0.574524 0.171986 -0.241867 255 125 0 81 10
-0.585877 0.144146 -0.234741 255 125 0 81 10
-0.502532 0.127972 -0.235600 255 125 0 81 10
-0.578378 0.109335 -0.235865 255 125 0 81 10
-0.510643 0.134154 -0.235723 255 125 0 81 10
-0.470876 0.092507 -0.236003 255 125 0 81 10
-0.488631 0.078914 -0.235678 255 125 0 81 10
-0.591006 0.119945 -0.235130 255 125 0 81 10
-0.493626 0.041297 -0.235747 255 125 0 81 10
-0.560976 0.158703 -0.235161 255 125 0 81 10
-0.478331 0.122845 -0.235412 255 125 0 81 10
-0.551327 0.087241 -0.236013 255 125 0 81 10
-0.602946 0.087939 -0.242982 255 125 0 81 10
-0.599199 0.043834 -0.236195 255 125 0 81 10
-0.551415 0.096184 -0.235032 255 125 0 81 10
-0.473463 0.082641 -0.235954 255 125 0 81 10
-0.545939 0.175846 -0.235268 255 125 0 81 10
-0.548525 0.165981 -0.235573 255 125 0 81 10
-0.558781 0.117578 -0.235666 255 125 0 81 10
-0.539404 0.148182 -0.235648 255 125 0 81 10
-0.537695 0.156249 -0.235249 255 125 0 81 10
-0.534712 0.125867 -0.236198 255 125 0 81 10
-0.556195 0.127444 -0.235831 255 125 0 81 10
-0.531602 0.173304 -0.235534 255 125 0 81 10
-0.564968 0.200703 -0.241935 255 125 0 81 10
-0.531685 0.091012 -0.241845 255 125 0 81 10
-0.560926 0.062995 -0.241909 255 125 0 81 10
-0.533351 0.078473 -0.241859 255 125 0 81 10
-0.576277 0.168392 -0.235535 255 125 0 81 10
-0.503100 0.094871 -0.241944 255 125 0 81 10
-0.575963 0.045852 -0.241945 255 125 0 81 10
-0.538219 0.118676 -0.241945 255 125 0 81 10
-0.465224 0.154280 -0.235666 255 125 0 81 10
-0.558693 0.108635 -0.241913 255 125 0 81 10
-0.549931 0.217847 -0.241899 255 125 0 81 10
-0.511697 0.150244 -0.241962 255 125 0 81 10
-0.536858 0.071283 -0.241927 255 125 0 81 10
-0.497580 0.170062 -0.241976 255 125 0 81 10
-0.568028 0.057558 -0.241884 255 125 0 81 10
-0.535109 0.166113 -0.234921 255 125 0 81 10
-0.509672 0.035772 -0.241973 255 125 0 81 10
-0.555103 0.198117 -0.241964 255 125 0 81 10
-0.512700 0.070627 -0.241980 255 125 0 81 10
-0.593812 0.132439 -0.241914 255 125 0 81 10
-0.544135 0.083733 -0.241902 255 125 0 81 10
-0.548348 0.148094 -0.241939 255 125 0 81 10
-0.557028 0.121174 -0.241925 255 125 0 81 10
-0.489734 0.190712 -0.241940 255 125 0 81 10
-0.524054 0.042786 -0.241947 255 125 0 81 10
-0.561058 0.076410 -0.241916 255 125 0 81 10
-0.534321 0.176855 -0.241934 255 125 0 81 10
-0.521213 0.208290 -0.241962 255 125 0 81 10
-0.481138 0.135339 -0.241923 255 125 0 81 10
-0.565712 0.185490 -0.241946 255 125 0 81 10
-0.536245 0.099912 -0.235334 255 125 0 81 10
-0.477283 0.197991 -0.241974 255 125 0 81 10
-0.593939 0.054619 -0.235901 255 125 0 81 10
-0.556113 0.209735 -0.235869 255 125 0 81 10
-0.597006 0.144139 -0.244982 255 125 0 81 10
-0.610773 0.038352 -0.237249 255 125 0 81 10
-0.522223 0.219909 -0.238052 255 125 0 81 10
-0.494773 0.157566 -0.235968 255 125 0 81 10
-0.534139 0.067731 -0.235355 255 125 0 81 10
-0.501308 0.185231 -0.235936 255 125 0 81 10
-0.498192 0.141432 -0.241914 255 125 0 81 10
-0.497531 0.074354 -0.241920 255 125 0 81 10
-0.584830 0.219291 -0.236382 255 125 0 81 10
-0.597187 0.111833 -0.241872 255 125 0 81 10
-0.555356 0.042477 -0.235419 255 125 0 81 10
-0.557336 0.152477 -0.241976 255 125 0 81 10
-0.603804 0.057205 -0.245739 255 125 0 81 10
-0.581488 0.061898 -0.235972 255 125 0 81 10
-0.535803 0.055193 -0.236083 255 125 0 81 10
-0.460095 0.178481 -0.241967 255 125 0 81 10
-0.575483 0.087896 -0.241939 255 125 0 81 10
-0.597716 0.165496 -0.243421 255 125 0 81 10
-0.582238 0.137921 -0.236038 255 125 0 81 10
-0.517133 0.157346 -0.241934 255 125 0 81 10
-0.517045 0.148402 -0.235307 255 125 0 81 10
-0.581179 0.030594 -0.235655 255 125 0 81 10
-0.600040 0.035343 -0.246982 255 125 0 81 10
-0.558820 0.030815 -0.236195 255 125 0 81 10
-0.601661 0.214149 -0.238982 255 125 0 81 10
-0.597446 0.047428 -0.241906 255 125 0 81 10
-0.557529 0.181499 -0.240982 255 125 0 81 10
-0.520331 0.118852 -0.235320 255 125 0 81 10
-0.473467 0.173877 -0.241955 255 125 0 81 10
-0.595169 0.088596 -0.235647 255 125 0 81 10
-0.603821 0.103943 -0.242982 255 125 0 81 10
-0.505250 0.204522 -0.234982 255 125 0 81 10
-0.587499 0.127135 -0.235659 255 125 0 81 10
-0.596486 0.131518 -0.235605 255 125 0 81 10
-0.609121 0.066475 -0.244982 255 125 0 81 10
-0.556200 0.218679 -0.236173 255 125 0 81 10
-0.567901 0.135378 -0.241919 255 125 0 81 10
-0.478066 0.096013 -0.235764 255 125 0 81 10
-0.575009 0.221178 -0.236225 255 125 0 81 10
-0.533874 0.040900 -0.235719 255 125 0 81 10
-0.515948 0.127840 -0.241955 255 125 0 81 10
-0.520023 0.087549 -0.241978 255 125 0 81 10
-0.476492 0.046290 -0.240982 255 125 0 81 10
-0.560979 0.203209 -0.234982 255 125 0 81 10
-0.508880 0.026484 -0.244982 255 125 0 81 10
-0.476642 0.021372 -0.242982 255 125 0 81 10
-0.463956 0.207066 -0.241927 255 125 0 81 10
-0.542838 0.029696 -0.244982 255 125 0 81 10
-0.586230 0.179921 -0.241960 255 125 0 81 10
-0.503426 0.080516 -0.240982 255 125 0 81 10
-0.588729 0.161112 -0.235752 255 125 0 81 10
-0.521468 0.052651 -0.235190 255 125 0 81 10
-0.489332 0.059229 -0.241913 255 125 0 81 10
-0.478200 0.033773 -0.240982 255 125 0 81 10
-0.590438 0.153045 -0.241911 255 125 0 81 10
-0.585828 0.048438 -0.235765 255 125 0 81 10
-0.566457 0.170277 -0.241947 255 125 0 81 10
-0.538048 0.192024 -0.241956 255 125 0 81 10
-0.464826 0.114033 -0.238635 255 125 0 81 10
-0.506216 0.138670 -0.241963 255 125 0 81 10
-0.585485 0.195134 -0.235628 255 125 0 81 10
-0.493506 0.210353 -0.241953 255 125 0 81 10
-0.571664 0.200660 -0.240982 255 125 0 81 10
-0.464474 0.128443 -0.240982 255 125 0 81 10
-0.604822 0.162287 -0.238982 255 125 0 81 10
-0.476494 0.208732 -0.236500 255 125 0 81 10
-0.479643 0.074530 -0.241965 255 125 0 81 10
-0.488239 0.129903 -0.235634 255 125 0 81 10
-0.541550 0.093598 -0.241969 255 125 0 81 10
-0.547741 0.096618 -0.240982 255 125 0 81 10
-0.522741 0.091100 -0.235817 255 125 0 81 10
-0.610704 0.044994 -0.244982 255 125 0 81 10
-0.558477 0.177511 -0.235665 255 125 0 81 10
-0.604320 0.069833 -0.240982 255 125 0 81 10
-0.562508 0.132748 -0.235848 255 125 0 81 10
-0.585265 0.172775 -0.235402 255 125 0 81 10
-0.591530 0.082371 -0.235559 255 125 0 81 10
-0.606213 0.029452 -0.236224 255 125 0 81 10
-0.468339 0.198079 -0.235634 255 125 0 81 10
-0.596398 0.122574 -0.241939 255 125 0 81 10
-0.548891 0.069420 -0.240982 255 125 0 81 10
-0.553780 0.063960 -0.241918 255 125 0 81 10
-0.566412 0.165805 -0.235845 255 125 0 81 10
-0.494029 0.172780 -0.235996 255 125 0 81 10
-0.488322 0.047610 -0.235829 255 125 0 81 10
-0.525302 0.190258 -0.234982 255 125 0 81 10
-0.573423 0.149198 -0.240982 255 125 0 81 10
-0.555842 0.091668 -0.241923 255 125 0 81 10
-0.480652 0.086149 -0.241972 255 125 0 81 10
-0.593954 0.191459 -0.240982 255 125 0 81 10
-0.575754 0.205964 -0.235390 255 125 0 81 10
-0.600675 0.198092 -0.236982 255 125 0 81 10
-0.498551 0.215040 -0.236982 255 125 0 81 10
-0.597098 0.102889 -0.241896 255 125 0 81 10
-0.571216 0.178767 -0.234982 255 125 0 81 10
-0.473715 0.155120 -0.240982 255 125 0 81 10
-0.505906 0.107366 -0.235578 255 125 0 81 10
-0.512132 0.103727 -0.241949 255 125 0 81 10
-0.525289 0.168000 -0.241929 255 125 0 81 10
-0.504903 0.186985 -0.241966 255 125 0 81 10
-0.596701 0.062642 -0.241904 255 125 0 81 10
-0.534663 0.030159 -0.245886 255 125 0 81 10
-0.539101 0.208115 -0.241901 255 125 0 81 10
-0.482929 0.044981 -0.241889 255 125 0 81 10
-0.480994 0.210927 -0.240982 255 125 0 81 10
-0.597684 0.165559 -0.234982 255 125 0 81 10
-0.510100 0.078258 -0.240982 255 125 0 81 10
-0.512325 0.167207 -0.240982 255 125 0 81 10
-0.488759 0.215522 -0.236982 255 125 0 81 10
-0.517472 0.099656 -0.240982 255 125 0 81 10
-0.503351 0.167353 -0.240982 255 125 0 81 10
-0.517103 0.021594 -0.240982 255 125 0 81 10
-0.568117 0.066502 -0.235445 255 125 0 81 10
-0.555666 0.073781 -0.235613 255 125 0 81 10
-0.574243 0.156273 -0.240982 255 125 0 81 10
-0.478054 0.180565 -0.240982 255 125 0 81 10
-0.464715 0.185185 -0.242982 255 125 0 81 10
-0.479688 0.079002 -0.236055 255 125 0 81 10
-0.538390 0.045328 -0.241889 255 125 0 81 10
-0.496213 0.031432 -0.241953 255 125 0 81 10
-0.494276 0.115045 -0.240982 255 125 0 81 10
-0.577193 0.079829 -0.235945 255 125 0 81 10
-0.587936 0.212923 -0.240982 255 125 0 81 10
-0.513234 0.215525 -0.236193 255 125 0 81 10
-0.551873 0.026809 -0.242982 255 125 0 81 10
-0.584692 0.114640 -0.236400 255 125 0 81 10
-0.519758 0.060718 -0.235114 255 125 0 81 10
-0.477757 0.064709 -0.235257 255 125 0 81 10
-0.575174 0.056593 -0.236137 255 125 0 81 10
-0.497707 0.092242 -0.239777 255 125 0 81 10
-0.566721 0.197109 -0.235911 255 125 0 81 10
-0.535192 0.083822 -0.235918 255 125 0 81 10
-0.584295 0.074393 -0.235673 255 125 0 81 10
-0.492541 0.203207 -0.235756 255 125 0 81 10
-0.576668 0.117402 -0.235940 255 125 0 81 10
-0.520684 0.154627 -0.235733 255 125 0 81 10
-0.481838 0.115654 -0.235099 255 125 0 81 10
-0.513312 0.041997 -0.235336 255 125 0 81 10
-0.494420 0.121791 -0.236002 255 125 0 81 10
-0.503012 0.085928 -0.236189 255 125 0 81 10
-0.548407 0.198161 -0.240982 255 125 0 81 10
-0.508586 0.197681 -0.236156 255 125 0 81 10
-0.514586 0.080447 -0.236292 255 125 0 81 10
-0.571540 0.141604 -0.235653 255 125 0 81 10
-0.591750 0.104731 -0.235512 255 125 0 81 10
-0.567724 0.117490 -0.235743 255 125 0 81 10
-0.496169 0.026960 -0.235396 255 125 0 81 10
-0.554524 0.048747 -0.235897 255 125 0 81 10
-0.503535 0.048355 -0.235861 255 125 0 81 10
-0.472281 0.144371 -0.235932 255 125 0 81 10
-0.498784 0.153906 -0.240982 255 125 0 81 10
-0.603594 0.085010 -0.236982 255 125 0 81 10
-0.569606 0.036075 -0.235923 255 125 0 81 10
-0.467153 0.168572 -0.235333 255 125 0 81 10
-0.601174 0.062598 -0.236113 255 125 0 81 10
-0.507136 0.141344 -0.236070 255 125 0 81 10
-0.577673 0.037785 -0.235512 255 125 0 81 10
-0.568513 0.106749 -0.235222 255 125 0 81 10
-0.526733 0.133100 -0.236045 255 125 0 81 10
-0.483464 0.189879 -0.235819 255 125 0 81 10
-0.501606 0.034062 -0.236206 255 125 0 81 10
-0.540811 0.200048 -0.235299 255 125 0 81 10
-0.525719 0.030247 -0.235963 255 125 0 81 10
-0.591662 0.095788 -0.235737 255 125 0 81 10
-0.474775 0.034328 -0.235688 255 125 0 81 10
-0.542030 0.051554 -0.235569 255 125 0 81 10
-0.548166 0.038970 -0.235831 255 125 0 81 10
-0.521031 0.099167 -0.235332 255 125 0 81 10
-0.568816 0.046816 -0.235469 255 125 0 81 10
-0.547868 0.190139 -0.235453 255 125 0 81 10
-0.552776 0.143578 -0.235806 255 125 0 81 10
-0.562068 0.088029 -0.235990 255 125 0 81 10
-0.541726 0.111485 -0.235397 255 125 0 81 10
-0.480525 0.163969 -0.235825 255 125 0 81 10
-0.530175 0.162542 -0.240982 255 125 0 81 10
-0.564438 0.147040 -0.235709 255 125 0 81 10
-0.589334 0.041247 -0.236005 255 125 0 81 10
-0.493411 0.110173 -0.235431 255 125 0 81 10
-0.525377 0.176944 -0.235357 255 125 0 81 10
-0.528834 0.074046 -0.235445 255 125 0 81 10
-0.546898 0.091757 -0.235681 255 125 0 81 10
-0.469084 0.182865 -0.235760 255 125 0 81 10
-0.509375 0.186940 -0.235671 255 125 0 81 10
-0.530063 0.108023 -0.235439 255 125 0 81 10
-0.544494 0.210745 -0.235868 255 125 0 81 10
-0.566937 0.128232 -0.235703 255 125 0 81 10
-0.594159 0.076978 -0.241821 255 125 0 81 10
-0.572942 0.102233 -0.241859 255 125 0 81 10
-0.532253 0.057911 -0.241829 255 125 0 81 10
-0.537083 0.184878 -0.235786 255 125 0 81 10
-0.561853 0.156906 -0.241978 255 125 0 81 10
-0.518969 0.071459 -0.235665 255 125 0 81 10
-0.558997 0.048703 -0.241914 255 125 0 81 10
-0.506960 0.123456 -0.241938 255 125 0 81 10
-0.526072 0.066022 -0.241874 255 125 0 81 10
-0.579392 0.212189 -0.241936 255 125 0 81 10
-0.550367 0.171331 -0.241959 255 125 0 81 10
-0.588414 0.038573 -0.241930 255 125 0 81 10
-0.585745 0.130730 -0.241925 255 125 0 81 10
-0.519284 0.193998 -0.241927 255 125 0 81 10
-0.527478 0.117888 -0.241925 255 125 0 81 10
-0.475568 0.114821 -0.241952 255 125 0 81 10
-0.496919 0.102983 -0.241873 255 125 0 81 10
-0.532032 0.035552 -0.241873 255 125 0 81 10
-0.580181 0.201448 -0.241939 255 125 0 81 10
-0.584251 0.069920 -0.241925 255 125 0 81 10
-0.582282 0.142392 -0.241945 255 125 0 81 10
-0.572633 0.070930 -0.241909 255 125 0 81 10
-0.584603 0.105696 -0.241950 255 125 0 81 10
-0.502527 0.036737 -0.241945 255 125 0 81 10
-0.572544 0.061986 -0.241905 255 125 0 81 10
-0.569214 0.087064 -0.241970 255 125 0 81 10
-0.483591 0.112059 -0.241938 255 125 0 81 10
-0.567681 0.113019 -0.241915 255 125 0 81 10
-0.555627 0.160544 -0.241961 255 125 0 81 10
-0.483376 0.180935 -0.235944 255 125 0 81 10
-0.589820 0.090438 -0.241879 255 125 0 81 10
-0.482102 0.142486 -0.241939 255 125 0 81 10
-0.542079 0.147262 -0.241954 255 125 0 81 10
-0.515595 0.092065 -0.241948 255 125 0 81 10
-0.585657 0.121786 -0.241938 255 125 0 81 10
-0.507528 0.090355 -0.241971 255 125 0 81 10
-0.539184 0.125822 -0.241960 255 125 0 81 10
-0.515771 0.109953 -0.241887 255 125 0 81 10
-0.519196 0.185054 -0.241962 255 125 0 81 10
-0.444025 0.133871 -0.252982 255 125 0 82 11
-0.480035 0.023542 -0.243684 255 125 0 82 11
-0.447021 0.072981 -0.250982 255 125 0 82 11
-0.450187 0.039115 -0.250982 255 125 0 82 11
-0.452757 0.103696 -0.246982 255 125 0 82 11
-0.472321 0.057607 -0.241778 255 125 0 82 11
-0.465438 0.085404 -0.241974 255 125 0 82 11
-0.451441 0.056325 -0.244982 255 125 0 82 11
-0.470346 0.038843 -0.241952 255 125 0 82 11
-0.443388 0.116928 -0.251976 255 125 0 82 11
-0.445798 0.089175 -0.249768 255 125 0 82 11
-0.455141 0.024395 -0.248982 255 125 0 82 11
-0.467981 0.071067 -0.241943 255 125 0 82 11
-0.450797 0.145019 -0.248982 255 125 0 82 11
-0.457372 0.083695 -0.251979 255 125 0 82 11
-0.458080 0.066239 -0.248982 255 125 0 82 11
-0.458362 0.049728 -0.252982 255 125 0 82 11
-0.447993 0.125736 -0.244982 255 125 0 82 11
-0.460376 0.033981 -0.250982 255 125 0 82 11
-0.453909 0.095356 -0.253957 255 125 0 82 11
-0.469378 0.025019 -0.244982 255 125 0 82 11
-0.452096 0.114500 -0.246982 255 125 0 82 11
-0.474907 0.047743 -0.241752 255 125 0 82 11
-0.453423 0.046166 -0.244702 255 125 0 82 11
-0.440996 0.142464 -0.248982 255 125 0 82 11
-0.443313 0.105765 -0.248982 255 125 0 82 11
-0.478234 0.033790 -0.244982 255 125 0 82 11
-0.450181 0.080188 -0.245682 255 125 0 82 11
-0.448249 0.063669 -0.250982 255 125 0 82 11
-0.451458 0.134215 -0.246982 255 125 0 82 11
-0.453865 0.090885 -0.246201 255 125 0 82 11
-0.453291 0.032750 -0.245719 255 125 0 82 11
-0.439929 0.126367 -0.250982 255 125 0 82 11
-0.458905 0.057740 -0.249966 255 125 0 82 11
-0.444088 0.097243 -0.251973 255 125 0 82 11
-0.449872 0.048884 -0.251960 255 125 0 82 11
-0.456228 0.074236 -0.246982 255 125 0 82 11
-0.457851 0.041650 -0.251889 255 125 0 82 11
-0.452370 0.030076 -0.253909 255 125 0 82 11
-0.448560 0.097198 -0.245533 255 125 0 82 11
-0.453210 0.121718 -0.248982 255 125 0 82 11
-0.450970 0.069446 -0.245105 255 125 0 82 11
-0.452193 0.057814 -0.252982 255 125 0 82 11
-0.444485 0.137490 -0.244891 255 125 0 82 11
-0.448869 0.128502 -0.251933 255 125 0 82 11
-0.468681 0.051382 -0.241940 255 125 0 82 11
-0.469382 0.031697 -0.241880 255 125 0 82 11
-0.467016 0.063921 -0.241871 255 125 0 82 11
-0.445141 0.113332 -0.245845 255 125 0 82 11
-0.447727 0.103468 -0.253897 255 125 0 82 11
-0.448080 0.139243 -0.251720 255 125 0 82 11
-0.476194 0.040541 -0.244982 255 125 0 82 11
-0.449569 0.108816 -0.249831 255 125 0 82 11
-0.454630 0.039131 -0.244982 255 125 0 82 11
-0.449304 0.081985 -0.251923 255 125 0 82 11
-0.444939 0.131036 -0.246982 255 125 0 82 11
-0.475607 0.028057 -0.245956 255 125 0 82 11
-0.451803 0.063177 -0.245457 255 125 0 82 11
-0.466271 0.079134 -0.241928 255 125 0 82 11
-0.459199 0.048011 -0.246982 255 125 0 82 11
-0.451354 0.068658 -0.252982 255 125 0 82 11
-0.418728 0.160531 -0.250982 255 0 0 73 12
-0.437029 0.205059 -0.246982 255 0 0 73 12
-0.447955 0.145858 -0.248982 255 0 0 73 12
-0.408365 0.191080 -0.248982 255 0 0 73 12
-0.440846 0.176888 -0.246982 255 0 0 73 12
-0.426206 0.188655 -0.243452 255 0 0 73 12
-0.436402 0.158626 -0.242982 255 0 0 73 12
-0.414455 0.176249 -0.243411 255 0 0 73 12
-0.419192 0.203036 -0.246114 255 0 0 73 12
-0.428430 0.147460 -0.248982 255 0 0 73 12
-0.430501 0.168498 -0.252982 255 0 0 73 12
-0.440543 0.191197 -0.246018 255 0 0 73 12
-0.415002 0.147588 -0.248982 255 0 0 73 12
-0.431510 0.182342 -0.253967 255 0 0 73 12
-0.431643 0.195757 -0.253976 255 0 0 73 12
-0.427871 0.176116 -0.243493 255 0 0 73 12
-0.439268 0.152747 -0.253849 255 0 0 73 12
-0.409026 0.166925 -0.248982 255 0 0 73 12
-0.426862 0.164498 -0.243189 255 0 0 73 12
-0.419892 0.183351 -0.249968 255 0 0 73 12
-0.420979 0.153747 -0.242982 255 0 0 73 12
-0.429935 0.158197 -0.252982 255 0 0 73 12
-0.420590 0.170339 -0.248982 255 0 0 73 12
-0.409793 0.156172 -0.252982 255 0 0 73 12
-0.428092 0.198476 -0.244317 255 0 0 73 12
-0.417306 0.193215 -0.243454 255 0 0 73 12
-0.435850 0.168881 -0.244080 255 0 0 73 12
-0.435106 0.184095 -0.243448 255 0 0 73 12
-0.437526 0.163023 -0.250982 255 0 0 73 12
-0.410426 0.200986 -0.246982 255 0 0 73 12
-0.415200 0.161035 -0.242996 255 0 0 73 12
-0.411389 0.182536 -0.248982 255 0 0 73 12
-0.422448 0.153444 -0.252982 255 0 0 73 12
-0.428571 0.156431 -0.243503 255 0 0 73 12
-0.436140 0.150038 -0.246982 255 0 0 73 12
-0.422655 0.191373 -0.249952 255 0 0 73 12
-0.429514 0.204685 -0.248982 255 0 0 73 12
-0.431645 0.189082 -0.248982 255 0 0 73 12
-0.410860 0.174495 -0.249963 255 0 0 73 12
-0.435592 0.196784 -0.246982 255 0 0 73 12
-0.427039 0.182385 -0.247842 255 0 0 73 12
-0.413832 0.153693 -0.244982 255 0 0 73 12
-0.431536 0.175678 -0.250982 255 0 0 73 12
-0.415553 0.196811 -0.249926 255 0 0 73 12
-0.421646 0.179755 -0.243067 255 0 0 73 12
-0.416341 0.186068 -0.243662 255 0 0 73 12
-0.423620 0.198520 -0.249967 255 0 0 73 12
-0.416164 0.168182 -0.243764 255 0 0 73 12
-0.441420 0.143774 -0.250982 255 0 0 73 12
-0.425065 0.163621 -0.249964 255 0 0 73 12
-0.415469 0.190094 -0.248982 255 0 0 73 12
-0.409940 0.160695 -0.246982 255 0 0 73 12
-0.415111 0.152091 -0.253792 255 0 0 73 12
-0.418502 0.177077 -0.248982 255 0 0 73 12
-0.431334 0.164454 -0.247859 255 0 0 73 12
-0.440451 0.184477 -0.246982 255 0 0 73 12
-0.421362 0.148401 -0.248982 255 0 0 73 12
-0.421767 0.197755 -0.242982 255 0 0 73 12
-0.440190 0.155422 -0.248161 255 0 0 73 12
-0.435017 0.175151 -0.243596 255 0 0 73 12
-0.422346 0.160070 -0.243594 255 0 0 73 12
-0.422434 0.169014 -0.242812 255 0 0 73 12
-0.434273 0.190364 -0.243319 255 0 0 73 12
-0.428527 0.151958 -0.253716 255 0 0 73 12
-0.425108 0.174769 -0.248982 255 0 0 73 12
-0.411374 0.194772 -0.244982 255 0 0 73 12
-0.415244 0.165507 -0.249704 255 0 0 73 12
-0.441155 0.162568 -0.246020 255 0 0 73 12
-0.426907 0.168970 -0.247766 255 0 0 73 12
0.386189 0.257491 -0.221953 0 0 255 54 13
0.230985 0.304262 -0.048266 0 0 255 54 13
0.235822 0.074932 -0.238982 0 0 255 54 13
0.484131 0.303180 -0.048017 0 0 255 54 13
0.478313 0.076822 -0.238437 0 0 255 54 13
0.231779 0.232894 -0.236982 0 0 255 54 13
0.356953 0.284234 -0.092982 0 0 255 54 13
0.356165 0.127497 -0.219746 0 0 255 54 13
0.485209 0.193619 -0.220982 0 0 255 54 13
0.470040 0.281125 -0.154982 0 0 255 54 13
0.264344 0.279090 -0.146982 0 0 255 54 13
0.271811 0.155288 -0.222731 0 0 255 54 13
0.304292 0.262944 -0.216982 0 0 255 54 13
0.432359 0.137722 -0.218982 0 0 255 54 13
0.310050 0.074010 -0.240982 0 0 255 54 13
0.341121 0.199365 -0.226982 0 0 255 54 13
0.410782 0.303352 -0.046132 0 0 255 54 13
0.304333 0.304091 -0.046134 0 0 255 54 13
0.397134 0.279931 -0.152982 0 0 255 54 13
0.402187 0.075862 -0.238982 0 0 255 54 13
0.458617 0.259994 -0.221919 0 0 255 54 13
0.330948 0.268858 -0.152982 0 0 255 54 13
0.419847 0.201022 -0.226982 0 0 255 54 13
0.443716 0.284191 -0.096982 0 0 255 54 13
0.270042 0.283969 -0.088982 0 0 255 54 13
0.235881 0.275172 -0.196982 0 0 255 54 13
0.281102 0.210836 -0.221625 0 0 255 54 13
0.486630 0.137296 -0.220982 0 0 255 54 13
0.356987 0.316238 -0.049987 0 0 255 54 13
0.273725 0.104465 -0.220982 0 0 255 54 13
0.355746 0.076453 -0.220982 0 0 255 54 13
0.381223 0.169748 -0.226982 0 0 255 54 13
0.232584 0.185546 -0.222982 0 0 255 54 13
0.234402 0.128774 -0.238982 0 0 255 54 13
0.312533 0.288966 -0.111973 0 0 255 54 13
0.433510 0.263265 -0.180982 0 0 255 54 13
0.319204 0.156650 -0.227942 0 0 255 54 13
0.347167 0.268729 -0.196982 0 0 255 54 13
0.231679 0.287435 -0.114982 0 0 255 54 13
0.400174 0.290725 -0.107973 0 0 255 54 13
0.439687 0.093436 -0.219872 0 0 255 54 13
0.292933 0.262469 -0.174982 0 0 255 54 13
0.316050 0.113684 -0.225945 0 0 255 54 13
0.396545 0.114478 -0.220108 0 0 255 54 13
0.380361 0.213605 -0.220314 0 0 255 54 13
0.264615 0.250030 -0.217620 0 0 255 54 13
0.483300 0.294685 -0.088982 0 0 255 54 13
0.344321 0.240083 -0.225975 0 0 255 54 13
0.433046 0.274692 -0.134982 0 0 255 54 13
0.483550 0.267861 -0.190982 0 0 255 54 13
0.422301 0.240285 -0.216982 0 0 255 54 13
0.362682 0.284533 -0.132982 0 0 255 54 13
0.451431 0.172265 -0.225926 0 0 255 54 13
0.454542 0.219703 -0.225924 0 0 255 54 13
0.447474 0.303258 -0.062982 0 0 255 54 13
0.267670 0.292792 -0.050982 0 0 255 54 13
0.322975 0.287566 -0.074982 0 0 255 54 13
0.381760 0.262096 -0.182982 0 0 255 54 13
0.232185 0.265661 -0.160982 0 0 255 54 13
0.380610 0.291365 -0.064982 0 0 255 54 13
0.273670 0.072415 -0.238982 0 0 255 54 13
0.235141 0.285410 -0.078982 0 0 255 54 13
0.487507 0.230327 -0.218982 0 0 255 54 13
0.476329 0.278059 -0.120408 0 0 255 54 13
0.298022 0.271565 -0.138982 0 0 255 54 13
0.313687 0.222898 -0.224982 0 0 255 54 13
0.308154 0.188742 -0.220915 0 0 255 54 13
0.414864 0.288909 -0.076982 0 0 255 54 13
0.415294 0.166606 -0.226982 0 0 255 54 13
0.474453 0.105407 -0.219696 0 0 255 54 13
0.260242 0.261065 -0.178982 0 0 255 54 13
0.239239 0.102193 -0.220734 0 0 255 54 13
0.350464 0.161431 -0.221871 0 0 255 54 13
0.240898 0.160342 -0.240982 0 0 255 54 13
0.408880 0.267516 -0.200982 0 0 255 54 13
0.249066 0.213110 -0.218982 0 0 255 54 13
0.359595 0.275963 -0.164982 0 0 255 54 13
0.278616 0.285481 -0.118982 0 0 255 54 13
0.293664 0.298169 -0.074982 0 0 255 54 13
0.290839 0.130430 -0.220237 0 0 255 54 13
0.263896 0.184683 -0.226982 0 0 255 54 13
0.335352 0.294693 -0.046982 0 0 255 54 13
0.320758 0.271602 -0.180982 0 0 255 54 13
0.236544 0.290424 -0.144982 0 0 255 54 13
0.236816 0.259139 -0.222982 0 0 255 54 13
0.382863 0.141177 -0.219247 0 0 255 54 13
0.256861 0.129201 -0.220037 0 0 255 54 13
0.373616 0.081156 -0.243798 0 0 255 54 13
0.338719 0.082601 -0.243951 0 0 255 54 13
0.335050 0.275825 -0.124982 0 0 255 54 13
0.479228 0.165383 -0.218276 0 0 255 54 13
0.369870 0.103011 -0.224982 0 0 255 54 13
0.341216 0.101409 -0.220653 0 0 255 54 13
0.297506 0.089350 -0.220694 0 0 255 54 13
0.385113 0.314594 -0.048982 0 0 255 54 13
0.289781 0.237756 -0.223921 0 0 255 54 13
0.450516 0.083704 -0.243921 0 0 255 54 13
0.459019 0.128511 -0.223874 0 0 255 54 13
0.280991 0.265358 -0.200982 0 0 255 54 13
0.348642 0.299130 -0.070982 0 0 255 54 13
0.458918 0.274298 -0.180982 0 0 255 54 13
0.407472 0.264630 -0.172982 0 0 255 54 13
0.433523 0.265558 -0.212982 0 0 255 54 13
0.236426 0.205924 -0.241835 0 0 255 54 13
0.359739 0.262571 -0.220982 0 0 255 54 13
0.388416 0.275744 -0.126982 0 0 255 54 13
0.412855 0.093171 -0.220303 0 0 255 54 13
0.328065 0.074446 -0.220754 0 0 255 54 13
0.443661 0.279515 -0.158982 0 0 255 54 13
0.255549 0.080886 -0.221511 0 0 255 54 13
0.254529 0.274976 -0.122145 0 0 255 54 13
0.328024 0.254707 -0.208982 0 0 255 54 13
0.398507 0.232562 -0.224982 0 0 255 54 13
0.394874 0.193175 -0.227977 0 0 255 54 13
0.452520 0.288555 -0.122982 0 0 255 54 13
0.367166 0.191113 -0.221269 0 0 255 54 13
0.294959 0.166250 -0.227956 0 0 255 54 13
0.425257 0.289616 -0.114982 0 0 255 54 13
0.331042 0.135299 -0.219025 0 0 255 54 13
0.385235 0.082165 -0.220335 0 0 255 54 13
0.381350 0.295455 -0.090982 0 0 255 54 13
0.369399 0.236752 -0.218234 0 0 255 54 13
0.470250 0.292149 -0.066982 0 0 255 54 13
0.407487 0.136912 -0.224982 0 0 255 54 13
0.459116 0.077284 -0.220982 0 0 255 54 13
0.426708 0.075952 -0.232982 0 0 255 54 13
0.234250 0.146712 -0.220982 0 0 255 54 13
0.443742 0.197559 -0.220982 0 0 255 54 13
0.293503 0.281886 -0.096982 0 0 255 54 13
0.256533 0.297334 -0.072982 0 0 255 54 13
0.334399 0.292740 -0.098982 0 0 255 54 13
0.482726 0.261587 -0.214982 0 0 255 54 13
0.425173 0.113866 -0.225980 0 0 255 54 13
0.331522 0.177344 -0.221670 0 0 255 54 13
0.248442 0.166685 -0.218877 0 0 255 54 13
0.307323 0.275930 -0.160982 0 0 255 54 13
0.249358 0.255247 -0.199669 0 0 255 54 13
0.248385 0.280627 -0.098982 0 0 255 54 13
0.235413 0.308778 -0.071949 0 0 255 54 13
0.452025 0.258759 -0.198982 0 0 255 54 13
0.410496 0.284516 -0.132982 0 0 255 54 13
0.355603 0.217594 -0.220982 0 0 255 54 13
0.282816 0.312360 -0.050982 0 0 255 54 13
0.419992 0.278833 -0.158982 0 0 255 54 13
0.236378 0.301631 -0.095970 0 0 255 54 13
0.374691 0.288663 -0.112982 0 0 255 54 13
0.444937 0.241072 -0.224982 0 0 255 54 13
0.464091 0.294031 -0.102982 0 0 255 54 13
0.461544 0.297933 -0.044982 0 0 255 54 13
0.342015 0.263459 -0.174982 0 0 255 54 13
0.376644 0.269856 -0.148982 0 0 255 54 13
0.239195 0.106665 -0.243839 0 0 255 54 13
0.308369 0.257618 -0.194582 0 0 255 54 13
0.284466 0.277044 -0.158982 0 0 255 54 13
0.431766 0.219685 -0.220982 0 0 255 54 13
0.461473 0.151792 -0.223964 0 0 255 54 13
0.232719 0.271318 -0.132982 0 0 255 54 13
0.245062 0.237315 -0.218899 0 0 255 54 13
0.433186 0.299100 -0.045391 0 0 255 54 13
0.367194 0.296105 -0.046982 0 0 255 54 13
0.267510 0.228592 -0.225848 0 0 255 54 13
0.372435 0.256665 -0.202982 0 0 255 54 13
0.286257 0.189472 -0.226982 0 0 255 54 13
0.465983 0.238599 -0.217479 0 0 255 54 13
0.409426 0.259509 -0.221875 0 0 255 54 13
0.434984 0.298224 -0.081982 0 0 255 54 13
0.239687 0.281042 -0.174982 0 0 255 54 13
0.318890 0.281414 -0.138982 0 0 255 54 13
0.454489 0.273134 -0.140982 0 0 255 54 13
0.399599 0.303236 -0.064982 0 0 255 54 13
0.324358 0.313211 -0.050982 0 0 255 54 13
0.473395 0.212733 -0.217654 0 0 255 54 13
0.351025 0.287994 -0.114982 0 0 255 54 13
0.238275 0.259900 -0.180982 0 0 255 54 13
0.463794 0.188488 -0.218758 0 0 255 54 13
0.261333 0.313938 -0.050982 0 0 255 54 13
0.474608 0.265406 -0.168982 0 0 255 54 13
0.456854 0.297440 -0.082982 0 0 255 54 13
0.435474 0.157796 -0.225850 0 0 255 54 13
0.283367 0.258687 -0.222982 0 0 255 54 13
0.455793 0.318079 -0.048982 0 0 255 54 13
0.350535 0.271073 -0.144982 0 0 255 54 13
0.276837 0.083472 -0.220982 0 0 255 54 13
0.430781 0.180112 -0.221684 0 0 255 54 13
0.486291 0.084057 -0.220181 0 0 255 54 13
0.401844 0.212028 -0.220999 0 0 255 54 13
0.312973 0.244247 -0.221814 0 0 255 54 13
0.334677 0.220310 -0.225959 0 0 255 54 13
0.246948 0.291368 -0.054982 0 0 255 54 13
0.310223 0.293355 -0.090982 0 0 255 54 13
0.310040 0.137860 -0.224982 0 0 255 54 13
0.397025 0.156523 -0.221650 0 0 255 54 13
0.297451 0.276295 -0.118698 0 0 255 54 13
0.254187 0.082654 -0.244982 0 0 255 54 13
0.294612 0.110789 -0.225966 0 0 255 54 13
0.289673 0.292282 -0.054982 0 0 255 54 13
0.416815 0.283785 -0.096982 0 0 255 54 13
0.254349 0.265482 -0.158982 0 0 255 54 13
0.319821 0.094043 -0.220556 0 0 255 54 13
0.453847 0.108782 -0.220284 0 0 255 54 13
0.422461 0.302106 -0.062982 0 0 255 54 13
0.291325 0.081239 -0.243913 0 0 255 54 13
0.375894 0.122324 -0.225920 0 0 255 54 13
0.482978 0.282567 -0.138982 0 0 255 54 13
0.364130 0.271573 -0.184982 0 0 255 54 13
0.322315 0.204088 -0.221677 0 0 255 54 13
0.363504 0.146170 -0.220982 0 0 255 54 13
0.351164 0.181116 -0.227948 0 0 255 54 13
0.381541 0.275335 -0.167977 0 0 255 54 13
0.309218 0.291294 -0.060982 0 0 255 54 13
0.422684 0.318631 -0.050982 0 0 255 54 13
0.239764 0.180830 -0.240982 0 0 255 54 13
0.277810 0.272522 -0.134027 0 0 255 54 13
0.301708 0.207462 -0.220970 0 0 255 54 13
0.274672 0.288902 -0.068982 0 0 255 54 13
0.389208 0.268243 -0.200982 0 0 255 54 13
0.391693 0.296150 -0.046982 0 0 255 54 13
0.253090 0.148842 -0.225919 0 0 255 54 13
0.238142 0.122755 -0.220776 0 0 255 54 13
0.397924 0.286113 -0.086982 0 0 255 54 13
0.263779 0.289378 -0.106982 0 0 255 54 13
0.468378 0.268585 -0.202982 0 0 255 54 13
0.367031 0.297988 -0.076982 0 0 255 54 13
0.273917 0.123108 -0.225844 0 0 255 54 13
0.231778 0.223767 -0.220315 0 0 255 54 13
0.236741 0.083384 -0.221479 0 0 255 54 13
0.410380 0.183907 -0.220982 0 0 255 54 13
0.256162 0.109516 -0.225913 0 0 255 54 13
0.276085 0.271138 -0.176982 0 0 255 54 13
0.264179 0.203514 -0.225839 0 0 255 54 13
0.331298 0.259006 -0.190982 0 0 255 54 13
0.340528 0.261960 -0.220982 0 0 255 54 13
0.340147 0.119733 -0.224982 0 0 255 54 13
0.290663 0.148318 -0.225895 0 0 255 54 13
0.340285 0.286556 -0.081714 0 0 255 54 13
0.235986 0.250642 -0.239923 0 0 255 54 13
0.424887 0.259273 -0.196982 0 0 255 54 13
0.355773 0.076508 -0.239399 0 0 255 54 13
0.231863 0.257104 -0.204982 0 0 255 54 13
0.232950 0.203357 -0.218982 0 0 255 54 13
0.250102 0.270460 -0.139566 0 0 255 54 13
0.346168 0.143498 -0.225942 0 0 255 54 13
0.458338 0.268548 -0.160982 0 0 255 54 13
0.403040 0.077931 -0.220982 0 0 255 54 13
0.307842 0.074043 -0.222982 0 0 255 54 13
0.277904 0.172343 -0.222123 0 0 255 54 13
0.331638 0.300764 -0.064982 0 0 255 54 13
0.395834 0.097023 -0.224982 0 0 255 54 13
0.415127 0.225576 -0.225968 0 0 255 54 13
0.481589 0.288843 -0.105963 0 0 255 54 13
0.263561 0.266121 -0.195961 0 0 255 54 13
0.440727 0.122943 -0.224982 0 0 255 54 13
0.327526 0.279428 -0.108982 0 0 255 54 13
0.248698 0.194585 -0.224982 0 0 255 54 13
0.231039 0.284208 -0.096982 0 0 255 54 13
0.398685 0.260298 -0.188270 0 0 255 54 13
0.477872 0.121541 -0.225936 0 0 255 54 13
0.329152 0.236355 -0.217880 0 0 255 54 13
0.418551 0.150474 -0.220780 0 0 255 54 13
0.466844 0.285987 -0.132982 0 0 255 54 13
0.311429 0.171568 -0.222982 0 0 255 54 13
0.417795 0.272105 -0.184982 0 0 255 54 13
0.351726 0.255265 -0.206982 0 0 255 54 13
0.243347 0.092367 -0.234982 0 0 255 54 13
0.439134 0.279358 -0.116982 0 0 255 54 13
0.398601 0.255565 -0.208982 0 0 255 54 13
0.294861 0.268656 -0.190982 0 0 255 54 13
0.290154 0.074276 -0.226982 0 0 255 54 13
0.364667 0.172305 -0.222018 0 0 255 54 13
0.398645 0.173534 -0.227970 0 0 255 54 13
0.442467 0.076325 -0.224982 0 0 255 54 13
0.410608 0.272283 -0.144982 0 0 255 54 13
0.471034 0.089273 -0.225937 0 0 255 54 13
0.336771 0.281594 -0.140982 0 0 255 54 13
0.409820 0.278568 -0.116982 0 0 255 54 13
0.317223 0.275771 -0.122982 0 0 255 54 13
0.231993 0.292644 -0.063873 0 0 255 54 13
0.350326 0.293456 -0.054982 0 0 255 54 13
0.386589 0.281773 -0.102982 0 0 255 54 13
0.447718 0.141839 -0.224982 0 0 255 54 13
0.485285 0.275915 -0.160982 0 0 255 54 13
0.293617 0.254746 -0.204982 0 0 255 54 13
0.460067 0.203657 -0.225849 0 0 255 54 13
0.354543 0.110485 -0.225845 0 0 255 54 13
0.354720 0.092598 -0.225872 0 0 255 54 13
0.324451 0.082884 -0.234982 0 0 255 54 13
0.318520 0.294946 -0.046982 0 0 255 54 13
0.272244 0.265674 -0.160982 0 0 255 54 13
0.252397 0.261478 -0.214982 0 0 255 54 13
0.441953 0.271453 -0.192982 0 0 255 54 13
0.253455 0.293302 -0.088982 0 0 255 54 13
0.283859 0.294049 -0.087960 0 0 255 54 13
0.416557 0.084690 -0.242982 0 0 255 54 13
0.430961 0.267164 -0.164982 0 0 255 54 13
0.343074 0.276295 -0.162982 0 0 255 54 13
0.429671 0.294139 -0.098982 0 0 255 54 13
0.234372 0.169775 -0.228982 0 0 255 54 13
0.276845 0.279669 -0.103591 0 0 255 54 13
0.482907 0.245923 -0.221938 0 0 255 54 13
0.241516 0.143361 -0.241952 0 0 255 54 13
0.379687 0.282915 -0.138982 0 0 255 54 13
0.340941 0.082597 -0.226982 0 0 255 54 13
0.240150 0.279765 -0.156982 0 0 255 54 13
0.320804 0.267130 -0.200982 0 0 255 54 13
0.272864 0.139197 -0.219629 0 0 255 54 13
0.295307 0.221710 -0.225946 0 0 255 54 13
0.468106 0.286519 -0.088982 0 0 255 54 13
0.454900 0.092692 -0.225906 0 0 255 54 13
0.434785 0.291644 -0.066982 0 0 255 54 13
0.443695 0.275022 -0.174982 0 0 255 54 13
0.389399 0.298205 -0.076982 0 0 255 54 13
0.240069 0.288705 -0.128982 0 0 255 54 13
0.468003 0.262091 -0.186982 0 0 255 54 13
0.372019 0.075261 -0.226982 0 0 255 54 13
0.389221 0.085775 -0.238982 0 0 255 54 13
0.393617 0.272719 -0.178982 0 0 255 54 13
0.334418 0.155906 -0.222130 0 0 255 54 13
0.320733 0.264718 -0.164982 0 0 255 54 13
0.384981 0.241326 -0.222982 0 0 255 54 13
0.482813 0.300478 -0.072982 0 0 255 54 13
0.455722 0.281433 -0.108785 0 0 255 54 13
0.466586 0.086992 -0.242982 0 0 255 54 13
0.312220 0.269091 -0.146982 0 0 255 54 13
0.323466 0.284009 -0.090982 0 0 255 54 13
0.289765 0.283347 -0.130982 0 0 255 54 13
0.261857 0.166818 -0.227918 0 0 255 54 13
0.362508 0.302419 -0.060982 0 0 255 54 13
0.410793 0.120879 -0.223811 0 0 255 54 13
0.433940 0.086216 -0.242982 0 0 255 54 13
0.369776 0.264900 -0.170982 0 0 255 54 13
0.304880 0.286962 -0.076982 0 0 255 54 13
0.363610 0.279631 -0.149985 0 0 255 54 13
0.470927 0.139239 -0.218982 0 0 255 54 13
0.350738 0.274783 -0.128982 0 0 255 54 13
0.392817 0.129648 -0.223870 0 0 255 54 13
0.395390 0.267230 -0.162982 0 0 255 54 13
0.464881 0.304775 -0.058982 0 0 255 54 13
0.320864 0.260425 -0.221952 0 0 255 54 13
0.376463 0.155426 -0.222118 0 0 255 54 13
0.468399 0.175116 -0.225929 0 0 255 54 13
0.444933 0.254751 -0.214982 0 0 255 54 13
0.357213 0.202642 -0.225914 0 0 255 54 13
0.266091 0.282689 -0.130982 0 0 255 54 13
0.382423 0.185896 -0.221530 0 0 255 54 13
0.277792 0.258799 -0.186982 0 0 255 54 13
0.249661 0.269557 -0.186982 0 0 255 54 13
0.232007 0.243682 -0.224982 0 0 255 54 13
0.364877 0.277666 -0.118982 0 0 255 54 13
0.324244 0.189794 -0.227955 0 0 255 54 13
0.308523 0.261993 -0.176982 0 0 255 54 13
0.343980 0.307818 -0.046982 0 0 255 54 13
0.372079 0.283310 -0.096982 0 0 255 54 13
0.237084 0.271144 -0.212982 0 0 255 54 13
0.360111 0.258770 -0.192982 0 0 255 54 13
0.371010 0.251543 -0.222982 0 0 255 54 13
0.271188 0.263506 -0.212982 0 0 255 54 13
0.247298 0.307431 -0.048982 0 0 255 54 13
0.409511 0.296183 -0.090982 0 0 255 54 13
0.262197 0.094515 -0.224982 0 0 255 54 13
0.410325 0.293290 -0.058982 0 0 255 54 13
0.422621 0.282001 -0.143964 0 0 255 54 13
0.305221 0.123416 -0.220711 0 0 255 54 13
0.304911 0.154720 -0.222346 0 0 255 54 13
0.369531 0.223337 -0.225926 0 0 255 54 13
0.397536 0.287561 -0.122982 0 0 255 54 13
0.399268 0.247807 -0.222982 0 0 255 54 13
0.248158 0.286985 -0.114982 0 0 255 54 13
0.243340 0.135796 -0.226982 0 0 255 54 13
0.443610 0.283975 -0.140982 0 0 255 54 13
0.447435 0.305502 -0.046617 0 0 255 54 13
0.425560 0.256090 -0.221917 0 0 255 54 13
0.483832 0.152012 -0.223961 0 0 255 54 13
0.238963 0.218038 -0.232982 0 0 255 54 13
0.306318 0.102855 -0.220355 0 0 255 54 13
0.304954 0.282552 -0.130982 0 0 255 54 13
0.488689 0.109589 -0.222982 0 0 255 54 13
0.426227 0.097775 -0.225863 0 0 255 54 13
0.418380 0.077125 -0.220360 0 0 255 54 13
0.483568 0.178843 -0.223980 0 0 255 54 13
0.298135 0.250322 -0.222982 0 0 255 54 13
0.416481 0.255727 -0.208982 0 0 255 54 13
0.344546 0.281606 -0.102982 0 0 255 54 13
0.249576 0.073202 -0.232982 0 0 255 54 13
0.295400 0.267524 -0.154982 0 0 255 54 13
0.278423 0.301152 -0.059961 0 0 255 54 13
0.469707 0.273607 -0.140982 0 0 255 54 13
0.290173 0.288745 -0.109973 0 0 255 54 13
