ply
format ascii 1.0
element vertex 1111
property float x
property float y
property float z
property uchar red
property uchar green
property uchar blue
property uchar semantic_label
property uchar instance_label
end_header
-1.586212 0.108215 -0.450421 255 0 0 75 11
-1.680746 0.099402 -0.444421 255 0 0 75 11
-1.561466 0.109202 -0.459421 255 0 0 75 11
-1.502647 0.248634 -0.423421 255 0 0 75 11
-1.533473 0.111036 -0.451921 255 0 0 75 11
-1.525312 0.271854 -0.459421 255 0 0 75 11
-1.671461 0.111168 -0.447421 255 0 0 75 11
-1.539496 0.262600 -0.459421 255 0 0 75 11
-1.611430 0.124539 -0.411421 255 0 0 75 11
-1.627814 0.143357 -0.411024 255 0 0 75 11
-1.557570 0.235772 -0.423421 255 0 0 75 11
-1.609102 0.231390 -0.421804 255 0 0 75 11
-1.557019 0.158979 -0.453227 255 0 0 75 11
-1.495325 0.102927 -0.438742 255 0 0 75 11
-1.584053 0.161659 -0.418799 255 0 0 75 11
-1.604778 0.150729 -0.418764 255 0 0 75 11
-1.625761 0.188926 -0.420421 255 0 0 75 11
-1.552908 0.207178 -0.413503 255 0 0 75 11
-1.593733 0.116120 -0.417421 255 0 0 75 11
-1.554212 0.172186 -0.420421 255 0 0 75 11
-1.663022 0.273521 -0.423421 255 0 0 75 11
-1.647037 0.110639 -0.439923 255 0 0 75 11
-1.528024 0.116012 -0.411421 255 0 0 75 11
-1.516779 0.239370 -0.459421 255 0 0 75 11
-1.495796 0.103028 -0.426421 255 0 0 75 11
-1.547289 0.110906 -0.441421 255 0 0 75 11
-1.586710 0.128486 -0.411421 255 0 0 75 11
-1.645550 0.110323 -0.453421 255 0 0 75 11
-1.656170 0.110959 -0.441421 255 0 0 75 11
-1.614903 0.261817 -0.423421 255 0 0 75 11
-1.614716 0.204980 -0.421851 255 0 0 75 11
-1.677284 0.104800 -0.459421 255 0 0 75 11
-1.517006 0.231792 -0.423421 255 0 0 75 11
-1.598986 0.264557 -0.423421 255 0 0 75 11
-1.683629 0.103081 -0.432421 255 0 0 75 11
-1.520622 0.128204 -0.417421 255 0 0 75 11
-1.495396 0.145881 -0.452446 255 0 0 75 11
-1.654783 0.225765 -0.414421 255 0 0 75 11
-1.541610 0.217044 -0.414842 255 0 0 75 11
-1.637933 0.117905 -0.417421 255 0 0 75 11
-1.524966 0.107771 -0.459421 255 0 0 75 11
-1.579984 0.108654 -0.460835 255 0 0 75 11
-1.520421 0.148133 -0.453421 255 0 0 75 11
-1.501846 0.245397 -0.452376 255 0 0 75 11
-1.589436 0.172004 -0.420421 255 0 0 75 11
-1.562888 0.160227 -0.460916 255 0 0 75 11
-1.570834 0.201787 -0.420421 255 0 0 75 11
-1.671668 0.139052 -0.417421 255 0 0 75 11
-1.496080 0.121490 -0.459421 255 0 0 75 11
-1.568779 0.132513 -0.417421 255 0 0 75 11
-1.488070 0.245535 -0.420421 255 0 0 75 11
-1.499578 0.140636 -0.418783 255 0 0 75 11
-1.564249 0.096109 -0.410543 255 0 0 75 11
-1.660279 0.149345 -0.411421 255 0 0 75 11
-1.609099 0.101545 -0.456421 255 0 0 75 11
-1.506439 0.108357 -0.448157 255 0 0 75 11
-1.682992 0.215636 -0.414421 255 0 0 75 11
-1.525347 0.127711 -0.411421 255 0 0 75 11
-1.682250 0.118124 -0.415462 255 0 0 75 11
-1.496684 0.269682 -0.417421 255 0 0 75 11
-1.669776 0.176812 -0.418781 255 0 0 75 11
-1.683126 0.200578 -0.414421 255 0 0 75 11
-1.511223 0.273431 -0.423421 255 0 0 75 11
-1.503136 0.138325 -0.460686 255 0 0 75 11
-1.520648 0.185801 -0.453421 255 0 0 75 11
-1.674775 0.095577 -0.414421 255 0 0 75 11
-1.602425 0.248373 -0.421609 255 0 0 75 11
-1.628229 0.204786 -0.414421 255 0 0 75 11
-1.554631 0.126929 -0.456421 255 0 0 75 11
-1.678026 0.224571 -0.421637 255 0 0 75 11
-1.548471 0.184766 -0.418539 255 0 0 75 11
-1.575588 0.215913 -0.414421 255 0 0 75 11
-1.660926 0.095189 -0.432421 255 0 0 75 11
-1.528696 0.263372 -0.421574 255 0 0 75 11
-1.504870 0.224570 -0.414421 255 0 0 75 11
-1.580055 0.151608 -0.411139 255 0 0 75 11
-1.614163 0.250868 -0.421661 255 0 0 75 11
-1.578000 0.175707 -0.418652 255 0 0 75 11
-1.607507 0.160510 -0.411421 255 0 0 75 11
-1.509260 0.167230 -0.460751 255 0 0 75 11
-1.579199 0.097919 -0.453421 255 0 0 75 11
-1.647690 0.251860 -0.421685 255 0 0 75 11
-1.621280 0.246247 -0.421708 255 0 0 75 11
-1.495674 0.149007 -0.417421 255 0 0 75 11
-1.567652 0.253250 -0.421734 255 0 0 75 11
-1.536252 0.271112 -0.421744 255 0 0 75 11
-1.548798 0.255376 -0.424889 255 0 0 75 11
-1.666084 0.222033 -0.414421 255 0 0 75 11
-1.541426 0.232340 -0.457481 255 0 0 75 11
-1.676761 0.147627 -0.411421 255 0 0 75 11
-1.562009 0.135504 -0.457481 255 0 0 75 11
-1.528922 0.146873 -0.418784 255 0 0 75 11
-1.547064 0.133667 -0.411421 255 0 0 75 11
-1.515426 0.094932 -0.432876 255 0 0 75 11
-1.683682 0.096959 -0.457717 255 0 0 75 11
-1.588485 0.111948 -0.429421 255 0 0 75 11
-1.495073 0.112075 -0.459421 255 0 0 75 11
-1.520104 0.095926 -0.420421 255 0 0 75 11
-1.558082 0.168406 -0.452823 255 0 0 75 11
-1.549105 0.109635 -0.450421 255 0 0 75 11
-1.625583 0.153853 -0.411421 255 0 0 75 11
-1.505215 0.193973 -0.420421 255 0 0 75 11
-1.614021 0.164961 -0.418608 255 0 0 75 11
-1.570436 0.155697 -0.411421 255 0 0 75 11
-1.509233 0.176425 -0.453421 255 0 0 75 11
-1.532319 0.254941 -0.453421 255 0 0 75 11
-1.614102 0.236729 -0.414421 255 0 0 75 11
-1.601559 0.194732 -0.414421 255 0 0 75 11
-1.496601 0.241215 -0.414951 255 0 0 75 11
-1.543481 0.208241 -0.460794 255 0 0 75 11
-1.492277 0.160553 -0.456956 255 0 0 75 11
-1.570981 0.229421 -0.414421 255 0 0 75 11
-1.538902 0.099922 -0.451007 255 0 0 75 11
-1.592960 0.096077 -0.429421 255 0 0 75 11
-1.517369 0.129082 -0.452772 255 0 0 75 11
-1.647009 0.139630 -0.411421 255 0 0 75 11
-1.564575 0.166719 -0.458103 255 0 0 75 11
-1.555938 0.238492 -0.453421 255 0 0 75 11
-1.549700 0.267836 -0.453421 255 0 0 75 11
-1.493603 0.102561 -0.450421 255 0 0 75 11
-1.585092 0.094405 -0.429421 255 0 0 75 11
-1.521037 0.198401 -0.453421 255 0 0 75 11
-1.656932 0.266093 -0.421614 255 0 0 75 11
-1.684230 0.097075 -0.426421 255 0 0 75 11
-1.541500 0.118876 -0.453421 255 0 0 75 11
-1.682761 0.173438 -0.413403 255 0 0 75 11
-1.536192 0.151485 -0.411421 255 0 0 75 11
-1.496572 0.097059 -0.457364 255 0 0 75 11
-1.522982 0.102672 -0.410002 255 0 0 75 11
-1.634931 0.138736 -0.411123 255 0 0 75 11
-1.684733 0.193018 -0.414421 255 0 0 75 11
-1.638989 0.162931 -0.411421 255 0 0 75 11
-1.548150 0.132558 -0.453421 255 0 0 75 11
-1.493043 0.229097 -0.414421 255 0 0 75 11
-1.492617 0.142223 -0.411421 255 0 0 75 11
-1.556509 0.103664 -0.454390 255 0 0 75 11
-1.491796 0.249394 -0.415709 255 0 0 75 11
-1.561778 0.273471 -0.423421 255 0 0 75 11
-1.541723 0.158795 -0.418808 255 0 0 75 11
-1.529045 0.128497 -0.453421 255 0 0 75 11
-1.507644 0.203691 -0.452274 255 0 0 75 11
-1.594072 0.143379 -0.411421 255 0 0 75 11
-1.524230 0.096803 -0.454217 255 0 0 75 11
-1.495356 0.102780 -0.417421 255 0 0 75 11
-1.677587 0.168923 -0.411421 255 0 0 75 11
-1.520487 0.114410 -0.418878 255 0 0 75 11
-1.551292 0.243639 -0.415280 255 0 0 75 11
-1.521360 0.108461 -0.441421 255 0 0 75 11
-1.533983 0.166351 -0.418636 255 0 0 75 11
-1.533543 0.193861 -0.453421 255 0 0 75 11
-1.654797 0.160707 -0.411421 255 0 0 75 11
-1.628557 0.096575 -0.411421 255 0 0 75 11
-1.548103 0.215357 -0.451858 255 0 0 75 11
-1.502594 0.140875 -0.411421 255 0 0 75 11
-1.492282 0.218248 -0.414421 255 0 0 75 11
-1.496125 0.257885 -0.459421 255 0 0 75 11
-1.664533 0.129329 -0.411421 255 0 0 75 11
-1.608174 0.221327 -0.414421 255 0 0 75 11
-1.505923 0.096353 -0.417421 255 0 0 75 11
-1.498259 0.103551 -0.409712 255 0 0 75 11
-1.538491 0.231717 -0.414972 255 0 0 75 11
-1.535055 0.267790 -0.456421 255 0 0 75 11
-1.490212 0.123310 -0.453421 255 0 0 75 11
-1.560701 0.141656 -0.411421 255 0 0 75 11
-1.511951 0.096853 -0.411421 255 0 0 75 11
-1.533562 0.096185 -0.441421 255 0 0 75 11
-1.620110 0.121888 -0.417421 255 0 0 75 11
-1.662320 0.096453 -0.414421 255 0 0 75 11
-1.619564 0.095598 -0.453755 255 0 0 75 11
-1.640757 0.241186 -0.415257 255 0 0 75 11
-1.650059 0.096422 -0.420421 255 0 0 75 11
-1.493605 0.209908 -0.453421 255 0 0 75 11
-1.620329 0.178570 -0.418471 255 0 0 75 11
-1.573747 0.137999 -0.411935 255 0 0 75 11
-1.632007 0.094773 -0.441421 255 0 0 75 11
-1.521454 0.095435 -0.438421 255 0 0 75 11
-1.607475 0.094752 -0.429421 255 0 0 75 11
-1.581553 0.142725 -0.411421 255 0 0 75 11
-1.498515 0.131209 -0.416901 255 0 0 75 11
-1.613979 0.266164 -0.415137 255 0 0 75 11
-1.674879 0.095087 -0.450447 255 0 0 75 11
-1.677813 0.095711 -0.439414 255 0 0 75 11
-1.497451 0.121782 -0.417297 255 0 0 75 11
-1.498146 0.161801 -0.420409 255 0 0 75 11
-1.552285 0.210112 -0.453310 255 0 0 75 11
-1.668825 0.109136 -0.460894 255 0 0 75 11
-1.490201 0.264390 -0.420421 255 0 0 75 11
-1.517113 0.101425 -0.457400 255 0 0 75 11
-1.496091 0.185900 -0.457422 255 0 0 75 11
-1.674191 0.094941 -0.423421 255 0 0 75 11
-1.628693 0.168080 -0.411684 255 0 0 75 11
-1.620003 0.107959 -0.460718 255 0 0 75 11
-1.561825 0.150800 -0.460767 255 0 0 75 11
-1.601731 0.208354 -0.413842 255 0 0 75 11
-1.628835 0.253987 -0.421605 255 0 0 75 11
-1.549719 0.178897 -0.454118 255 0 0 75 11
-1.540986 0.219979 -0.454118 255 0 0 75 11
-1.539526 0.096988 -0.410728 255 0 0 75 11
-1.610442 0.095223 -0.450421 255 0 0 75 11
-1.625064 0.127437 -0.411870 255 0 0 75 11
-1.679500 0.102204 -0.409222 255 0 0 75 11
-1.592980 0.163556 -0.411421 255 0 0 75 11
-1.507537 0.219003 -0.453421 255 0 0 75 11
-1.564369 0.095544 -0.438421 255 0 0 75 11
-1.640729 0.097030 -0.410601 255 0 0 75 11
-1.526130 0.232156 -0.453737 255 0 0 75 11
-1.640984 0.124687 -0.411876 255 0 0 75 11
-1.562335 0.206115 -0.455222 255 0 0 75 11
-1.565525 0.234396 -0.415240 255 0 0 75 11
-1.680563 0.111631 -0.409290 255 0 0 75 11
-1.596117 0.234764 -0.414587 255 0 0 75 11
-1.586619 0.192874 -0.414307 255 0 0 75 11
-1.642260 0.262974 -0.421669 255 0 0 75 11
-1.536223 0.126956 -0.453349 255 0 0 75 11
-1.526243 0.173907 -0.418719 255 0 0 75 11
-1.565894 0.203804 -0.413978 255 0 0 75 11
-1.641821 0.250613 -0.415017 255 0 0 75 11
-1.599973 0.158908 -0.411305 255 0 0 75 11
-1.600710 0.097725 -0.409736 255 0 0 75 11
-1.597180 0.244191 -0.414342 255 0 0 75 11
-1.616407 0.096020 -0.438421 255 0 0 75 11
-1.570444 0.167967 -0.412006 255 0 0 75 11
-1.617098 0.251492 -0.414822 255 0 0 75 11
-1.679345 0.261656 -0.416103 255 0 0 75 11
-1.588490 0.184071 -0.414290 255 0 0 75 11
-1.575321 0.202741 -0.413847 255 0 0 75 11
-1.560096 0.245510 -0.455256 255 0 0 75 11
-1.556353 0.263117 -0.455256 255 0 0 75 11
-1.559432 0.269905 -0.459421 255 0 0 75 11
-1.601369 0.094623 -0.441421 255 0 0 75 11
-1.542489 0.241767 -0.421635 255 0 0 75 11
-1.668801 0.094824 -0.453421 255 0 0 75 11
-1.568062 0.121455 -0.411787 255 0 0 75 11
-1.552837 0.164224 -0.454118 255 0 0 75 11
-1.639694 0.231759 -0.415766 255 0 0 75 11
-1.536436 0.255816 -0.415173 255 0 0 75 11
-1.643479 0.112949 -0.411457 255 0 0 75 11
-1.516192 0.177904 -0.413178 255 0 0 75 11
-1.615963 0.199111 -0.413452 255 0 0 75 11
-1.666217 0.179123 -0.412324 255 0 0 75 11
-1.668854 0.253292 -0.424880 255 0 0 75 11
-1.524372 0.182710 -0.412858 255 0 0 75 11
-1.669478 0.250358 -0.415728 255 0 0 75 11
-1.626198 0.179818 -0.412293 255 0 0 75 11
-1.673149 0.189798 -0.413929 255 0 0 75 11
-1.586028 0.224515 -0.414421 255 0 0 75 11
-1.542716 0.125269 -0.410386 255 0 0 75 11
-1.644166 0.095285 -0.450421 255 0 0 75 11
-1.664204 0.102020 -0.409995 255 0 0 75 11
-1.542914 0.095478 -0.438421 255 0 0 75 11
-1.516377 0.162609 -0.452420 255 0 0 75 11
-1.523195 0.231532 -0.415449 255 0 0 75 11
-1.659569 0.094967 -0.444421 255 0 0 75 11
-1.622938 0.108583 -0.410599 255 0 0 75 11
-1.516550 0.211718 -0.459421 255 0 0 75 11
-1.532736 0.172220 -0.453554 255 0 0 75 11
-1.500160 0.238904 -0.453197 255 0 0 75 11
-1.509246 0.095152 -0.438421 255 0 0 75 11
-1.515711 0.266746 -0.415504 255 0 0 75 11
-1.584166 0.103409 -0.409580 255 0 0 75 11
-1.576752 0.181576 -0.413842 255 0 0 75 11
-1.526385 0.259814 -0.415685 255 0 0 75 11
-1.519822 0.218547 -0.452286 255 0 0 75 11
-1.511897 0.241399 -0.414347 255 0 0 75 11
-1.636547 0.102275 -0.409797 255 0 0 75 11
-1.615708 0.171454 -0.413049 255 0 0 75 11
-1.565383 0.148489 -0.412151 255 0 0 75 11
-1.510763 0.189018 -0.414158 255 0 0 75 11
-1.553470 0.117962 -0.411421 255 0 0 75 11
-1.502697 0.125964 -0.410307 255 0 0 75 11
-1.622745 0.095059 -0.444421 255 0 0 75 11
-1.500528 0.208312 -0.421099 255 0 0 75 11
-1.552418 0.094051 -0.444421 255 0 0 75 11
-1.671880 0.094765 -0.435421 255 0 0 75 11
-1.601475 0.180697 -0.413019 255 0 0 75 11
-1.579662 0.095742 -0.420421 255 0 0 75 11
-1.661964 0.141415 -0.411986 255 0 0 75 11
-1.506879 0.120718 -0.452387 255 0 0 75 11
-1.555885 0.106599 -0.410619 255 0 0 75 11
-1.651658 0.117755 -0.411163 255 0 0 75 11
-1.625520 0.096433 -0.417421 255 0 0 75 11
-1.554666 0.256624 -0.415150 255 0 0 75 11
-1.510466 0.262564 -0.452003 255 0 0 75 11
-1.632209 0.266972 -0.417130 255 0 0 75 11
-1.567325 0.182639 -0.413247 255 0 0 75 11
-1.625461 0.241002 -0.415730 255 0 0 75 11
-1.600965 0.125382 -0.410662 255 0 0 75 11
-1.506284 0.267809 -0.415713 255 0 0 75 11
-1.490987 0.095871 -0.420421 255 0 0 75 11
-1.656790 0.180186 -0.412786 255 0 0 75 11
-1.508779 0.256071 -0.416573 255 0 0 75 11
-1.550045 0.249508 -0.421648 255 0 0 75 11
-1.657117 0.250797 -0.416470 255 0 0 75 11
-1.579908 0.094582 -0.435421 255 0 0 75 11
-1.507092 0.249579 -0.416006 255 0 0 75 11
-1.603489 0.257800 -0.416094 255 0 0 75 11
-1.610350 0.095660 -0.417421 255 0 0 75 11
-1.539342 0.112283 -0.410039 255 0 0 75 11
-1.665112 0.270899 -0.417088 255 0 0 75 11
-1.497665 0.250642 -0.452776 255 0 0 75 11
-1.547408 0.175339 -0.412769 255 0 0 75 11
-1.565638 0.176147 -0.412697 255 0 0 75 11
-1.518943 0.193824 -0.413908 255 0 0 75 11
-1.500712 0.193016 -0.457489 255 0 0 75 11
-1.679091 0.111318 -0.444421 255 0 0 75 11
-1.634889 0.239938 -0.421531 255 0 0 75 11
-1.495651 0.173538 -0.452309 255 0 0 75 11
-1.522388 0.249763 -0.415581 255 0 0 75 11
-1.555772 0.164848 -0.412109 255 0 0 75 11
-1.589851 0.119953 -0.410244 255 0 0 75 11
-1.554340 0.186013 -0.413151 255 0 0 75 11
-1.547716 0.173888 -0.420421 255 0 0 75 11
-1.591793 0.154103 -0.411876 255 0 0 75 11
-1.507063 0.105422 -0.409783 255 0 0 75 11
-1.665154 0.169696 -0.412649 255 0 0 75 11
-1.511755 0.155492 -0.412326 255 0 0 75 11
-1.556835 0.174275 -0.413103 255 0 0 75 11
-1.536365 0.212862 -0.414571 255 0 0 75 11
-1.675021 0.180994 -0.412333 255 0 0 75 11
-1.556538 0.247821 -0.415042 255 0 0 75 11
-1.575207 0.260990 -0.415707 255 0 0 75 11
-1.634980 0.095214 -0.426421 255 0 0 75 11
-1.529362 0.159235 -0.412562 255 0 0 75 11
-1.529872 0.214549 -0.460898 255 0 0 75 11
-1.508197 0.157803 -0.418571 255 0 0 75 11
-1.657301 0.235501 -0.414581 255 0 0 75 11
-1.578368 0.145115 -0.418822 255 0 0 75 11
-1.552469 0.194816 -0.414197 255 0 0 75 11
-1.544176 0.248260 -0.453181 255 0 0 75 11
-1.495920 0.273280 -0.423421 255 0 0 75 11
-1.508523 0.228414 -0.452763 255 0 0 75 11
-1.632436 0.150473 -0.418737 255 0 0 75 11
-1.509516 0.194887 -0.453463 255 0 0 75 11
-1.569778 0.272104 -0.416914 255 0 0 75 11
-1.528483 0.134512 -0.460919 255 0 0 75 11
-1.498841 0.201819 -0.413416 255 0 0 75 11
-1.532296 0.159858 -0.452219 255 0 0 75 11
-1.663467 0.163203 -0.418594 255 0 0 75 11
-1.554666 0.256624 -0.460868 255 0 0 75 11
-1.627999 0.128061 -0.418917 255 0 0 75 11
-1.577447 0.221595 -0.421650 255 0 0 75 11
-1.582713 0.095815 -0.447421 255 0 0 75 11
-1.582948 0.253434 -0.421809 255 0 0 75 11
-1.544034 0.162353 -0.452604 255 0 0 75 11
-1.655174 0.216647 -0.421663 255 0 0 75 11
-1.564320 0.139062 -0.418791 255 0 0 75 11
-1.529291 0.116281 -0.454287 255 0 0 75 11
-1.545281 0.156484 -0.460651 255 0 0 75 11
-1.531304 0.193385 -0.413108 255 0 0 75 11
-1.657967 0.131364 -0.418920 255 0 0 75 11
-1.531191 0.251634 -0.460686 255 0 0 75 11
-1.508750 0.111915 -0.460686 255 0 0 75 11
-1.665600 0.109881 -0.453421 255 0 0 75 11
-1.537981 0.176402 -0.413048 255 0 0 75 11
-1.551335 0.142436 -0.460821 255 0 0 75 11
-1.550229 0.234212 -0.460738 255 0 0 75 11
-1.581671 0.115147 -0.410068 255 0 0 75 11
-1.510252 0.133704 -0.460655 255 0 0 75 11
-1.566999 0.112028 -0.409844 255 0 0 75 11
-1.624072 0.160964 -0.412443 255 0 0 75 11
-1.635881 0.206412 -0.414048 255 0 0 75 11
-1.603233 0.230143 -0.415029 255 0 0 75 11
-1.669039 0.237996 -0.421664 255 0 0 75 11
-1.632365 0.107520 -0.410068 255 0 0 75 11
-1.509260 0.167230 -0.412762 255 0 0 75 11
-1.597733 0.198304 -0.421778 255 0 0 75 11
-1.506255 0.123653 -0.460686 255 0 0 75 11
-1.662106 0.227322 -0.421675 255 0 0 75 11
-1.601986 0.236012 -0.421831 255 0 0 75 11
-1.557090 0.201933 -0.460738 255 0 0 75 11
-1.585371 0.198743 -0.421878 255 0 0 75 11
-1.518503 0.181463 -0.460919 255 0 0 75 11
-1.658293 0.201975 -0.421727 255 0 0 75 11
-1.552044 0.110240 -0.423421 255 0 0 75 11
-1.512705 0.223169 -0.421852 255 0 0 75 11
-1.617906 0.233262 -0.421881 255 0 0 75 11
-1.521324 0.240336 -0.421848 255 0 0 75 11
-1.572018 0.232709 -0.421831 255 0 0 75 11
-1.587938 0.229959 -0.421873 255 0 0 75 11
-1.681145 0.209899 -0.421794 255 0 0 75 11
-1.576015 0.242760 -0.415613 255 0 0 75 11
-1.542618 0.111299 -0.417421 255 0 0 75 11
-1.530904 0.108692 -0.426421 255 0 0 75 11
-1.563880 0.126700 -0.418806 255 0 0 75 11
-1.506879 0.120718 -0.418815 255 0 0 75 11
-1.497778 0.192392 -0.413479 255 0 0 75 11
-1.548542 0.227719 -0.421595 255 0 0 75 11
-1.529688 0.229845 -0.460716 255 0 0 75 11
-1.530751 0.239273 -0.421580 255 0 0 75 11
-1.634378 0.184623 -0.413296 255 0 0 75 11
-1.595904 0.105904 -0.410173 255 0 0 75 11
-1.554453 0.127764 -0.418735 255 0 0 75 11
-1.639807 0.173509 -0.418710 255 0 0 75 11
-1.612447 0.100219 -0.409742 255 0 0 75 11
-1.678068 0.123369 -0.411004 255 0 0 75 11
-1.648058 0.221268 -0.421756 255 0 0 75 11
-1.541468 0.131138 -0.418681 255 0 0 75 11
-1.637015 0.258793 -0.416017 255 0 0 75 11
-1.683129 0.142847 -0.418757 255 0 0 75 11
-1.673957 0.171567 -0.418649 255 0 0 75 11
-1.645932 0.202414 -0.421887 255 0 0 75 11
-1.623959 0.219213 -0.421686 255 0 0 75 11
-1.535557 0.231093 -0.421815 255 0 0 75 11
-1.498146 0.161801 -0.460671 255 0 0 75 11
-1.502952 0.153621 -0.460862 255 0 0 75 11
-1.560820 0.112242 -0.444421 255 0 0 75 11
-1.572868 0.113276 -0.418798 255 0 0 75 11
-1.533602 0.117198 -0.417421 255 0 0 75 11
-1.563838 0.227903 -0.421739 255 0 0 75 11
-1.559401 0.205491 -0.421698 255 0 0 75 11
-1.535925 0.200501 -0.421916 255 0 0 75 11
-1.536738 0.110105 -0.438421 255 0 0 75 11
-1.511713 0.256695 -0.460806 255 0 0 75 11
-1.607528 0.166648 -0.418564 255 0 0 75 11
-1.678281 0.252229 -0.421841 255 0 0 75 11
-1.607231 0.240194 -0.421672 255 0 0 75 11
-1.655401 0.100148 -0.457655 255 0 0 75 11
-1.670144 0.146220 -0.418686 255 0 0 75 11
-1.570147 0.241512 -0.421827 255 0 0 75 11
-1.628254 0.155719 -0.418797 255 0 0 75 11
-1.656053 0.241370 -0.421747 255 0 0 75 11
-1.573852 0.108647 -0.441421 255 0 0 75 11
-1.548911 0.197127 -0.421814 255 0 0 75 11
-1.559146 0.177833 -0.421895 255 0 0 75 11
-1.521877 0.194448 -0.460780 255 0 0 75 11
-1.670328 0.130925 -0.418799 255 0 0 75 11
-1.636504 0.203478 -0.421790 255 0 0 75 11
-1.502031 0.230101 -0.460659 255 0 0 75 11
-1.510579 0.204314 -0.413586 255 0 0 75 11
-1.561470 0.109180 -0.429421 255 0 0 75 11
-1.528483 0.134512 -0.418732 255 0 0 75 11
-1.550229 0.234212 -0.421836 255 0 0 75 11
-1.642416 0.103522 -0.457584 255 0 0 75 11
-1.503505 0.107733 -0.460747 255 0 0 75 11
-1.554340 0.186013 -0.421880 255 0 0 75 11
-1.613284 0.226145 -0.421658 255 0 0 75 11
-1.547521 0.117089 -0.418872 255 0 0 75 11
-1.629062 0.137488 -0.418785 255 0 0 75 11
-1.547550 0.261245 -0.460892 255 0 0 75 11
-1.552028 0.110314 -0.435421 255 0 0 75 11
-1.527930 0.180399 -0.460703 255 0 0 75 11
-1.553972 0.216605 -0.460738 255 0 0 75 11
-1.583429 0.164593 -0.412228 255 0 0 75 11
-1.530609 0.153366 -0.460895 255 0 0 75 11
-1.639184 0.176444 -0.412684 255 0 0 75 11
-1.516929 0.116721 -0.410225 255 0 0 75 11
-1.656162 0.110995 -0.456421 255 0 0 75 11
-1.526385 0.259814 -0.452561 255 0 0 75 11
-1.537910 0.133448 -0.460712 255 0 0 75 11
-1.600483 0.214223 -0.421671 255 0 0 75 11
-1.595535 0.136496 -0.418792 255 0 0 75 11
-1.592058 0.109566 -0.453421 255 0 0 75 11
-1.513811 0.131393 -0.418804 255 0 0 75 11
-1.517185 0.144378 -0.460814 255 0 0 75 11
-1.646229 0.128869 -0.418831 255 0 0 75 11
-1.575250 0.159787 -0.418757 255 0 0 75 11
-1.649858 0.169512 -0.421904 255 0 0 75 11
-1.524188 0.198006 -0.413909 255 0 0 75 11
-1.544105 0.205307 -0.421863 255 0 0 75 11
-1.640868 0.110802 -0.444421 255 0 0 75 11
-1.503278 0.224232 -0.421791 255 0 0 75 11
-1.664233 0.246176 -0.415752 255 0 0 75 11
-1.576765 0.109372 -0.432421 255 0 0 75 11
-1.637938 0.110157 -0.429421 255 0 0 75 11
-1.655727 0.170759 -0.413276 255 0 0 75 11
-1.548400 0.141812 -0.418734 255 0 0 75 11
-1.518021 0.270304 -0.424843 255 0 0 75 11
-1.632073 0.108892 -0.441421 255 0 0 75 11
-1.628511 0.111220 -0.450421 255 0 0 75 11
-1.667607 0.259161 -0.415760 255 0 0 75 11
-1.546172 0.109007 -0.429421 255 0 0 75 11
-1.570253 0.111150 -0.453421 255 0 0 75 11
-1.674391 0.111809 -0.426421 255 0 0 75 11
-1.537060 0.252881 -0.421681 255 0 0 75 11
-1.619721 0.109287 -0.450421 255 0 0 75 11
-1.637941 0.110142 -0.453421 255 0 0 75 11
-1.526938 0.213926 -0.452676 255 0 0 75 11
-1.654224 0.148971 -0.418745 255 0 0 75 11
-1.640134 0.244120 -0.421750 255 0 0 75 11
-1.595933 0.250060 -0.421753 255 0 0 75 11
-1.562888 0.160227 -0.418753 255 0 0 75 11
-1.519679 0.132640 -0.410816 255 0 0 75 11
-1.609584 0.142549 -0.418863 255 0 0 75 11
-1.538236 0.204059 -0.460821 255 0 0 75 11
-1.515682 0.122590 -0.460824 255 0 0 75 11
-1.577079 0.252187 -0.424883 255 0 0 75 11
-1.536847 0.124021 -0.460895 255 0 0 75 11
-1.616516 0.153224 -0.418740 255 0 0 75 11
-1.659030 0.140791 -0.418765 255 0 0 75 11
-1.595678 0.222403 -0.421791 255 0 0 75 11
-1.594472 0.127069 -0.418784 255 0 0 75 11
-1.580240 0.136312 -0.418787 255 0 0 75 11
-1.529475 0.100985 -0.454231 255 0 0 75 11
-1.589880 0.264109 -0.415915 255 0 0 75 11
-1.513513 0.204938 -0.421847 255 0 0 75 11
-1.540363 0.222913 -0.421709 255 0 0 75 11
-1.612845 0.213784 -0.421857 255 0 0 75 11
-1.637568 0.212905 -0.421811 255 0 0 75 11
-1.523677 0.142691 -0.418854 255 0 0 75 11
-1.569268 0.216789 -0.421795 255 0 0 75 11
-1.684519 0.222884 -0.421849 255 0 0 75 11
-1.537797 0.191698 -0.460651 255 0 0 75 11
-1.523861 0.127395 -0.460589 255 0 0 75 11
-1.556140 0.134256 -0.460618 255 0 0 75 11
-1.502910 0.254824 -0.460915 255 0 0 75 11
-1.665605 0.109860 -0.423421 255 0 0 75 11
-1.531673 0.162793 -0.460712 255 0 0 75 11
-1.592375 0.252371 -0.415445 255 0 0 75 11
-1.526612 0.143315 -0.460919 255 0 0 75 11
-1.553645 0.145994 -0.411643 255 0 0 75 11
-1.677445 0.126303 -0.418761 255 0 0 75 11
-1.533431 0.212239 -0.421865 255 0 0 75 11
-1.642302 0.161772 -0.418828 255 0 0 75 11
-1.524698 0.253321 -0.460716 255 0 0 75 11
-1.628183 0.112765 -0.418894 255 0 0 75 11
-1.659285 0.168448 -0.418701 255 0 0 75 11
-1.584635 0.259927 -0.424898 255 0 0 75 11
-1.571026 0.266235 -0.424918 255 0 0 75 11
-1.491172 0.252329 -0.421706 255 0 0 75 11
-1.524882 0.238025 -0.415031 255 0 0 75 11
-1.514679 0.220521 -0.459421 255 0 0 75 11
-1.511529 0.271991 -0.416618 255 0 0 75 11
-1.667599 0.187051 -0.420421 255 0 0 75 11
-1.511703 0.176950 -0.420421 255 0 0 75 11
-1.615382 0.100843 -0.454338 255 0 0 75 11
-1.595136 0.188550 -0.420421 255 0 0 75 11
-1.631543 0.096958 -0.456421 255 0 0 75 11
-1.527970 0.108068 -0.441421 255 0 0 75 11
-1.495465 0.179633 -0.417421 255 0 0 75 11
-1.621979 0.212658 -0.414421 255 0 0 75 11
-1.542929 0.254129 -0.415867 255 0 0 75 11
-1.498288 0.247707 -0.415718 255 0 0 75 11
-1.573732 0.094781 -0.450421 255 0 0 75 11
-1.628623 0.094457 -0.447421 255 0 0 75 11
-1.542667 0.094588 -0.450421 255 0 0 75 11
-1.509005 0.139572 -0.411611 255 0 0 75 11
-1.490866 0.123905 -0.411421 255 0 0 75 11
-1.680376 0.246540 -0.417421 255 0 0 75 11
-1.613355 0.269099 -0.421643 255 0 0 75 11
-1.505588 0.097929 -0.456421 255 0 0 75 11
-1.584939 0.099773 -0.456421 255 0 0 75 11
-1.624759 0.273164 -0.423421 255 0 0 75 11
-1.681413 0.223066 -0.414421 255 0 0 75 11
-1.563470 0.258495 -0.421470 255 0 0 75 11
-1.647179 0.196546 -0.418418 255 0 0 75 11
-1.499096 0.229477 -0.453829 255 0 0 75 11
-1.509152 0.188676 -0.420421 255 0 0 75 11
-1.609981 0.256113 -0.421550 255 0 0 75 11
-1.514463 0.272615 -0.455145 255 0 0 75 11
-1.547082 0.104728 -0.457551 255 0 0 75 11
-1.643621 0.198856 -0.413538 255 0 0 75 11
-1.509884 0.164296 -0.418575 255 0 0 75 11
-1.511916 0.143258 -0.453421 255 0 0 75 11
-1.642242 0.190913 -0.420421 255 0 0 75 11
-1.515329 0.094911 -0.426421 255 0 0 75 11
-1.555834 0.094320 -0.435421 255 0 0 75 11
-1.555730 0.266051 -0.421552 255 0 0 75 11
-1.523451 0.259190 -0.421635 255 0 0 75 11
-1.626761 0.105024 -0.459421 255 0 0 75 11
-1.628070 0.171015 -0.418647 255 0 0 75 11
-1.524627 0.210368 -0.414149 255 0 0 75 11
-1.648503 0.110950 -0.459421 255 0 0 75 11
-1.557346 0.229590 -0.455222 255 0 0 75 11
-1.564207 0.197311 -0.455222 255 0 0 75 11
-1.643386 0.094527 -0.429421 255 0 0 75 11
-1.536620 0.240520 -0.454118 255 0 0 75 11
-1.506888 0.243401 -0.423421 255 0 0 75 11
-1.596539 0.175061 -0.420421 255 0 0 75 11
-1.621632 0.194182 -0.420421 255 0 0 75 11
-1.499870 0.205105 -0.459421 255 0 0 75 11
-1.610291 0.110365 -0.438421 255 0 0 75 11
-1.616688 0.094699 -0.426421 255 0 0 75 11
-1.579699 0.109997 -0.417421 255 0 0 75 11
-1.577933 0.103878 -0.456421 255 0 0 75 11
-1.572755 0.171525 -0.418662 255 0 0 75 11
-1.680898 0.110055 -0.453421 255 0 0 75 11
-1.595347 0.222333 -0.414421 255 0 0 75 11
-1.560138 0.144307 -0.453227 255 0 0 75 11
-1.571139 0.207986 -0.421895 255 0 0 75 11
-1.611342 0.191995 -0.414232 255 0 0 75 11
-1.537060 0.252881 -0.457481 255 0 0 75 11
-1.574887 0.122906 -0.411421 255 0 0 75 11
-1.502102 0.273054 -0.424917 255 0 0 75 11
-1.569126 0.130882 -0.411280 255 0 0 75 11
-1.616137 0.111720 -0.426421 255 0 0 75 11
-1.557785 0.241952 -0.424915 255 0 0 75 11
-1.527122 0.198630 -0.460704 255 0 0 75 11
-1.679355 0.181916 -0.420421 255 0 0 75 11
-1.515489 0.260564 -0.423421 255 0 0 75 11
-1.495665 0.096866 -0.429421 255 0 0 75 11
-1.620263 0.258299 -0.423421 255 0 0 75 11
-1.604636 0.187503 -0.420421 255 0 0 75 11
-1.527306 0.183334 -0.421890 255 0 0 75 11
-1.636186 0.255549 -0.423421 255 0 0 75 11
-1.628141 0.213968 -0.421901 255 0 0 75 11
-1.555403 0.195440 -0.453310 255 0 0 75 11
-1.597915 0.110871 -0.441421 255 0 0 75 11
-1.524627 0.210368 -0.460779 255 0 0 75 11
-1.550782 0.188324 -0.457481 255 0 0 75 11
-1.570005 0.155605 -0.457949 255 0 0 75 11
-1.562520 0.190819 -0.457949 255 0 0 75 11
-1.565015 0.179081 -0.457949 255 0 0 75 11
-1.645421 0.147099 -0.411809 255 0 0 75 11
-1.654371 0.256348 -0.423421 255 0 0 75 11
-1.682508 0.167251 -0.420421 255 0 0 75 11
-1.659104 0.111582 -0.417421 255 0 0 75 11
-1.528072 0.266306 -0.460771 255 0 0 75 11
-1.633750 0.267299 -0.423421 255 0 0 75 11
-1.634697 0.183121 -0.420421 255 0 0 75 11
-1.662464 0.175258 -0.420421 255 0 0 75 11
-1.508523 0.228414 -0.460717 255 0 0 75 11
-1.536662 0.139317 -0.412136 255 0 0 75 11
-1.541905 0.201226 -0.414421 255 0 0 75 11
-1.560904 0.227279 -0.460868 255 0 0 75 11
-1.589298 0.165840 -0.421890 255 0 0 75 11
-1.591982 0.095497 -0.438421 255 0 0 75 11
-1.666232 0.258869 -0.423421 255 0 0 75 11
-1.547718 0.267415 -0.423421 255 0 0 75 11
-1.669589 0.264265 -0.423421 255 0 0 75 11
-1.548342 0.151001 -0.453421 255 0 0 75 11
-1.510358 0.241072 -0.459421 255 0 0 75 11
-1.663580 0.104954 -0.460773 255 0 0 75 11
-1.588889 0.095619 -0.444421 255 0 0 75 11
-1.559259 0.119584 -0.418822 255 0 0 75 11
-1.504384 0.132456 -0.418875 255 0 0 75 11
-1.650209 0.095718 -0.438421 255 0 0 75 11
-1.576459 0.190715 -0.420421 255 0 0 75 11
-1.581700 0.259303 -0.416057 255 0 0 75 11
-1.508158 0.186844 -0.459421 255 0 0 75 11
-1.659980 0.208467 -0.415055 255 0 0 75 11
-1.495458 0.217734 -0.459421 255 0 0 75 11
-1.588972 0.095230 -0.415270 255 0 0 75 11
-1.502768 0.168917 -0.452477 255 0 0 75 11
-1.583678 0.120136 -0.417421 255 0 0 75 11
-1.549392 0.108286 -0.410990 255 0 0 75 11
-1.514208 0.244957 -0.452202 255 0 0 75 11
-1.546150 0.094682 -0.444421 255 0 0 75 11
-1.601210 0.095373 -0.429421 255 0 0 75 11
-1.633144 0.132712 -0.411421 255 0 0 75 11
-1.555659 0.223098 -0.414350 255 0 0 75 11
-1.632744 0.221167 -0.414421 255 0 0 75 11
-1.566631 0.142620 -0.460916 255 0 0 75 11
-1.535434 0.116236 -0.459421 255 0 0 75 11
-1.604490 0.094367 -0.435421 255 0 0 75 11
-1.641001 0.095750 -0.444421 255 0 0 75 11
-1.547989 0.273607 -0.419120 255 0 0 75 11
-1.558654 0.266720 -0.414421 255 0 0 75 11
-1.662645 0.095554 -0.426421 255 0 0 75 11
-1.575330 0.130552 -0.417421 255 0 0 75 11
-1.616842 0.223835 -0.414708 255 0 0 75 11
-1.504354 0.095646 -0.423421 255 0 0 75 11
-1.581005 0.219284 -0.415132 255 0 0 75 11
-1.527604 0.109789 -0.411229 255 0 0 75 11
-1.594841 0.096477 -0.457640 255 0 0 75 11
-1.585497 0.212583 -0.414421 255 0 0 75 11
-1.683133 0.265528 -0.423421 255 0 0 75 11
-1.573444 0.096138 -0.420421 255 0 0 75 11
-1.522740 0.139425 -0.411421 255 0 0 75 11
-1.682668 0.101727 -0.438421 255 0 0 75 11
-1.628253 0.112436 -0.411421 255 0 0 75 11
-1.558154 0.211360 -0.460892 255 0 0 75 11
-1.501407 0.233035 -0.421826 255 0 0 75 11
-1.491838 0.148192 -0.456995 255 0 0 75 11
-1.547280 0.095569 -0.429421 255 0 0 75 11
-1.491143 0.108173 -0.449380 255 0 0 75 11
-1.505036 0.273678 -0.455404 255 0 0 75 11
-1.653119 0.240746 -0.415965 255 0 0 75 11
-1.506312 0.108955 -0.423421 255 0 0 75 11
-1.556117 0.198659 -0.420421 255 0 0 75 11
-1.529759 0.272799 -0.455198 255 0 0 75 11
-1.632507 0.193427 -0.414032 255 0 0 75 11
-1.597987 0.096105 -0.423421 255 0 0 75 11
-1.517010 0.144341 -0.411421 255 0 0 75 11
-1.558225 0.254313 -0.455256 255 0 0 75 11
-1.492781 0.151459 -0.411421 255 0 0 75 11
-1.660878 0.196390 -0.420421 255 0 0 75 11
-1.513827 0.203463 -0.459421 255 0 0 75 11
-1.670470 0.216831 -0.413672 255 0 0 75 11
-1.643989 0.168264 -0.412419 255 0 0 75 11
-1.652056 0.231319 -0.414458 255 0 0 75 11
-1.620258 0.135617 -0.410794 255 0 0 75 11
-1.566957 0.213231 -0.413727 255 0 0 75 11
-1.507816 0.102516 -0.435421 255 0 0 75 11
-1.492391 0.102304 -0.456808 255 0 0 75 11
-1.541420 0.195535 -0.453421 255 0 0 75 11
-1.598286 0.152416 -0.418797 255 0 0 75 11
-1.495936 0.128913 -0.459421 255 0 0 75 11
-1.610023 0.154911 -0.410928 255 0 0 75 11
-1.628580 0.226329 -0.415325 255 0 0 75 11
-1.681258 0.151650 -0.418778 255 0 0 75 11
-1.495793 0.259445 -0.415578 255 0 0 75 11
-1.593734 0.108510 -0.459421 255 0 0 75 11
-1.543048 0.094848 -0.417421 255 0 0 75 11
-1.649428 0.221560 -0.414421 255 0 0 75 11
-1.653430 0.094991 -0.444421 255 0 0 75 11
-1.604791 0.121808 -0.417421 255 0 0 75 11
-1.590001 0.270269 -0.423421 255 0 0 75 11
-1.517142 0.245581 -0.415549 255 0 0 75 11
-1.567192 0.096692 -0.420421 255 0 0 75 11
-1.581939 0.272610 -0.417421 255 0 0 75 11
-1.510210 0.234906 -0.453712 255 0 0 75 11
-1.605135 0.095598 -0.453421 255 0 0 75 11
-1.656147 0.154355 -0.411421 255 0 0 75 11
-1.501591 0.217739 -0.454025 255 0 0 75 11
-1.519198 0.221482 -0.415305 255 0 0 75 11
-1.535854 0.157548 -0.412003 255 0 0 75 11
-1.514647 0.257319 -0.415376 255 0 0 75 11
-1.501775 0.202443 -0.453341 255 0 0 75 11
-1.660813 0.218980 -0.414421 255 0 0 75 11
-1.526427 0.158611 -0.454479 255 0 0 75 11
-1.533870 0.224600 -0.414427 255 0 0 75 11
-1.594997 0.110170 -0.417421 255 0 0 75 11
-1.681442 0.136354 -0.410922 255 0 0 75 11
-1.498724 0.140454 -0.453421 255 0 0 75 11
-1.606352 0.215471 -0.414480 255 0 0 75 11
-1.626023 0.267217 -0.423421 255 0 0 75 11
-1.595125 0.268291 -0.417078 255 0 0 75 11
-1.491648 0.250087 -0.453421 255 0 0 75 11
-1.530232 0.270574 -0.417421 255 0 0 75 11
-1.564207 0.197311 -0.413833 255 0 0 75 11
-1.635512 0.237004 -0.415328 255 0 0 75 11
-1.653374 0.268404 -0.416792 255 0 0 75 11
-1.536733 0.182271 -0.453734 255 0 0 75 11
-1.599705 0.131308 -0.411421 255 0 0 75 11
-1.512889 0.207873 -0.452651 255 0 0 75 11
-1.554964 0.183079 -0.452823 255 0 0 75 11
-1.524983 0.179834 -0.453421 255 0 0 75 11
-1.676566 0.101580 -0.454338 255 0 0 75 11
-1.663170 0.236749 -0.415423 255 0 0 75 11
-1.551477 0.228343 -0.452883 255 0 0 75 11
-1.501010 0.119471 -0.410112 255 0 0 75 11
-1.571323 0.192690 -0.413706 255 0 0 75 11
-1.495321 0.198004 -0.456421 255 0 0 75 11
-1.499138 0.128274 -0.452126 255 0 0 75 11
-1.622824 0.166833 -0.413219 255 0 0 75 11
-1.670512 0.115629 -0.410156 255 0 0 75 11
-1.637325 0.271762 -0.417421 255 0 0 75 11
-1.535373 0.246389 -0.415251 255 0 0 75 11
-1.507134 0.148376 -0.452550 255 0 0 75 11
-1.552540 0.237770 -0.414565 255 0 0 75 11
-1.556824 0.158938 -0.411421 255 0 0 75 11
-1.503831 0.178344 -0.412543 255 0 0 75 11
-1.532736 0.172220 -0.412090 255 0 0 75 11
-1.525619 0.176841 -0.412095 255 0 0 75 11
-1.622466 0.096373 -0.423421 255 0 0 75 11
-1.522203 0.265059 -0.452164 255 0 0 75 11
-1.667649 0.157958 -0.412229 255 0 0 75 11
-1.673589 0.202159 -0.413417 255 0 0 75 11
-1.550484 0.261869 -0.452947 255 0 0 75 11
-1.503349 0.267185 -0.453313 255 0 0 75 11
-1.532665 0.129266 -0.410493 255 0 0 75 11
-1.510947 0.173723 -0.412478 255 0 0 75 11
-1.501352 0.107276 -0.426421 255 0 0 75 11
-1.628764 0.211034 -0.413929 255 0 0 75 11
-1.618316 0.101467 -0.410359 255 0 0 75 11
-1.619082 0.184439 -0.412910 255 0 0 75 11
-1.589411 0.107591 -0.409927 255 0 0 75 11
-1.501265 0.147128 -0.453168 255 0 0 75 11
-1.682674 0.101701 -0.450421 255 0 0 75 11
-1.533300 0.095664 -0.447421 255 0 0 75 11
-1.522245 0.163856 -0.453159 255 0 0 75 11
-1.581261 0.246942 -0.415413 255 0 0 75 11
-1.657230 0.192548 -0.414320 255 0 0 75 11
-1.506142 0.181902 -0.452992 255 0 0 75 11
-1.603673 0.242504 -0.415457 255 0 0 75 11
-1.507697 0.182233 -0.420421 255 0 0 75 11
-1.553419 0.262493 -0.416103 255 0 0 75 11
-1.496097 0.157011 -0.453421 255 0 0 75 11
-1.604162 0.095913 -0.417421 255 0 0 75 11
-1.656230 0.096249 -0.417421 255 0 0 75 11
-1.607671 0.252555 -0.415850 255 0 0 75 11
-1.521948 0.237401 -0.452730 255 0 0 75 11
-1.641062 0.095462 -0.417421 255 0 0 75 11
-1.510763 0.189018 -0.452900 255 0 0 75 11
-1.529057 0.140768 -0.411421 255 0 0 75 11
-1.614716 0.204980 -0.413918 255 0 0 75 11
-1.571691 0.162098 -0.411541 255 0 0 75 11
-1.600412 0.171270 -0.412838 255 0 0 75 11
-1.673631 0.100956 -0.409877 255 0 0 75 11
-1.552653 0.179520 -0.412410 255 0 0 75 11
-1.677403 0.227506 -0.415042 255 0 0 75 11
-1.625277 0.256298 -0.416402 255 0 0 75 11
-1.491461 0.191050 -0.414421 255 0 0 75 11
-1.571181 0.106783 -0.409618 255 0 0 75 11
-1.540306 0.103287 -0.456421 255 0 0 75 11
-1.610434 0.095264 -0.423421 255 0 0 75 11
-1.528043 0.122150 -0.410715 255 0 0 75 11
-1.682061 0.234449 -0.414421 255 0 0 75 11
-1.555158 0.140182 -0.453421 255 0 0 75 11
-1.510252 0.133704 -0.412012 255 0 0 75 11
-1.599278 0.118889 -0.411156 255 0 0 75 11
-1.649490 0.200104 -0.413907 255 0 0 75 11
-1.518544 0.094693 -0.456421 255 0 0 75 11
-1.580934 0.176331 -0.412947 255 0 0 75 11
-1.527561 0.095561 -0.426421 255 0 0 75 11
-1.512747 0.121966 -0.410590 255 0 0 75 11
-1.634912 0.095536 -0.420421 255 0 0 75 11
-1.608265 0.105465 -0.410143 255 0 0 75 11
-1.566631 0.142620 -0.411837 255 0 0 75 11
-1.504199 0.147752 -0.411593 255 0 0 75 11
-1.607344 0.181944 -0.412717 255 0 0 75 11
-1.668968 0.195043 -0.413448 255 0 0 75 11
-1.604155 0.153663 -0.412928 255 0 0 75 11
-1.571876 0.146802 -0.418905 255 0 0 75 11
-1.604339 0.138367 -0.410810 255 0 0 75 11
-1.512323 0.109531 -0.432421 255 0 0 75 11
-1.564136 0.154358 -0.411297 255 0 0 75 11
-1.585924 0.152855 -0.411508 255 0 0 75 11
-1.621832 0.200359 -0.412968 255 0 0 75 11
-1.594983 0.182384 -0.412744 255 0 0 75 11
-1.561130 0.110781 -0.409570 255 0 0 75 11
-1.498770 0.158866 -0.412752 255 0 0 75 11
-1.540001 0.094753 -0.423421 255 0 0 75 11
-1.639113 0.133490 -0.418889 255 0 0 75 11
-1.541979 0.186453 -0.412978 255 0 0 75 11
-1.541284 0.146434 -0.411884 255 0 0 75 11
-1.647690 0.251860 -0.415265 255 0 0 75 11
-1.515711 0.266746 -0.452718 255 0 0 75 11
-1.495467 0.188834 -0.419370 255 0 0 75 11
-1.535344 0.102233 -0.409324 255 0 0 75 11
-1.635739 0.120505 -0.410816 255 0 0 75 11
-1.531671 0.147457 -0.453421 255 0 0 75 11
-1.677700 0.153960 -0.411855 255 0 0 75 11
-1.508565 0.127211 -0.410871 255 0 0 75 11
-1.545863 0.254753 -0.452051 255 0 0 75 11
-1.560067 0.101354 -0.410284 255 0 0 75 11
-1.559698 0.131946 -0.411993 255 0 0 75 11
-1.612589 0.186126 -0.414030 255 0 0 75 11
-1.542531 0.140565 -0.452411 255 0 0 75 11
-1.525875 0.204499 -0.413517 255 0 0 75 11
-1.525946 0.247452 -0.452434 255 0 0 75 11
-1.520743 0.142067 -0.452964 255 0 0 75 11
-1.544360 0.232964 -0.451858 255 0 0 75 11
-1.518758 0.209120 -0.413522 255 0 0 75 11
-1.538307 0.247013 -0.452988 255 0 0 75 11
-1.517000 0.159674 -0.412427 255 0 0 75 11
-1.555077 0.124829 -0.411320 255 0 0 75 11
-1.669336 0.164451 -0.418770 255 0 0 75 11
-1.495099 0.219426 -0.419815 255 0 0 75 11
-1.571210 0.250939 -0.415625 255 0 0 75 11
-1.530241 0.183958 -0.412621 255 0 0 75 11
-1.665468 0.096076 -0.444421 255 0 0 75 11
-1.530936 0.223977 -0.452604 255 0 0 75 11
-1.683498 0.112255 -0.415612 255 0 0 75 11
-1.515455 0.239088 -0.452499 255 0 0 75 11
-1.654622 0.262535 -0.415909 255 0 0 75 11
-1.526754 0.229222 -0.421590 255 0 0 75 11
-1.569494 0.100290 -0.409955 255 0 0 75 11
-1.673476 0.260408 -0.416209 255 0 0 75 11
-1.543737 0.235899 -0.421790 255 0 0 75 11
-1.672199 0.122121 -0.411131 255 0 0 75 11
-1.594543 0.170022 -0.412470 255 0 0 75 11
-1.509444 0.151934 -0.418695 255 0 0 75 11
-1.528001 0.223353 -0.421764 255 0 0 75 11
-1.510508 0.161361 -0.460622 255 0 0 75 11
-1.507460 0.218987 -0.421614 255 0 0 75 11
-1.578510 0.231022 -0.415058 255 0 0 75 11
-1.576937 0.166280 -0.418555 255 0 0 75 11
-1.522132 0.222105 -0.460792 255 0 0 75 11
-1.503391 0.165983 -0.460647 255 0 0 75 11
-1.521140 0.255632 -0.415475 255 0 0 75 11
-1.497707 0.149439 -0.460886 255 0 0 75 11
-1.556282 0.220163 -0.421631 255 0 0 75 11
-1.638928 0.148786 -0.418628 255 0 0 75 11
-1.532183 0.218108 -0.421797 255 0 0 75 11
-1.503624 0.172166 -0.420421 255 0 0 75 11
-1.511713 0.256695 -0.452083 255 0 0 75 11
-1.597365 0.228895 -0.414681 255 0 0 75 11
-1.573830 0.108748 -0.447421 255 0 0 75 11
-1.557897 0.111564 -0.423421 255 0 0 75 11
-1.508821 0.154868 -0.460756 255 0 0 75 11
-1.505447 0.141883 -0.418694 255 0 0 75 11
-1.519935 0.160298 -0.460800 255 0 0 75 11
-1.564388 0.109881 -0.453421 255 0 0 75 11
-1.667975 0.228569 -0.421568 255 0 0 75 11
-1.634491 0.126374 -0.418734 255 0 0 75 11
-1.515937 0.150247 -0.460729 255 0 0 75 11
-1.535415 0.145186 -0.418804 255 0 0 75 11
-1.581629 0.216350 -0.421758 255 0 0 75 11
-1.661780 0.156711 -0.418606 255 0 0 75 11
-1.682690 0.130485 -0.418725 255 0 0 75 11
-1.619593 0.239754 -0.421677 255 0 0 75 11
-1.503718 0.236593 -0.460827 255 0 0 75 11
-1.590730 0.144676 -0.418714 255 0 0 75 11
-1.663354 0.221453 -0.421754 255 0 0 75 11
-1.585300 0.155790 -0.418841 255 0 0 75 11
-1.602170 0.220716 -0.421727 255 0 0 75 11
-1.528851 0.103920 -0.410784 255 0 0 75 11
-1.516703 0.233219 -0.460764 255 0 0 75 11
-1.627814 0.143357 -0.418725 255 0 0 75 11
-1.532438 0.245765 -0.460789 255 0 0 75 11
-1.615411 0.244999 -0.421771 255 0 0 75 11
-1.648171 0.163019 -0.418770 255 0 0 75 11
-1.553022 0.148929 -0.460618 255 0 0 75 11
-1.515937 0.150247 -0.418884 255 0 0 75 11
-1.552979 0.250131 -0.460709 255 0 0 75 11
-1.536294 0.169909 -0.460682 255 0 0 75 11
-1.664459 0.129677 -0.418756 255 0 0 75 11
-1.518645 0.267369 -0.460898 255 0 0 75 11
-1.555956 0.149552 -0.418701 255 0 0 75 11
-1.566886 0.170278 -0.421871 255 0 0 75 11
-1.548726 0.212423 -0.460767 255 0 0 75 11
-1.579063 0.185134 -0.421846 255 0 0 75 11
-1.608521 0.133122 -0.418788 255 0 0 75 11
-1.531928 0.190450 -0.460776 255 0 0 75 11
-1.540292 0.179960 -0.460651 255 0 0 75 11
-1.532296 0.159858 -0.418805 255 0 0 75 11
-1.597927 0.110816 -0.423421 255 0 0 75 11
-1.678466 0.236933 -0.421808 255 0 0 75 11
-1.636136 0.234069 -0.421613 255 0 0 75 11
-1.603091 0.144236 -0.418613 255 0 0 75 11
-1.546274 0.122958 -0.418872 255 0 0 75 11
-1.514619 0.113163 -0.460655 255 0 0 75 11
-1.576471 0.096326 -0.414421 255 0 0 75 11
-1.584237 0.146363 -0.418764 255 0 0 75 11
-1.548174 0.258311 -0.415568 255 0 0 75 11
-1.527675 0.152742 -0.418847 255 0 0 75 11
-1.684377 0.136978 -0.418828 255 0 0 75 11
-1.508013 0.173099 -0.460658 255 0 0 75 11
-1.537173 0.194632 -0.421880 255 0 0 75 11
-1.615637 0.128501 -0.418801 255 0 0 75 11
-1.620329 0.178570 -0.412289 255 0 0 75 11
-1.561896 0.193753 -0.421760 255 0 0 75 11
-1.515498 0.137885 -0.418783 255 0 0 75 11
-1.523819 0.228598 -0.460737 255 0 0 75 11
-1.647874 0.236564 -0.421856 255 0 0 75 11
-1.542971 0.152926 -0.418796 255 0 0 75 11
-1.529433 0.202188 -0.421902 255 0 0 75 11
-1.521622 0.166790 -0.412389 255 0 0 75 11
-1.635016 0.109477 -0.435421 255 0 0 75 11
-1.654919 0.188990 -0.421895 255 0 0 75 11
-1.619848 0.267412 -0.416676 255 0 0 75 11
-1.521182 0.154429 -0.421910 255 0 0 75 11
-1.607415 0.224898 -0.421664 255 0 0 75 11
-1.587498 0.217597 -0.421751 255 0 0 75 11
-1.674384 0.111843 -0.432421 255 0 0 75 11
-1.520190 0.187955 -0.460820 255 0 0 75 11
-1.537357 0.179336 -0.421824 255 0 0 75 11
-1.514761 0.199069 -0.421842 255 0 0 75 11
-1.552724 0.222474 -0.460738 255 0 0 75 11
-1.531857 0.147497 -0.460895 255 0 0 75 11
-1.551221 0.200685 -0.460767 255 0 0 75 11
-1.516121 0.134951 -0.460622 255 0 0 75 11
-1.512634 0.180215 -0.460670 255 0 0 75 11
-1.511500 0.127835 -0.460655 255 0 0 75 11
-1.665608 0.109844 -0.447421 255 0 0 75 11
-1.567330 0.110470 -0.441421 255 0 0 75 11
-1.604112 0.254866 -0.421594 255 0 0 75 11
-1.643802 0.111427 -0.429421 255 0 0 75 11
-1.610647 0.151976 -0.418801 255 0 0 75 11
-1.662546 0.239683 -0.421811 255 0 0 75 11
-1.668538 0.110487 -0.435421 255 0 0 75 11
-1.594993 0.110190 -0.429421 255 0 0 75 11
-1.533912 0.123397 -0.418886 255 0 0 75 11
-1.640176 0.142918 -0.418727 255 0 0 75 11
-1.536733 0.182271 -0.412773 255 0 0 75 11
-1.543779 0.134696 -0.460682 255 0 0 75 11
-1.521182 0.154429 -0.460770 255 0 0 75 11
-1.550158 0.191258 -0.421865 255 0 0 75 11
-1.594430 0.228272 -0.421716 255 0 0 75 11
-1.547961 0.129451 -0.460846 255 0 0 75 11
-1.532736 0.172220 -0.421901 255 0 0 75 11
-1.538349 0.145810 -0.460871 255 0 0 75 11
-1.567141 0.197935 -0.460868 255 0 0 75 11
-1.521877 0.194448 -0.421845 255 0 0 75 11
-1.526356 0.115657 -0.418854 255 0 0 75 11
-1.675276 0.208652 -0.421803 255 0 0 75 11
-1.584124 0.204612 -0.421896 255 0 0 75 11
-1.526796 0.128019 -0.418855 255 0 0 75 11
-1.528185 0.208057 -0.452599 255 0 0 75 11
-1.682392 0.204030 -0.421794 255 0 0 75 11
-1.539299 0.213486 -0.460618 255 0 0 75 11
-1.534933 0.234027 -0.460686 255 0 0 75 11
-1.522614 0.133264 -0.460589 255 0 0 75 11
-1.571620 0.119145 -0.418707 255 0 0 75 11
-1.674908 0.239244 -0.414533 255 0 0 75 11
-1.671461 0.111165 -0.420421 255 0 0 75 11
-1.613213 0.111046 -0.450421 255 0 0 75 11
-1.508565 0.127211 -0.418698 255 0 0 75 11
-1.668897 0.152089 -0.418660 255 0 0 75 11
-1.630636 0.202230 -0.421847 255 0 0 75 11
-1.651800 0.203662 -0.421836 255 0 0 75 11
-1.664899 0.142039 -0.418672 255 0 0 75 11
-1.527703 0.094895 -0.441421 255 0 0 75 11
-1.601660 0.165401 -0.418638 255 0 0 75 11
-1.655614 0.229009 -0.421820 255 0 0 75 11
-1.525690 0.219795 -0.452315 255 0 0 75 11
-1.528993 0.189827 -0.421850 255 0 0 75 11
-1.634817 0.196985 -0.421856 255 0 0 75 11
-1.591935 0.240009 -0.421777 255 0 0 75 11
-1.539484 0.198190 -0.460821 255 0 0 75 11
-1.615269 0.159092 -0.418693 255 0 0 75 11
-1.620514 0.163274 -0.418716 255 0 0 75 11
-1.558451 0.137814 -0.418820 255 0 0 75 11
-1.649305 0.215400 -0.421750 255 0 0 75 11
-1.548982 0.240080 -0.452051 255 0 0 75 11
-1.548982 0.240080 -0.460738 255 0 0 75 11
-1.544474 0.174715 -0.453926 255 0 0 75 11
-1.657169 0.272277 -0.423421 255 0 0 75 11
-1.677260 0.141599 -0.412057 255 0 0 75 11
-1.496601 0.241215 -0.457394 255 0 0 75 11
-1.561783 0.252002 -0.421699 255 0 0 75 11
-1.664162 0.203222 -0.418526 255 0 0 75 11
-1.522940 0.203875 -0.452061 255 0 0 75 11
-1.600525 0.113020 -0.415554 255 0 0 75 11
-1.561585 0.238502 -0.456421 255 0 0 75 11
-1.521539 0.095033 -0.444421 255 0 0 75 11
-1.509629 0.136638 -0.452783 255 0 0 75 11
-1.524740 0.152118 -0.453157 255 0 0 75 11
-1.590617 0.202925 -0.413476 255 0 0 75 11
-1.496388 0.112355 -0.453330 255 0 0 75 11
-1.521842 0.122466 -0.417421 255 0 0 75 11
-1.667352 0.231504 -0.415369 255 0 0 75 11
-1.606394 0.114268 -0.415513 255 0 0 75 11
-1.492022 0.132896 -0.411331 255 0 0 75 11
-1.535968 0.099298 -0.457902 255 0 0 75 11
-1.551474 0.098493 -0.453421 255 0 0 75 11
-1.563182 0.221630 -0.414421 255 0 0 75 11
-1.637057 0.157590 -0.412549 255 0 0 75 11
-1.497400 0.107595 -0.441421 255 0 0 75 11
-1.524110 0.111794 -0.453421 255 0 0 75 11
-1.528880 0.248076 -0.421532 255 0 0 75 11
-1.544289 0.190011 -0.452796 255 0 0 75 11
-1.589141 0.108861 -0.438421 255 0 0 75 11
-1.566999 0.112028 -0.418813 255 0 0 75 11
-1.499209 0.171228 -0.412689 255 0 0 75 11
-1.496714 0.182965 -0.452174 255 0 0 75 11
-1.616403 0.211473 -0.414150 255 0 0 75 11
-1.605184 0.098676 -0.459421 255 0 0 75 11
-1.553461 0.161290 -0.460794 255 0 0 75 11
-1.552214 0.167159 -0.460794 255 0 0 75 11
-1.640942 0.225890 -0.415297 255 0 0 75 11
-1.499223 0.243311 -0.423421 255 0 0 75 11
-1.658180 0.260224 -0.421698 255 0 0 75 11
-1.534565 0.264619 -0.421660 255 0 0 75 11
-1.610166 0.240817 -0.414914 255 0 0 75 11
-1.673518 0.159206 -0.418659 255 0 0 75 11
-1.643818 0.111354 -0.417421 255 0 0 75 11
-1.618600 0.273281 -0.424847 255 0 0 75 11
-1.508535 0.199500 -0.459421 255 0 0 75 11
-1.522677 0.127143 -0.453421 255 0 0 75 11
-1.605657 0.175452 -0.418573 255 0 0 75 11
-1.561440 0.094892 -0.423421 255 0 0 75 11
-1.548471 0.184766 -0.412863 255 0 0 75 11
-1.614461 0.177323 -0.418552 255 0 0 75 11
-1.622660 0.109891 -0.432421 255 0 0 75 11
-1.539672 0.110729 -0.423421 255 0 0 75 11
-1.620698 0.147978 -0.412185 255 0 0 75 11
-1.500088 0.195951 -0.421801 255 0 0 75 11
-1.605529 0.111017 -0.426421 255 0 0 75 11
-1.675644 0.178060 -0.418576 255 0 0 75 11
-1.620585 0.206228 -0.421794 255 0 0 75 11
-1.538718 0.115218 -0.418802 255 0 0 75 11
-1.549903 0.163601 -0.418590 255 0 0 75 11
-1.539852 0.167598 -0.421877 255 0 0 75 11
-1.512337 0.253761 -0.424868 255 0 0 75 11
-1.679184 0.204694 -0.414421 255 0 0 75 11
-1.647806 0.265740 -0.423421 255 0 0 75 11
-1.622640 0.109984 -0.438421 255 0 0 75 11
-1.554708 0.155421 -0.418861 255 0 0 75 11
-1.614829 0.146731 -0.411964 255 0 0 75 11
-1.604084 0.110710 -0.454923 255 0 0 75 11
-1.515129 0.168477 -0.418695 255 0 0 75 11
-1.607345 0.109793 -0.444421 255 0 0 75 11
-1.649532 0.098901 -0.453996 255 0 0 75 11
-1.671857 0.115914 -0.417421 255 0 0 75 11
-1.502286 0.257758 -0.421669 255 0 0 75 11
-1.672099 0.108167 -0.441421 255 0 0 75 11
-1.565847 0.131876 -0.459421 255 0 0 75 11
-1.607784 0.194306 -0.421859 255 0 0 75 11
-1.669591 0.192108 -0.421859 255 0 0 75 11
-1.630820 0.186934 -0.421841 255 0 0 75 11
-1.582948 0.253434 -0.416191 255 0 0 75 11
-1.503391 0.165983 -0.413134 255 0 0 75 11
-1.597917 0.183008 -0.418655 255 0 0 75 11
-1.512960 0.250826 -0.460774 255 0 0 75 11
-1.566844 0.271480 -0.424800 255 0 0 75 11
-1.552778 0.173413 -0.453421 255 0 0 75 11
-1.579800 0.123950 -0.418802 255 0 0 75 11
-1.517142 0.245581 -0.421678 255 0 0 75 11
-1.600839 0.111546 -0.435421 255 0 0 75 11
-1.616702 0.116459 -0.417421 255 0 0 75 11
-1.554951 0.110991 -0.447421 255 0 0 75 11
-1.496346 0.213557 -0.413230 255 0 0 75 11
-1.503787 0.106403 -0.435421 255 0 0 75 11
-1.619071 0.112346 -0.420421 255 0 0 75 11
-1.617835 0.190308 -0.421800 255 0 0 75 11
-1.581487 0.130443 -0.411089 255 0 0 75 11
-1.683087 0.244049 -0.421623 255 0 0 75 11
-1.539356 0.184362 -0.420421 255 0 0 75 11
-1.613511 0.109646 -0.460904 255 0 0 75 11
-1.539668 0.110750 -0.453421 255 0 0 75 11
-1.495309 0.103002 -0.444421 255 0 0 75 11
-1.652118 0.136255 -0.411421 255 0 0 75 11
-1.681811 0.105762 -0.442941 255 0 0 75 11
-1.646740 0.184184 -0.421853 255 0 0 75 11
-1.602670 0.203935 -0.420421 255 0 0 75 11
-1.494868 0.177223 -0.456421 255 0 0 75 11
-1.592549 0.258542 -0.423421 255 0 0 75 11
-1.646258 0.273025 -0.421704 255 0 0 75 11
-1.630248 0.110137 -0.459421 255 0 0 75 11
-1.501909 0.100808 -0.441421 255 0 0 75 11
-1.567323 0.110504 -0.429421 255 0 0 75 11
-1.660836 0.110505 -0.444421 255 0 0 75 11
-1.538423 0.260898 -0.423421 255 0 0 75 11
-1.559903 0.188702 -0.420421 255 0 0 75 11
-1.645500 0.211524 -0.420421 255 0 0 75 11
-1.613642 0.123457 -0.417421 255 0 0 75 11
-1.573195 0.256030 -0.423421 255 0 0 75 11
-1.661085 0.116692 -0.418877 255 0 0 75 11
-1.601149 0.110086 -0.445864 255 0 0 75 11
