ply
format ascii 1.0
element vertex 1113
property float x
property float y
property float z
property uchar red
property uchar green
property uchar blue
property uchar semantic_label
property uchar instance_label
end_header
-0.712854 0.344030 -0.065262 142 124 98 0 0
-0.706182 0.323526 -0.048230 117 80 40 0 0
-0.702331 0.337360 -0.039026 117 76 30 0 0
-0.839726 -0.145295 -0.021646 63 44 19 9 1
-0.812598 0.377635 -0.005351 34 14 7 40 14
-0.815270 0.374260 0.005854 56 25 17 40 14
-0.821794 0.375966 0.012637 29 9 3 40 14
-0.805389 0.348436 0.010280 41 15 8 40 14
-0.728177 0.456386 0.001632 57 45 32 3 6
-0.739332 -0.121479 -0.145742 169 152 140 0 0
-0.736071 -0.108799 -0.157490 170 153 138 0 0
-0.739445 -0.111142 -0.142345 168 152 139 0 0
-1.009907 0.160790 0.197008 23 12 8 40 14
-0.868180 0.146652 -0.022073 31 18 3 9 1
-0.783606 -0.172937 -0.316658 131 120 108 39 9
-0.713392 0.358273 -0.133199 177 165 143 0 0
-0.867927 0.488017 0.427192 110 99 83 13 13
-0.879130 0.500181 0.421682 111 104 85 13 13
-0.802386 -0.038761 -0.230077 166 153 139 0 0
-0.819949 -0.029586 -0.236608 166 153 139 0 0
-0.805133 -0.028192 -0.232225 163 152 140 0 0
-0.926463 0.506779 -0.005536 27 18 12 40 14
-0.909708 0.494221 0.000165 25 15 11 40 14
-0.944157 0.503375 0.010940 13 8 7 40 14
-0.927410 0.503763 0.002185 21 12 10 40 14
-0.922887 0.497137 0.006392 20 12 8 40 14
-0.897897 0.480793 0.010168 20 12 8 40 14
-0.923302 0.487830 0.013882 15 10 7 40 14
-0.843893 0.205370 -0.017426 32 14 5 9 1
-0.834633 0.168005 -0.022126 45 28 12 9 1
-0.744877 -0.293471 -0.134864 155 138 114 0 0
-0.701620 0.318371 -0.033660 116 76 28 9 1
-0.702662 0.340978 -0.032563 118 77 29 9 1
-0.710324 0.313336 -0.024899 85 52 20 9 1
-0.726205 0.362070 -0.021786 69 43 15 9 1
-0.717650 0.313825 -0.022977 71 44 13 9 1
-0.887279 0.095208 -0.343304 72 66 51 1 15
-0.724579 0.095955 -0.060718 142 122 101 0 0
-0.713803 0.092331 -0.039305 121 81 37 0 0
-0.888081 0.081187 -0.318192 72 63 50 1 15
-0.890016 0.066210 -0.315118 73 64 51 1 15
-0.888215 0.076756 -0.295838 70 62 49 1 15
-0.735268 -0.313288 -0.029766 87 58 24 9 1
-0.735101 -0.227139 -0.168461 156 139 117 0 0
-0.736953 -0.204348 -0.169354 155 138 122 0 0
-0.741314 -0.207595 -0.190107 155 140 127 0 0
-0.750043 -0.213356 -0.203103 157 143 129 0 0
-0.738453 -0.227852 -0.185857 130 114 99 0 0
-0.906738 -0.211681 -0.302047 68 59 48 1 15
-0.903196 -0.220462 -0.309228 68 62 49 1 15
-1.049935 0.195769 0.089289 12 7 7 40 14
-0.873152 0.057805 -0.022315 55 38 14 9 1
-0.827210 -0.193019 -0.352881 115 105 95 39 9
-0.800907 -0.195387 -0.340121 115 106 95 39 9
-0.834236 -0.220944 -0.351277 76 66 56 39 9
-0.779002 0.477860 -0.018593 49 38 23 9 1
-0.759392 0.472968 -0.012053 49 38 23 3 6
-0.761443 0.487164 -0.013021 60 51 42 3 6
-0.955514 0.372002 0.232235 49 40 31 40 14
-0.956289 0.381441 0.209462 26 17 9 40 14
-0.968472 0.380318 0.222514 26 13 9 40 14
-0.742433 -0.186777 -0.063537 100 81 58 0 0
-0.961631 0.189089 0.018587 18 8 5 40 14
-0.974380 0.176645 0.002089 30 14 10 40 14
-0.947731 0.180689 0.011462 22 6 4 40 14
-0.974718 0.179692 0.008235 20 6 4 40 14
-0.967049 0.483156 0.023052 10 8 9 40 14
-0.949913 0.494348 0.018348 10 9 9 40 14
-0.875159 0.388935 0.474568 125 112 93 13 13
-0.734493 0.459999 0.056568 57 48 37 0 0
-0.735807 0.460933 0.082133 39 37 29 0 0
-0.713658 0.140246 -0.027984 77 49 14 9 1
-0.712794 0.124612 -0.041533 117 78 33 0 0
-0.711791 0.119106 -0.034226 115 76 31 0 0
-0.714957 0.105367 -0.028685 101 65 23 9 1
-0.917401 0.165117 0.414284 127 116 97 40 14
-0.928922 0.161480 0.402200 106 98 79 40 14
-0.773359 -0.347663 -0.418075 152 140 127 39 9
-0.764193 -0.352567 -0.398118 117 105 93 39 9
-0.949200 0.081494 -0.022592 35 24 9 9 1
-0.852509 -0.264924 -0.242990 140 128 114 0 0
-0.850656 -0.286731 -0.241900 156 142 129 0 0
-0.840056 -0.268327 -0.231179 155 140 126 0 0
-0.831474 -0.256531 -0.234698 146 134 119 0 0
-1.016936 0.171035 0.143925 15 11 9 40 14
-0.882690 0.211750 0.099448 56 20 12 40 14
-0.651948 0.034209 -0.184397 143 127 109 7 5
-0.799601 -0.217583 -0.299904 87 77 66 39 9
-0.767266 0.494879 -0.017484 52 43 34 9 1
-0.787570 0.520273 -0.018009 43 34 23 9 1
-0.761840 0.495978 -0.011484 43 34 19 9 1
-0.832415 0.419489 -0.011116 24 13 7 40 14
-0.828503 0.425873 -0.016771 24 12 5 9 1
-0.755835 -0.275710 -0.205332 147 135 121 0 0
-0.767021 -0.257650 -0.212365 156 143 131 0 0
-0.756453 -0.243928 -0.205924 157 143 132 0 0
-0.835101 -0.243989 -0.344856 85 73 58 39 9
-0.836018 -0.263886 -0.340880 76 66 51 39 9
-0.756612 -0.215969 -0.310979 115 106 96 39 9
-0.760684 -0.241225 -0.305844 101 91 81 39 9
-0.754446 -0.221733 -0.302007 132 123 113 39 9
-0.590504 0.007419 -0.210515 102 90 79 0 0
-0.575300 0.012786 -0.212913 110 100 87 0 0
-0.575198 0.003602 -0.207468 102 90 77 0 0
-0.839348 -0.073124 -0.245785 142 128 116 0 0
-0.837808 -0.076504 -0.240754 162 146 134 0 0
-0.835222 -0.055633 -0.243336 163 149 136 0 0
-0.832410 -0.086575 -0.240424 166 151 136 0 0
-0.827667 -0.077909 -0.240080 165 150 136 0 0
-0.841597 -0.065169 -0.241976 163 148 135 0 0
-0.860124 0.359404 0.424712 116 107 92 13 13
-0.868469 0.363932 0.440785 118 105 89 13 13
-1.049117 0.204225 0.082607 12 8 10 40 14
-0.928414 0.584877 -0.027866 32 22 10 9 1
-0.917211 0.593946 -0.029756 38 28 16 9 1
-0.779908 0.062547 -0.234880 76 71 65 0 0
-0.944361 0.114663 -0.023073 36 25 8 9 1
-0.857101 -0.283516 -0.243987 134 120 106 0 0
-0.850301 -0.271300 -0.244188 126 113 98 0 0
-0.868668 -0.291875 -0.242333 148 134 123 0 0
-0.870687 -0.278053 -0.239454 140 125 113 0 0
-0.876861 -0.269327 -0.243118 143 127 115 0 0
-0.862994 -0.267198 -0.235373 151 135 122 0 0
-0.858683 -0.293664 -0.238629 121 109 99 0 0
-0.855596 -0.286284 -0.232970 122 109 99 0 0
-0.855247 -0.282329 -0.238957 163 146 133 0 0
-0.858247 -0.271369 -0.244545 154 140 125 0 0
-0.851762 -0.269142 -0.240672 152 138 123 0 0
-0.853318 -0.279771 -0.233621 141 126 114 0 0
-0.888689 -0.110312 -0.342378 79 67 52 39 9
-0.892337 -0.100002 -0.341834 77 69 53 1 15
-0.892705 -0.082334 -0.353448 78 68 55 1 15
-0.889178 0.269570 -0.394935 68 61 54 1 15
-0.888458 0.294231 -0.409181 64 58 51 1 15
-0.785464 0.281222 -0.016593 41 18 5 9 1
-0.796733 0.285470 -0.013441 36 16 4 9 1
-0.974909 0.191676 0.076772 33 13 6 40 14
-0.952068 0.190061 0.070970 32 12 7 40 14
-0.984965 0.192763 0.016887 16 6 5 40 14
-1.003017 0.178079 -0.015300 30 17 11 40 14
-1.000602 0.179816 0.001597 20 8 7 40 14
-1.006163 0.184964 0.008923 16 4 2 40 14
-0.878172 -0.185581 -0.020260 60 42 19 9 1
-0.888923 -0.154297 -0.021712 58 40 20 9 1
-0.887102 0.122489 0.406467 85 75 50 13 13
-0.885813 0.113378 0.392903 102 98 65 13 13
-0.889303 0.121372 0.384257 48 40 16 40 14
-0.818760 0.025028 -0.022589 61 41 14 9 1
-0.853165 0.023115 -0.023267 61 42 15 9 1
-0.747109 -0.265988 -0.198326 157 144 129 0 0
-0.746021 -0.243926 -0.195574 148 133 122 0 0
-0.739343 -0.246664 -0.184505 151 135 120 0 0
-0.957671 0.416992 0.204871 21 10 8 40 14
-0.963127 0.442560 0.207235 19 9 6 40 14
-0.982645 0.447109 0.211280 19 10 8 40 14
-0.989524 0.453292 0.214864 19 10 8 40 14
-0.723657 -0.093358 -0.029172 98 67 28 0 0
-0.727178 -0.138645 -0.028247 93 63 24 9 1
-0.725835 -0.118445 -0.039129 107 71 27 0 0
-1.006270 -0.030841 -0.024097 43 29 15 9 1
-0.861905 0.438208 0.009160 39 19 14 40 14
-0.893013 0.111675 -0.288717 81 75 67 1 15
-0.882176 0.109527 -0.272918 70 65 53 0 0
-0.890774 0.101985 -0.295857 104 95 79 1 15
-0.893908 0.112473 -0.280423 81 73 60 0 0
-0.883021 0.102011 -0.278448 78 74 64 0 0
-0.870761 0.100613 -0.268116 78 73 62 0 0
-0.749821 -0.200192 -0.020358 71 50 21 9 1
-0.767657 -0.197467 -0.019227 69 49 21 9 1
-0.755550 -0.171942 -0.020424 69 48 19 9 1
-0.744323 -0.315061 -0.023913 85 53 20 9 1
-0.735065 -0.329052 -0.032425 90 59 24 0 0
-0.761472 -0.320102 -0.021217 77 51 22 9 1
-0.872187 0.450709 0.211694 39 17 13 40 14
-0.895784 0.464988 0.212639 34 16 13 40 14
-0.869828 0.446861 0.204209 43 20 14 40 14
-0.885103 0.456485 0.207556 44 20 14 40 14
-0.884538 0.445379 0.202010 45 18 14 40 14
-0.929660 -0.111008 -0.023287 49 34 15 9 1
-0.898245 0.351600 0.418557 119 109 91 13 13
-0.925333 0.355000 0.421423 122 110 91 13 13
-0.917481 0.374989 0.417350 121 110 89 13 13
-0.906321 0.432915 0.071152 30 16 9 40 14
-0.906178 0.437443 0.085504 34 16 8 40 14
-0.887881 0.422368 0.071674 33 14 8 40 14
-0.892280 0.424347 0.087133 34 15 7 40 14
-0.901589 0.426836 0.065434 35 15 7 40 14
-0.918551 0.441423 0.059067 24 14 8 40 14
-0.791160 -0.316629 -0.303264 87 72 57 39 9
-0.804049 -0.305549 -0.321450 110 94 80 39 9
-0.806492 -0.301239 -0.308284 84 68 54 39 9
-0.798848 -0.297918 -0.313581 97 82 66 39 9
-0.695993 0.069261 -0.174139 20 17 17 7 5
-0.701021 0.048644 -0.173538 23 18 15 7 5
-0.759131 -0.106610 -0.210835 166 150 136 0 0
-0.761139 -0.084782 -0.213378 164 148 135 0 0
-0.709061 0.108456 -0.170281 48 47 45 0 0
-0.693586 0.091298 -0.174663 20 17 15 7 5
-0.704112 0.091474 -0.168805 32 29 27 0 0
-0.819831 -0.233087 -0.306052 75 63 53 39 9
-0.837985 -0.201487 -0.308850 106 97 87 39 9
-0.819859 -0.196580 -0.302463 132 123 112 39 9
-0.886850 0.005734 -0.406115 140 128 115 1 15
-0.884406 0.016316 -0.423375 136 124 111 1 15
-0.891462 0.117849 -0.316359 104 91 80 1 15
-0.889428 0.108871 -0.319605 78 68 57 1 15
-0.880675 0.181529 -0.382608 94 83 70 1 15
-0.883194 0.598401 0.432411 104 95 75 13 13
-0.976046 0.265209 0.322952 19 18 9 40 14
-0.951088 0.259768 0.315433 26 26 14 40 14
-0.959935 0.231137 0.338676 16 15 5 40 14
-0.969296 0.251964 0.325799 15 15 6 40 14
-0.692676 0.417767 -0.046507 107 79 50 0 0
-0.706927 0.420716 -0.072494 110 94 75 0 0
-0.699218 0.427359 -0.069758 103 87 64 3 6
-0.720545 0.396054 -0.022521 63 40 13 9 1
-0.903687 0.318503 -0.384407 65 56 46 1 15
-0.894162 0.289282 -0.388725 87 78 67 1 15
-0.900522 0.295831 -0.374080 79 69 58 1 15
-0.903067 0.308543 -0.375866 64 54 45 1 15
-0.904945 0.289767 -0.364538 70 61 52 1 15
-0.900082 0.292019 -0.363830 68 57 49 1 15
-0.792493 -0.117832 -0.225725 161 149 134 0 0
-0.931658 0.220318 0.309357 32 29 14 40 14
-0.937212 0.241784 0.309107 38 34 18 40 14
-0.937892 0.228197 0.281478 48 46 23 40 14
-0.847675 0.218743 -0.008553 34 14 7 40 14
-0.866423 0.199275 -0.012871 30 13 5 9 1
-0.837994 0.215824 -0.015277 33 13 8 9 1
-0.829476 0.399198 0.170051 36 15 8 40 14
-0.822997 0.246686 -0.009378 33 14 7 40 14
-0.844567 0.257937 0.058410 66 27 14 40 14
-0.853943 0.246862 0.058216 64 24 11 40 14
-0.857316 0.233373 0.084074 61 25 13 40 14
-0.843564 0.252264 0.085228 66 27 15 40 14
-0.856108 -0.116181 -0.250522 119 108 96 0 0
-0.893865 0.171203 -0.353142 88 83 74 1 15
-0.896504 0.153446 -0.323737 95 87 78 1 15
-0.885424 0.152411 -0.354949 103 92 78 1 15
-0.896986 0.172366 -0.333555 77 68 60 1 15
-0.898233 0.180287 -0.339019 68 60 51 1 15
-0.883335 0.180666 -0.016825 25 11 2 9 1
-0.926007 0.168286 -0.016885 25 11 4 9 1
-0.921512 0.175398 -0.013197 25 11 4 9 1
-1.009356 0.499771 0.223479 11 10 7 40 14
-0.720824 0.052816 -0.140463 44 40 39 0 0
-0.718963 0.049023 -0.120899 28 24 23 0 0
-0.717394 0.066304 -0.116280 112 106 106 0 0
-0.722801 0.060368 -0.096796 31 27 27 0 0
-0.711935 0.269500 -0.024672 99 64 26 9 1
-0.871774 0.412836 0.219360 27 10 5 40 14
-0.863400 0.400360 0.218230 33 11 5 40 14
-0.965400 -0.011695 -0.022762 49 34 17 9 1
-0.926230 0.010990 -0.022350 47 32 15 9 1
-0.922056 -0.048954 -0.022473 49 33 16 9 1
-0.881626 0.418041 0.035893 20 12 8 40 14
-0.867127 0.401962 0.039450 28 12 8 40 14
-0.876756 0.412054 0.024811 28 14 10 40 14
-0.828757 0.383300 0.146606 43 19 11 40 14
-0.830321 0.388262 0.140351 43 19 11 40 14
-0.834648 0.399014 0.153059 42 19 12 40 14
-0.847790 0.411197 0.137787 37 16 10 40 14
-0.782553 -0.251571 -0.318488 124 114 98 39 9
-0.791573 -0.253628 -0.304486 130 119 102 39 9
-0.764339 -0.241233 -0.300273 115 102 92 39 9
-0.775738 -0.255668 -0.309748 128 116 99 39 9
-0.768441 -0.234093 -0.316262 115 102 92 39 9
-0.775935 -0.249409 -0.300929 136 125 107 39 9
-0.660191 0.350105 -0.186786 173 156 140 7 5
-0.688799 0.337498 -0.184772 168 150 128 7 5
-0.681820 0.307900 -0.185225 162 144 128 7 5
-0.859529 -0.219783 -0.241972 156 143 132 0 0
-0.834196 -0.226125 -0.237294 155 141 130 0 0
-0.853212 -0.218555 -0.239433 154 141 130 0 0
-0.851737 -0.213660 -0.244967 146 133 121 0 0
-0.853457 -0.196870 -0.239863 158 144 129 0 0
-0.864297 -0.206260 -0.246303 156 142 131 0 0
-0.860689 -0.203850 -0.248071 158 144 128 0 0
-0.842614 -0.209354 -0.241143 153 139 128 0 0
-0.940625 0.080667 0.344307 62 54 31 40 14
-0.918271 0.057250 0.357695 23 27 11 13 13
-0.936708 0.056063 0.345415 36 35 16 40 14
-0.998081 0.554243 -0.012133 14 10 8 9 1
-0.818820 -0.244368 -0.232102 135 122 109 0 0
-0.820197 0.427637 -0.019801 27 17 4 9 1
-0.821428 0.458383 -0.023398 46 27 10 9 1
-0.803406 0.424219 -0.021594 41 26 9 9 1
-0.776775 -0.192171 -0.326414 131 122 111 39 9
-0.872751 -0.243599 -0.364212 122 110 96 39 9
-0.886506 -0.217820 -0.380685 122 109 97 39 9
-0.875107 -0.200496 -0.375858 113 104 89 39 9
-0.868375 -0.212951 -0.368824 116 105 93 39 9
-0.834590 0.281516 0.045768 61 25 11 40 14
-0.831444 0.288977 0.046899 61 25 13 40 14
-0.825635 0.293143 0.035397 52 22 10 40 14
-0.982595 0.170589 -0.018654 17 9 5 9 1
-0.856832 0.005569 -0.241199 157 144 131 0 0
-0.839728 0.004713 -0.239768 162 149 135 0 0
-0.843119 0.029960 -0.246348 133 120 105 0 0
-0.854710 0.027103 -0.254687 133 121 105 0 0
-0.854342 0.007079 -0.253112 119 108 95 0 0
-0.863728 0.011100 -0.248067 165 152 138 0 0
-0.843709 0.004278 -0.245389 165 153 138 0 0
-0.847010 0.009867 -0.248329 162 149 135 0 0
-0.807167 0.336203 0.017031 44 16 8 40 14
-0.802785 0.350864 -0.004256 44 16 8 40 14
-0.801953 0.326360 0.009170 62 28 19 40 14
-0.800255 0.326008 -0.003926 37 14 7 40 14
-0.814842 0.352883 0.018714 35 13 5 40 14
-0.962198 0.269165 0.317963 45 42 22 40 14
-0.970774 0.300545 0.328245 65 57 31 40 14
-0.717086 0.047627 -0.041101 121 78 33 0 0
-0.729459 0.069986 -0.070080 138 117 91 0 0
-0.727471 0.056275 -0.060803 129 100 69 0 0
-0.932793 0.170598 0.329324 51 48 25 40 14
-0.706368 0.421907 -0.118106 170 153 139 0 0
-0.697768 0.429850 -0.109362 153 139 125 0 0
-0.795281 0.487543 -0.020433 36 28 14 9 1
-0.802746 0.478528 -0.022479 40 26 9 9 1
-0.900691 -0.110528 -0.302622 69 63 45 1 15
-0.899269 -0.134928 -0.308607 69 62 47 1 15
-0.926568 0.349891 0.326737 62 54 44 40 14
-0.951732 0.288556 0.326279 34 30 12 40 14
-0.966113 0.320669 0.338013 40 35 18 40 14
-1.007908 0.191278 0.085124 21 10 5 40 14
-0.998562 0.197651 0.067439 31 13 10 40 14
-0.851824 -0.145439 -0.321292 112 103 88 39 9
-0.824677 -0.153955 -0.323088 97 87 72 39 9
-0.858993 -0.150179 -0.315978 76 68 53 39 9
-0.880413 0.222086 0.468548 130 118 99 13 13
-0.880318 0.296892 0.490030 131 114 98 13 13
-0.877139 0.287812 0.473287 131 115 100 13 13
-0.875750 0.311319 0.469031 132 115 98 13 13
-0.880851 0.168646 0.467782 124 111 97 13 13
-1.046701 0.184443 -0.016792 22 12 9 40 14
-1.057278 0.195614 -0.010328 24 13 11 40 14
-0.895068 0.005796 -0.314874 75 67 51 1 15
-0.897369 -0.005536 -0.324434 71 62 47 1 15
-0.935571 0.490687 0.215870 16 11 8 40 14
-0.863872 0.283792 0.427412 123 111 92 13 13
-0.867297 0.297442 0.427708 127 115 95 13 13
-0.868148 0.278697 0.423088 125 113 93 13 13
-0.763348 -0.196360 -0.316643 134 125 114 39 9
-0.753769 -0.202661 -0.305857 135 126 115 39 9
-0.765213 -0.188278 -0.314328 107 96 84 39 9
-0.769697 -0.181916 -0.309297 129 118 106 39 9
-0.783323 -0.175400 -0.306809 134 124 110 39 9
-0.762359 -0.208174 -0.296229 138 129 116 39 9
-0.754608 -0.203815 -0.300578 132 121 109 39 9
-0.790173 -0.301801 -0.222137 149 137 124 0 0
-0.783620 -0.224680 -0.020243 66 45 17 9 1
-0.893515 -0.036289 -0.378622 143 129 118 1 15
-0.892933 -0.043425 -0.353766 145 131 120 1 15
-0.809204 0.306345 0.019532 60 29 17 40 14
-0.803575 0.285086 -0.008662 39 17 7 40 14
-0.806678 0.293005 0.011720 65 33 23 40 14
-0.810282 0.291667 0.018673 48 17 8 40 14
-0.889534 0.188680 0.207029 48 19 12 40 14
-0.701304 0.424874 0.076978 35 32 24 0 0
-0.728282 0.446669 0.082813 43 38 27 0 0
-0.712017 0.433215 0.073565 48 40 31 0 0
-0.695146 0.420424 0.069078 36 31 23 3 6
-0.719010 0.438318 0.079198 46 39 30 0 0
-0.848372 -0.051250 -0.246963 164 151 138 0 0
-0.831415 -0.031317 -0.238557 164 152 138 0 0
-0.839629 -0.044722 -0.237407 168 152 139 0 0
-0.829706 -0.048279 -0.240092 167 154 140 0 0
-0.833863 -0.030438 -0.232486 166 152 137 0 0
-0.842777 -0.036212 -0.239460 168 153 139 0 0
-0.889679 -0.241321 -0.266096 82 71 57 0 0
-0.899758 -0.213961 -0.278508 66 59 46 0 0
-0.871193 -0.227244 -0.317357 83 76 62 39 9
-0.892629 -0.220760 -0.314516 69 61 46 39 9
-0.869203 -0.215265 -0.316411 71 64 50 39 9
-0.869209 0.400284 0.033720 35 14 10 40 14
-0.836756 0.368869 0.028037 39 14 9 40 14
-0.852331 0.383925 0.030171 35 13 10 40 14
-0.846635 0.378344 0.046298 43 17 9 40 14
-0.856816 0.389418 0.041688 43 15 10 40 14
-0.842624 0.369735 0.037731 45 16 10 40 14
-0.858553 0.407291 0.047894 40 18 10 40 14
-0.863236 0.396815 0.026841 30 12 9 40 14
-0.722877 0.442703 0.092800 44 38 30 0 0
-0.707953 0.462549 0.117718 17 15 14 3 6
-0.717385 0.448358 0.112383 21 18 15 3 6
-0.731149 0.453177 0.095070 56 49 41 0 0
-0.722588 0.454670 0.110066 38 33 27 0 0
-0.904198 0.206748 0.041386 43 15 9 40 14
-0.919298 0.201081 0.042027 45 17 11 40 14
-0.902419 0.205717 0.061877 47 16 8 40 14
-0.880119 0.200648 0.469769 129 117 98 13 13
-0.872366 0.222387 0.442232 134 115 100 13 13
-1.029519 0.523289 0.015447 10 9 10 40 14
-1.030416 0.549674 -0.004825 5 3 3 40 14
-1.016699 0.173073 -0.021341 17 12 8 9 1
-0.978182 0.176073 -0.010934 20 10 6 40 14
-1.041253 0.541078 0.009730 10 9 10 40 14
-1.041521 0.529506 0.013015 9 8 8 40 14
-0.931038 0.478935 0.019991 11 8 8 40 14
-0.933956 0.456042 0.041544 14 10 7 40 14
-0.926924 0.450017 0.048997 20 11 7 40 14
-0.917153 0.452760 0.034586 12 9 7 40 14
-0.931644 0.464954 0.030690 10 9 8 40 14
-0.857183 0.207228 0.194226 65 30 15 40 14
-0.845328 0.225607 0.205688 68 34 19 40 14
-0.838302 0.229557 0.196305 57 23 13 40 14
-0.827297 0.568182 -0.017685 43 30 20 9 1
-0.821932 0.558820 -0.019049 44 31 19 9 1
-0.947383 0.370993 0.243918 46 41 30 40 14
-0.919264 0.345323 0.249182 52 45 30 40 14
-0.930296 0.357457 0.246384 53 45 32 40 14
-0.920116 0.363574 0.256999 48 41 31 40 14
-0.925250 0.359680 0.277056 50 43 32 40 14
-0.828008 -0.247910 -0.022041 63 42 16 9 1
-0.823259 -0.197997 -0.020158 66 45 18 9 1
-0.900932 0.137084 0.391001 57 44 26 40 14
-0.902877 0.121761 -0.286692 80 74 60 1 15
-0.820603 0.251749 0.201851 78 33 22 40 14
-0.812878 0.269665 0.207125 79 35 24 40 14
-0.822430 0.254868 0.207497 80 36 23 40 14
-0.825760 0.246278 0.192227 61 25 14 40 14
-0.849184 0.234099 0.211314 77 34 20 40 14
-0.820556 0.265466 0.211513 75 37 21 40 14
-0.811471 0.268993 0.200921 59 24 13 40 14
-1.023385 0.186499 0.120378 14 10 8 40 14
-1.025620 0.187100 0.105285 12 9 6 40 14
-1.033677 0.186200 0.096778 12 9 6 40 14
-0.859344 0.040182 -0.258064 82 72 57 0 0
-0.862737 0.066259 -0.263833 81 69 56 0 0
-0.847047 0.046261 -0.250402 124 112 98 0 0
-0.989610 0.489286 0.024401 11 9 8 40 14
-0.596796 0.160915 -0.184318 175 159 141 7 5
-0.654070 0.163440 -0.187641 176 159 139 7 5
-0.642935 0.132438 -0.186611 175 157 140 7 5
-0.981664 0.171213 0.302286 48 44 20 40 14
-0.684431 0.014839 -0.208661 135 120 105 0 0
-0.710773 0.024736 -0.216968 105 93 78 0 0
-0.682702 0.019427 -0.216508 109 99 85 0 0
-0.967095 0.179860 0.214059 17 11 6 40 14
-0.980223 0.195680 0.218484 18 14 9 40 14
-0.959399 0.205143 0.217675 14 10 6 40 14
-0.709473 0.243970 -0.166556 149 132 114 0 0
-0.712165 0.228132 -0.131654 173 156 132 0 0
-0.718873 0.210023 -0.138172 185 168 146 0 0
-0.881037 0.177164 -0.398819 78 74 61 1 15
-0.891620 0.488592 0.419093 110 99 83 13 13
-0.903248 0.480310 0.418977 107 101 83 13 13
-0.896755 0.461642 0.417124 114 102 87 13 13
-0.885075 0.472305 0.419381 107 101 80 13 13
-0.870592 0.473841 0.425707 111 101 84 13 13
-0.744133 0.467554 -0.002415 60 50 34 3 6
-0.742655 0.467127 0.007671 61 52 36 0 0
-0.723082 0.119447 -0.059887 121 85 44 0 0
-0.719129 0.147223 -0.057673 115 83 43 0 0
-0.726195 0.128546 -0.070793 141 117 91 0 0
-0.913481 0.185108 0.169820 38 14 6 40 14
-0.906567 0.191974 0.154510 46 19 7 40 14
-0.899864 0.190535 0.171009 42 16 7 40 14
-0.935047 0.483307 0.221928 15 9 6 40 14
-0.785571 -0.176398 -0.019572 64 44 21 9 1
-0.796658 -0.375826 -0.019343 68 46 22 9 1
-0.837404 -0.334746 -0.020829 65 44 20 9 1
-0.952021 0.254655 0.237045 58 51 24 40 14
-0.948820 0.250132 0.229825 53 49 24 40 14
-0.836453 0.564673 -0.027067 45 33 20 9 1
-0.842458 0.536991 -0.025259 45 35 19 9 1
-0.845087 0.449488 -0.018215 26 15 4 9 1
-0.702829 0.248826 -0.180857 179 159 138 0 0
-0.692782 0.261568 -0.185038 171 157 137 7 5
-0.831499 0.034136 -0.240739 139 126 111 0 0
-0.817295 0.035894 -0.238156 107 94 84 0 0
-0.815293 0.025605 -0.236076 148 136 120 0 0
-0.829083 0.019840 -0.241727 159 146 130 0 0
-0.837044 0.000309 -0.232363 162 149 136 0 0
-0.931578 0.243893 0.300422 49 45 24 40 14
-0.931267 0.225491 0.300820 54 48 25 40 14
-0.739159 -0.213629 -0.126824 163 145 129 0 0
-0.761045 -0.156448 -0.211252 158 144 130 0 0
-0.746314 -0.150979 -0.199959 163 149 137 0 0
-0.761402 -0.145453 -0.210982 163 148 134 0 0
-0.889271 0.073021 -0.359707 73 65 52 1 15
-0.891193 0.044821 -0.349968 82 71 59 1 15
-0.870778 0.348146 0.442523 125 112 97 13 13
-0.874099 0.328353 0.460781 127 115 98 13 13
-0.876715 0.346754 0.482281 127 113 93 13 13
-0.708895 0.404645 -0.144878 179 164 150 0 0
-0.896120 -0.036544 -0.319418 76 66 51 1 15
-0.898896 -0.065985 -0.295676 71 63 50 1 15
-0.897426 -0.077709 -0.327513 74 66 50 1 15
-0.840039 0.252137 0.135861 69 30 19 40 14
-0.833642 0.262162 0.145101 66 27 13 40 14
-0.789774 0.330236 -0.013563 37 14 6 9 1
-0.824762 0.319088 0.061797 68 25 14 40 14
-0.851282 -0.294575 -0.310212 59 54 42 39 9
-0.845042 -0.273967 -0.310795 59 55 43 39 9
-0.864827 -0.272543 -0.312163 61 54 44 39 9
-0.895669 0.359461 0.211702 34 20 9 40 14
-0.892640 0.325831 0.224802 31 17 10 40 14
-0.855919 -0.235851 -0.316440 84 76 65 39 9
-0.848987 -0.204708 -0.312353 72 61 52 39 9
-0.801005 -0.338745 -0.356591 108 99 90 39 9
-0.797185 -0.341440 -0.376744 108 98 85 39 9
-0.727627 -0.137544 -0.039900 104 71 29 0 0
-0.728788 -0.174361 -0.039078 105 68 26 0 0
-0.735553 -0.149273 -0.053784 102 71 30 0 0
-0.985030 0.186624 0.286886 46 43 19 40 14
-0.982768 0.198796 0.274457 46 44 23 40 14
-0.965406 0.178905 0.302532 51 47 24 40 14
-0.958017 0.192318 0.293592 52 46 24 40 14
-0.772466 0.011739 -0.219570 89 74 67 0 0
-0.949253 0.226514 0.269495 41 41 22 40 14
-0.975173 0.161499 0.205486 39 18 7 40 14
-0.961128 0.161078 0.198283 38 13 5 40 14
-0.966788 0.161488 0.193623 38 15 5 40 14
-0.937430 0.170035 0.194174 42 16 5 40 14
-0.957047 0.166031 0.206362 40 15 6 40 14
-0.849766 0.400630 0.063369 30 16 9 40 14
-0.734754 -0.068041 -0.165546 170 155 141 0 0
-0.740168 -0.075019 -0.197811 168 154 140 0 0
-0.736011 -0.066590 -0.188129 172 157 143 0 0
-0.870852 0.401274 0.453671 124 110 95 13 13
-0.867836 0.430497 0.442178 122 106 89 13 13
-0.872658 0.426177 0.459281 126 111 90 13 13
-0.812156 0.699522 0.314031 93 83 67 0 0
-0.905134 0.707495 0.116985 62 52 43 0 0
-0.935393 0.718192 0.105906 63 55 41 0 0
-0.791999 0.696850 0.149793 90 77 63 0 0
-0.766095 0.695611 0.163534 96 83 67 0 0
-0.803039 0.695893 0.177012 93 77 64 0 0
-0.962436 0.710254 -0.029266 40 33 23 9 1
-0.952921 0.721308 -0.030293 46 37 27 9 1
-0.968372 0.721588 -0.024708 52 44 35 9 1
-0.960730 0.731435 -0.025555 52 45 32 9 1
-0.809179 0.694641 0.208064 95 84 67 0 0
-0.776833 0.695259 0.197511 93 78 62 0 0
-0.939688 0.719571 0.088932 64 55 39 0 0
-0.923849 0.715332 0.065272 69 59 44 0 0
-0.876913 0.689362 0.054950 69 59 49 0 0
-0.864936 0.691527 0.061608 71 60 49 0 0
-0.868071 0.703914 0.402668 82 73 58 0 0
-0.862227 0.700818 0.365598 87 72 58 0 0
-0.852231 0.703778 0.400302 84 75 60 0 0
-0.889740 0.703225 0.186337 64 57 39 0 0
-0.873471 0.699570 0.189220 72 60 49 0 0
-0.807473 0.685608 0.070761 78 68 58 0 0
-0.810074 0.689372 0.084393 85 72 56 0 0
-0.911416 0.712109 0.289952 67 59 45 0 0
-0.792851 0.693640 0.061624 80 71 59 0 0
-0.869620 0.698047 0.111031 71 62 47 0 0
-0.839434 0.695989 0.095394 75 66 51 0 0
-0.813317 0.693790 0.098056 80 69 54 0 0
-0.857298 0.696524 0.108531 84 70 55 0 0
-1.000912 0.703272 -0.030036 42 36 23 9 1
-0.876655 0.703655 0.298342 75 65 53 0 0
-0.892256 0.707166 0.308406 74 58 47 0 0
-0.926019 0.716396 0.218563 65 55 42 0 0
-0.945564 0.723798 0.214781 64 54 42 0 0
-0.872261 0.700660 0.221281 79 69 53 0 0
-0.887837 0.703516 0.219281 71 63 48 0 0
-0.864706 0.699277 0.168031 74 61 49 0 0
-0.856258 0.698249 0.182281 76 66 48 0 0
-0.814899 0.696866 0.166627 91 75 61 0 0
-0.833446 0.696867 0.151872 82 74 58 0 0
-0.801672 0.694610 0.128724 89 73 58 0 0
-0.945209 0.706396 -0.030301 36 29 19 9 1
-0.930053 0.682996 -0.032022 36 29 18 9 1
-0.960098 0.697409 -0.031777 36 29 17 9 1
-0.764470 0.692653 0.116620 88 73 59 0 0
-0.768273 0.695941 0.225719 91 81 66 0 0
-0.988591 0.724125 -0.025726 51 46 36 9 1
-0.966889 0.728505 0.109683 61 52 40 0 0
-0.856799 0.689900 0.062681 77 67 55 0 0
-0.858364 0.693664 0.069766 73 63 50 0 0
-0.862149 0.695997 0.084113 73 64 48 0 0
-0.821145 0.691388 0.064611 67 59 46 0 0
-0.942197 0.723154 0.191472 61 54 39 0 0
-0.958316 0.727736 0.166387 64 56 45 0 0
-0.832695 0.702331 0.412206 107 95 80 0 0
-0.828933 0.704473 0.438719 106 99 80 0 0
-0.842847 0.699512 0.265281 82 71 60 0 0
-0.842223 0.700596 0.286904 85 75 57 0 0
-0.858789 0.701174 0.275781 82 74 58 0 0
-0.804033 0.707785 0.487294 121 106 89 0 0
-0.890592 0.705549 0.251781 65 57 44 0 0
-0.895677 0.707098 0.275656 69 61 46 0 0
-0.901307 0.704203 0.051400 66 56 47 0 0
-0.926246 0.716830 0.050808 66 56 47 0 0
-0.916240 0.709842 0.055797 66 57 48 0 0
-0.936571 0.679738 -0.033783 39 31 20 9 1
-0.956201 0.673043 -0.034702 38 31 19 9 1
-0.943811 0.666887 -0.034226 38 32 18 9 1
-0.826983 0.699547 0.302781 91 81 64 0 0
-0.800134 0.685286 0.048423 75 66 54 0 0
-0.769568 0.700355 0.392281 111 97 81 0 0
-0.874061 0.702234 0.253156 75 67 53 0 0
-0.856048 0.699477 0.252033 74 67 53 0 0
-0.905612 0.724883 0.043476 65 54 43 0 0
-0.870243 0.695633 0.055452 71 59 50 0 0
-0.886947 0.704124 0.052987 69 60 49 0 0
-0.892058 0.709725 0.046346 59 53 40 0 0
-0.871476 0.702950 0.049314 64 57 45 0 0
-0.919222 0.711551 0.077587 68 57 43 0 0
-1.023795 0.640149 -0.028333 35 25 15 9 1
-0.912057 0.661217 -0.032134 37 29 18 9 1
-0.914690 0.648130 -0.034244 39 31 16 9 1
-0.929123 0.664612 -0.035015 39 31 17 9 1
-0.973462 0.728918 -0.017185 54 48 37 0 0
-0.965041 0.734859 -0.013346 51 48 35 0 0
-0.974819 0.731686 0.015602 51 48 35 0 0
-0.996883 0.660033 -0.031708 36 28 16 9 1
-0.972341 0.732951 0.003540 54 48 36 0 0
-0.818254 0.699004 0.051937 75 64 55 0 0
-0.816072 0.693703 0.046734 71 61 51 0 0
-0.824285 0.700719 0.055267 76 65 55 0 0
-0.909256 0.710974 0.252406 68 57 45 0 0
-0.880807 0.698676 0.086134 66 56 45 0 0
-0.820280 0.697714 0.270474 85 73 61 0 0
-0.822850 0.695380 0.233281 91 80 67 0 0
-0.874402 0.704167 0.386939 79 66 51 0 0
-0.819861 0.696264 0.188501 92 77 62 0 0
-0.849725 0.702127 0.420866 101 90 72 0 0
-0.783013 0.703079 0.432156 122 106 84 0 0
-0.893144 0.704104 0.126656 68 55 43 0 0
-0.904472 0.708051 0.158531 64 54 41 0 0
-0.845018 0.700452 0.354778 92 81 65 0 0
-0.842913 0.700489 0.367466 89 74 63 0 0
-0.971096 0.648461 -0.034304 37 28 18 9 1
-0.826256 0.695078 0.136788 81 68 56 0 0
-0.865490 0.698493 0.135531 79 65 53 0 0
-0.937218 0.725665 0.043518 54 48 37 0 0
-0.935250 0.737249 0.040385 51 45 32 0 0
-0.941897 0.727181 0.033765 47 42 33 0 0
-0.910961 0.718148 0.048559 62 55 43 0 0
-0.922291 0.732185 0.041658 61 53 43 0 0
-0.881075 0.704697 0.322781 75 66 53 0 0
-0.883039 0.704178 0.360130 75 66 53 0 0
-0.828730 0.700509 0.331485 92 80 65 0 0
-0.870279 0.702964 0.344121 82 75 60 0 0
-0.860288 0.700982 0.310288 87 73 60 0 0
-0.858344 0.701584 0.326281 86 75 60 0 0
-0.844746 0.700642 0.334031 85 77 63 0 0
-0.797876 0.695573 0.247281 98 83 68 0 0
-0.923673 0.714687 0.158281 64 53 42 0 0
-0.919166 0.713060 0.177531 65 56 45 0 0
-0.957394 0.727083 0.138281 57 49 37 0 0
-0.935802 0.719742 0.140281 63 54 43 0 0
-0.836500 0.701964 0.049400 71 54 42 0 0
-0.851053 0.699243 0.051691 67 57 45 0 0
-0.841231 0.694159 0.047671 70 55 45 0 0
-0.995443 0.670667 -0.035099 37 30 18 9 1
-0.991794 0.685823 -0.033599 38 31 19 9 1
-0.980434 0.705471 -0.031978 35 29 18 9 1
-0.985160 0.732469 -0.012946 51 48 36 0 0
-0.833907 0.696657 0.243028 84 72 57 0 0
-0.842002 0.697333 0.209281 79 68 53 0 0
-1.016659 0.649188 -0.030969 34 26 14 9 1
-0.821756 0.701130 0.356634 91 82 68 0 0
-0.781757 0.706396 0.464289 122 108 89 0 0
-0.900995 0.707197 0.212281 60 54 41 0 0
-0.772901 0.707086 0.484939 122 110 89 0 0
-0.984639 0.732114 0.047603 62 52 42 0 0
-0.787548 0.708580 0.513781 124 109 90 0 0
-0.798888 0.683611 0.074995 83 69 55 0 0
-0.886390 0.702751 0.150781 70 60 45 0 0
-0.874896 0.700686 0.167008 68 55 43 0 0
-0.822118 0.703042 0.391731 99 84 68 0 0
-0.803480 0.700899 0.407412 105 94 77 0 0
-0.815109 0.701472 0.369227 107 93 77 0 0
-0.971642 0.734224 0.028369 51 47 33 0 0
-0.962160 0.728816 0.044642 62 54 45 0 0
-0.963586 0.738266 0.023273 39 35 25 0 0
-0.956176 0.733718 0.036615 57 52 41 0 0
-0.772010 0.698508 0.318121 103 88 75 0 0
-0.788704 0.700610 0.345129 101 88 71 0 0
-0.812040 0.699856 0.339033 103 88 73 0 0
-0.821153 0.707175 0.463820 117 101 85 0 0
-0.804357 0.704990 0.459913 118 100 86 0 0
-0.810125 0.704057 0.437873 116 103 84 0 0
-0.899609 0.704207 0.084019 68 57 44 0 0
-0.876965 0.698480 0.071780 71 62 45 0 0
-0.904159 0.707263 0.068375 70 62 45 0 0
-0.881931 0.699118 0.066205 69 61 47 0 0
-0.889716 0.695797 0.054717 66 57 47 0 0
-0.961694 0.725958 0.086007 60 53 37 0 0
-0.941276 0.724645 0.050613 65 57 42 0 0
-0.970652 0.729774 0.055252 62 55 42 0 0
-0.954383 0.726732 0.067966 65 55 41 0 0
-0.980089 0.731990 0.066722 63 54 38 0 0
-0.802767 0.700367 0.360774 105 91 75 0 0
-0.792331 0.700668 0.378531 106 92 74 0 0
-0.827239 0.691977 0.082135 77 68 52 0 0
-0.804080 0.696576 0.062066 77 66 54 0 0
-0.835236 0.690489 0.069042 79 68 57 0 0
0.495104 -0.208287 -0.875160 113 107 97 2 4
-0.298435 -0.265673 -0.887204 65 58 50 2 4
-0.292974 -0.278436 -0.887827 60 54 48 2 4
0.450951 -0.161878 -0.878076 103 96 88 2 4
-0.249588 -0.240982 -0.888313 72 64 56 2 4
-0.232431 -0.230337 -0.887752 64 60 55 2 4
0.078528 -0.265377 -0.881146 100 93 79 2 4
0.063408 -0.308293 -0.880980 96 88 81 2 4
0.104566 -0.273017 -0.880906 108 101 93 2 4
0.067376 -0.257869 -0.882034 98 89 84 2 4
0.184840 -0.306448 -0.879371 99 90 87 2 4
0.186141 -0.315870 -0.879242 100 95 88 2 4
0.516264 -0.112319 -0.880431 104 98 91 2 4
0.116456 -0.123073 -0.880806 90 85 79 2 4
0.268739 -0.116653 -0.881777 97 90 84 2 4
0.062656 -0.153884 -0.879925 96 85 81 2 4
0.069661 -0.176560 -0.880552 99 95 87 2 4
0.430084 -0.265201 -0.875708 111 107 95 2 4
0.379409 -0.314192 -0.873464 116 110 102 2 4
0.029990 -0.270132 -0.885503 83 76 70 2 4
0.037236 -0.301360 -0.884668 81 76 68 2 4
0.303249 -0.311753 -0.875753 113 108 98 2 4
0.436955 -0.025654 -0.883153 90 85 80 2 4
0.420679 -0.000977 -0.881951 91 86 80 2 4
0.380925 -0.222115 -0.877355 103 94 91 2 4
0.005434 -0.211306 -0.885985 78 73 65 2 4
-0.001439 -0.190913 -0.886815 74 71 64 2 4
0.014824 -0.187569 -0.886889 86 81 71 2 4
0.444623 -0.182060 -0.878400 100 96 88 2 4
0.461754 -0.138227 -0.879970 100 95 90 2 4
-0.025450 -0.245625 -0.887576 77 73 66 2 4
-0.052694 -0.237215 -0.886387 76 69 63 2 4
-0.048448 -0.264894 -0.885755 80 74 67 2 4
-0.023933 -0.261827 -0.887052 73 70 64 2 4
-0.164211 -0.226146 -0.887007 72 64 60 2 4
-0.122499 -0.223045 -0.888250 67 62 57 2 4
0.046766 -0.170627 -0.882991 92 86 75 2 4
0.159117 -0.333222 -0.878496 103 94 87 2 4
0.306688 -0.283242 -0.875650 108 100 92 2 4
0.274264 -0.282118 -0.878123 104 97 88 2 4
0.288043 -0.270335 -0.877057 102 95 89 2 4
0.280410 -0.254656 -0.879439 104 98 90 2 4
0.143212 -0.110315 -0.882024 86 84 77 2 4
-0.127619 -0.332590 -0.885908 70 65 58 2 4
-0.092762 -0.319755 -0.886648 69 63 58 2 4
-0.304267 -0.341959 -0.886391 68 60 51 2 4
-0.324376 -0.321203 -0.886201 56 50 44 2 4
0.152364 -0.200736 -0.880310 94 89 80 2 4
0.142258 -0.179787 -0.880060 88 87 77 2 4
-0.420082 -0.269503 -0.889333 55 50 43 2 4
0.295874 -0.173243 -0.878619 98 90 83 2 4
-0.090658 -0.175505 -0.888705 69 64 57 2 4
-0.095077 -0.190894 -0.888446 69 63 57 2 4
-0.034310 -0.179110 -0.888768 70 66 61 2 4
-0.033052 -0.207215 -0.886806 76 70 64 2 4
-0.220736 -0.196396 -0.886401 64 59 53 2 4
-0.210041 -0.184507 -0.886581 67 62 57 2 4
0.454242 -0.122579 -0.879607 99 95 86 2 4
0.473191 -0.116481 -0.880531 107 103 92 2 4
0.011222 -0.255565 -0.885589 77 69 60 2 4
-0.003850 -0.241971 -0.887242 74 69 64 2 4
-0.004645 -0.277969 -0.886369 78 73 63 2 4
0.304675 -0.106614 -0.882224 98 92 88 2 4
0.295467 -0.087199 -0.882111 98 92 87 2 4
0.280188 -0.088856 -0.882766 97 89 85 2 4
0.209725 -0.257723 -0.879411 95 92 83 2 4
0.244362 -0.248591 -0.880659 99 93 85 2 4
0.043145 -0.130723 -0.883314 83 82 72 2 4
0.014850 -0.120015 -0.887375 83 75 72 2 4
-0.266644 -0.226958 -0.889174 67 63 54 2 4
-0.275744 -0.254869 -0.887481 63 59 53 2 4
0.367940 -0.072357 -0.881244 101 94 89 2 4
0.397974 -0.074197 -0.882103 102 94 88 2 4
0.109942 -0.100507 -0.882774 98 88 87 2 4
0.370496 -0.152986 -0.881561 103 92 88 2 4
0.401964 -0.149227 -0.880568 99 91 86 2 4
0.372778 -0.041108 -0.881130 101 96 92 2 4
-0.073844 -0.368403 -0.886177 71 64 59 2 4
0.207120 -0.162368 -0.879795 96 91 85 2 4
-0.254711 -0.296839 -0.886549 59 55 50 2 4
0.268838 -0.348424 -0.876634 111 104 99 2 4
0.259452 -0.354121 -0.876871 108 102 95 2 4
0.251950 -0.330351 -0.876876 108 101 97 2 4
-0.127004 -0.209268 -0.888528 68 64 57 2 4
0.394862 -0.138996 -0.879969 101 95 91 2 4
0.404712 -0.269147 -0.876417 117 107 101 2 4
0.418661 -0.254191 -0.876005 113 105 95 2 4
0.392808 -0.284875 -0.876085 117 109 100 2 4
0.437321 -0.136469 -0.882211 101 95 87 2 4
-0.204462 -0.304413 -0.886324 62 58 53 2 4
-0.183876 -0.339502 -0.885647 64 57 51 2 4
-0.179048 -0.318505 -0.886787 68 61 54 2 4
0.115881 -0.186311 -0.879328 98 92 87 2 4
0.118287 -0.197564 -0.880027 90 85 75 2 4
0.094833 -0.221053 -0.879848 102 95 88 2 4
0.336438 -0.220398 -0.878766 98 91 88 2 4
-0.192808 -0.234745 -0.885917 70 61 57 2 4
-0.182994 -0.263244 -0.887393 67 65 54 2 4
-0.073569 -0.234435 -0.887397 73 65 62 2 4
-0.072434 -0.246357 -0.886665 79 71 65 2 4
0.167769 -0.392876 -0.876605 109 103 95 2 4
0.343878 -0.154045 -0.879892 101 95 87 2 4
0.357739 -0.160444 -0.880858 101 95 87 2 4
0.320992 -0.159805 -0.879837 101 91 85 2 4
0.336304 -0.164593 -0.880712 99 90 83 2 4
-0.024817 -0.277535 -0.887812 79 75 67 2 4
0.305692 -0.138124 -0.880035 98 93 86 2 4
-0.150654 -0.348275 -0.886180 67 60 55 2 4
-0.160656 -0.337304 -0.885155 67 63 55 2 4
-0.168785 -0.310774 -0.885913 67 60 52 2 4
-0.145437 -0.313176 -0.884987 65 60 59 2 4
-0.151077 -0.286089 -0.886208 67 61 56 2 4
-0.122480 -0.320510 -0.886517 69 64 56 2 4
-0.095514 -0.284869 -0.886724 67 61 55 2 4
-0.071075 -0.193610 -0.888609 71 68 60 2 4
-0.051530 -0.179920 -0.888736 76 69 65 2 4
-0.065317 -0.166807 -0.888146 76 68 63 2 4
0.187377 -0.106877 -0.880617 97 88 85 2 4
0.217888 -0.115019 -0.881142 94 86 78 2 4
0.207859 -0.079285 -0.882393 94 86 81 2 4
0.219953 -0.094238 -0.881205 91 86 78 2 4
0.164697 -0.362238 -0.879249 106 98 92 2 4
0.279298 -0.155438 -0.880007 95 89 78 2 4
0.252110 -0.134103 -0.880875 94 91 83 2 4
0.220000 -0.063257 -0.883691 90 85 80 2 4
0.236514 -0.051389 -0.882028 88 83 75 2 4
0.380531 -0.118066 -0.880761 99 95 88 2 4
0.358675 -0.120965 -0.881781 99 95 88 2 4
-0.064907 -0.402859 -0.887532 78 72 68 2 4
-0.137984 -0.250564 -0.886707 74 67 60 2 4
-0.097678 -0.263758 -0.887762 72 64 60 2 4
-0.201336 -0.219880 -0.886004 67 60 55 2 4
0.322346 -0.342676 -0.875828 111 108 97 2 4
0.257268 -0.167063 -0.880416 94 88 82 2 4
0.267041 -0.190425 -0.881458 92 85 77 2 4
-0.039519 -0.164287 -0.887285 74 70 61 2 4
-0.002845 -0.169261 -0.886329 70 65 61 2 4
-0.123773 -0.171693 -0.887872 66 61 54 2 4
-0.105138 -0.162960 -0.887514 66 62 53 2 4
0.129814 -0.371782 -0.880266 107 99 94 2 4
0.159615 -0.346919 -0.879352 108 98 93 2 4
0.111914 -0.357247 -0.881129 99 93 84 2 4
0.116552 -0.313720 -0.879201 104 99 90 2 4
0.088500 -0.294971 -0.879186 105 101 95 2 4
0.107790 -0.289278 -0.879165 103 99 91 2 4
-0.051584 -0.281088 -0.886221 76 71 64 2 4
-0.071496 -0.286081 -0.888117 78 68 63 2 4
-0.065610 -0.303390 -0.887224 80 73 65 2 4
-0.040109 -0.290494 -0.886279 77 71 64 2 4
0.089634 -0.092227 -0.882779 92 89 84 2 4
0.482563 -0.051766 -0.880907 97 92 86 2 4
0.457677 -0.061632 -0.881685 97 90 85 2 4
0.516429 -0.154768 -0.878341 102 96 89 2 4
0.498028 -0.182723 -0.876713 103 100 92 2 4
-0.297887 -0.247136 -0.887284 69 63 57 2 4
-0.303247 -0.233145 -0.888569 74 69 57 2 4
0.438514 -0.004005 -0.881030 81 78 72 2 4
0.462548 -0.000092 -0.880202 83 83 76 2 4
0.401770 -0.006500 -0.881015 90 84 78 2 4
0.376500 -0.193165 -0.878872 97 90 82 2 4
0.372223 -0.178179 -0.878647 94 90 85 2 4
0.393445 -0.178827 -0.878975 97 93 85 2 4
-0.201836 -0.347928 -0.885696 57 55 49 2 4
0.304095 -0.226580 -0.879594 97 92 84 2 4
0.294206 -0.195385 -0.879461 96 90 85 2 4
0.289110 -0.210652 -0.880149 99 91 88 2 4
-0.020473 -0.401590 -0.886468 77 70 60 2 4
0.068646 -0.221189 -0.879593 96 90 82 2 4
0.057189 -0.239831 -0.880491 92 85 78 2 4
0.050743 -0.197877 -0.881667 94 88 79 2 4
0.031140 -0.205766 -0.884962 89 82 75 2 4
0.506426 -0.066932 -0.882426 100 96 90 2 4
0.225327 -0.194610 -0.878797 97 93 83 2 4
0.238877 -0.174613 -0.879535 95 92 84 2 4
0.266109 -0.177811 -0.879951 91 87 81 2 4
0.242975 -0.198831 -0.879719 100 93 85 2 4
0.411179 -0.090053 -0.884067 104 97 89 2 4
0.435145 -0.090178 -0.883635 103 98 89 2 4
0.418625 -0.062566 -0.882407 104 98 94 2 4
0.166703 -0.096137 -0.881299 91 88 80 2 4
0.184031 -0.122946 -0.881221 91 85 79 2 4
0.153240 -0.386044 -0.879288 108 99 95 2 4
0.438912 -0.061057 -0.881442 97 94 86 2 4
0.124749 -0.093578 -0.882846 90 86 79 2 4
0.256712 -0.218697 -0.881662 100 94 89 2 4
0.266032 -0.207228 -0.879612 97 95 88 2 4
0.385395 -0.238537 -0.876968 102 98 88 2 4
0.481945 0.018886 -0.881224 74 72 67 2 4
0.498351 0.006168 -0.880730 76 73 69 2 4
0.155930 -0.275755 -0.880632 91 87 82 2 4
0.164607 -0.285976 -0.881480 97 91 83 2 4
0.175083 -0.269242 -0.880368 95 91 85 2 4
-0.225099 -0.284854 -0.887717 64 59 52 2 4
0.221494 -0.225941 -0.881058 105 97 93 2 4
0.234747 -0.213368 -0.879969 96 91 85 2 4
0.239133 -0.235052 -0.881973 97 92 86 2 4
0.338882 -0.240727 -0.878813 100 94 86 2 4
0.362743 -0.217234 -0.878892 95 90 81 2 4
0.009387 -0.349750 -0.885808 81 75 65 2 4
-0.011276 -0.336483 -0.885944 75 66 62 2 4
-0.006875 -0.385855 -0.886212 76 70 61 2 4
-0.022059 -0.363769 -0.886193 74 70 60 2 4
-0.152274 -0.366828 -0.885890 69 61 55 2 4
-0.174230 -0.352329 -0.886256 67 58 52 2 4
-0.135430 -0.377182 -0.885254 63 60 51 2 4
-0.127146 -0.350278 -0.886961 68 64 54 2 4
-0.228839 -0.353022 -0.884974 59 56 49 2 4
-0.241740 -0.368249 -0.884710 58 53 47 2 4
0.496592 -0.164114 -0.878859 102 98 90 2 4
0.485023 -0.152831 -0.878656 101 95 87 2 4
0.515131 -0.143765 -0.877938 97 92 87 2 4
-0.370858 -0.260527 -0.889881 64 55 51 2 4
0.229929 -0.328156 -0.878059 109 100 94 2 4
0.215330 -0.337266 -0.877727 105 97 90 2 4
0.204318 -0.332880 -0.877267 108 98 92 2 4
0.089467 -0.138512 -0.881083 98 89 85 2 4
0.093640 -0.119437 -0.881094 97 88 84 2 4
0.105070 -0.142010 -0.881085 99 91 85 2 4
0.426503 -0.168206 -0.876532 96 91 87 2 4
0.384589 -0.095331 -0.883902 102 96 90 2 4
0.034612 -0.177434 -0.884944 90 80 74 2 4
0.024968 -0.156569 -0.885895 81 77 71 2 4
-0.172312 -0.383332 -0.886826 61 59 48 2 4
-0.207142 -0.368692 -0.885491 61 55 49 2 4
0.198332 -0.355347 -0.877791 106 99 92 2 4
0.206211 -0.380116 -0.878450 110 103 95 2 4
0.426798 -0.233407 -0.877212 109 100 91 2 4
-0.086138 -0.215877 -0.888017 72 67 60 2 4
0.375474 -0.052093 -0.882134 106 98 93 2 4
0.391780 -0.033741 -0.881481 106 98 91 2 4
0.408065 -0.047258 -0.881540 105 98 93 2 4
0.055461 -0.112571 -0.883017 91 86 78 2 4
0.053333 -0.101311 -0.882816 94 88 82 2 4
0.204993 -0.305742 -0.878805 101 95 89 2 4
0.207509 -0.284559 -0.879538 96 91 84 2 4
0.348784 -0.192056 -0.880166 100 92 85 2 4
0.322117 -0.203698 -0.878682 95 90 83 2 4
0.321112 -0.184541 -0.879007 95 89 82 2 4
0.343451 -0.057450 -0.882363 100 96 91 2 4
0.343981 -0.073508 -0.881416 103 96 89 2 4
0.017547 -0.310699 -0.887169 79 74 65 2 4
-0.015693 -0.298257 -0.886331 78 73 63 2 4
0.066739 -0.334339 -0.881747 101 93 85 2 4
0.053026 -0.358309 -0.884374 85 81 72 2 4
0.049641 -0.327670 -0.883942 83 76 70 2 4
0.041281 -0.345327 -0.884913 83 76 70 2 4
0.121561 -0.273176 -0.881955 96 93 84 2 4
0.126282 -0.253764 -0.881046 94 89 82 2 4
0.042398 -0.405842 -0.885901 83 80 69 2 4
0.033824 -0.383636 -0.886229 86 79 71 2 4
0.023351 -0.372447 -0.885610 81 79 66 2 4
0.469204 -0.044891 -0.880480 94 90 83 2 4
0.443288 -0.041327 -0.882370 97 91 85 2 4
0.462300 -0.016755 -0.881138 89 87 79 2 4
0.234911 -0.363775 -0.878657 114 105 98 2 4
0.214007 -0.357859 -0.876782 117 108 103 2 4
0.232882 -0.349507 -0.876431 110 100 96 2 4
0.239746 -0.084461 -0.883252 88 82 77 2 4
0.250756 -0.117003 -0.880823 95 90 85 2 4
0.252936 -0.093078 -0.882556 90 84 79 2 4
-0.038132 -0.336142 -0.886645 74 69 62 2 4
0.364410 -0.094263 -0.884019 101 97 89 2 4
0.352070 -0.094276 -0.883308 101 95 90 2 4
0.326883 -0.094084 -0.883598 102 95 92 2 4
0.359468 -0.247699 -0.877071 107 102 93 2 4
0.365853 -0.269707 -0.874621 109 100 94 2 4
0.381397 -0.275432 -0.874945 110 102 92 2 4
0.190189 -0.144017 -0.881425 94 88 81 2 4
0.156391 -0.142190 -0.881921 95 89 83 2 4
-0.069428 -0.149081 -0.887820 74 67 61 2 4
-0.002570 -0.222383 -0.886653 82 73 66 2 4
0.186924 -0.375518 -0.878700 110 101 93 2 4
0.144658 -0.379642 -0.878598 108 102 94 2 4
0.178046 -0.366779 -0.880194 108 100 92 2 4
0.107587 -0.254546 -0.880244 105 96 90 2 4
0.114744 -0.245938 -0.879333 104 97 94 2 4
-0.230434 -0.212211 -0.887001 68 64 53 2 4
-0.261291 -0.210178 -0.889260 66 62 51 2 4
-0.254210 -0.194745 -0.888878 68 60 55 2 4
-0.234008 -0.191288 -0.886690 67 59 55 2 4
-0.141829 -0.189407 -0.887862 70 63 57 2 4
-0.169590 -0.183628 -0.887754 61 60 53 2 4
-0.167546 -0.169490 -0.887493 64 60 54 2 4
-0.362614 -0.297597 -0.889738 58 51 43 2 4
-0.350885 -0.281785 -0.889057 56 54 43 2 4
0.021651 -0.284628 -0.885658 79 74 64 2 4
0.005576 -0.146338 -0.887088 84 76 71 2 4
-0.009322 -0.143314 -0.886096 78 72 66 2 4
0.006053 -0.134723 -0.887940 80 73 67 2 4
-0.009676 -0.125528 -0.887248 79 72 64 2 4
-0.171490 -0.244640 -0.886635 68 60 57 2 4
-0.126966 -0.305347 -0.886307 67 61 52 2 4
-0.124718 -0.268504 -0.886653 69 62 54 2 4
0.518136 -0.182606 -0.875327 107 99 92 2 4
0.526489 -0.163092 -0.877508 106 99 91 2 4
-0.229853 -0.338659 -0.884497 58 54 49 2 4
-0.276063 -0.319071 -0.886487 61 55 50 2 4
-0.253073 -0.332077 -0.886693 59 55 50 2 4
-0.234209 -0.319446 -0.885688 59 56 51 2 4
-0.381566 -0.270218 -0.889599 58 54 46 2 4
-0.416798 -0.246979 -0.889952 58 51 44 2 4
0.022475 -0.332160 -0.886199 83 78 70 2 4
-0.271702 -0.300281 -0.886708 57 53 44 2 4
-0.285430 -0.296015 -0.886766 56 51 43 2 4
0.175125 -0.201077 -0.880180 94 86 81 2 4
0.183725 -0.164285 -0.880566 94 87 81 2 4
0.154847 -0.165134 -0.879754 96 89 82 2 4
0.430364 -0.113206 -0.882113 103 94 87 2 4
0.454217 -0.100520 -0.881922 103 94 87 2 4
0.205785 -0.209240 -0.880125 97 89 84 2 4
0.137344 -0.145670 -0.881429 87 83 75 2 4
0.168847 -0.069728 -0.881908 93 85 81 2 4
0.283096 -0.316949 -0.875454 111 102 96 2 4
0.282999 -0.295692 -0.876287 110 103 93 2 4
0.266190 -0.308766 -0.876991 107 100 93 2 4
0.326633 -0.030930 -0.880849 102 97 90 2 4
0.350520 -0.036132 -0.881062 98 94 89 2 4
0.241031 -0.150256 -0.880472 94 87 82 2 4
0.213816 -0.125371 -0.881201 95 88 84 2 4
0.236234 -0.098487 -0.881835 92 88 81 2 4
0.220426 -0.159889 -0.879054 96 90 81 2 4
-0.033804 -0.132634 -0.886129 75 71 64 2 4
-0.028961 -0.152243 -0.885979 78 72 67 2 4
0.272968 -0.056983 -0.880413 92 88 82 2 4
-0.033829 -0.225656 -0.887201 73 71 63 2 4
-0.062159 -0.212504 -0.886979 72 69 62 2 4
-0.203689 -0.282227 -0.887864 64 58 53 2 4
-0.177736 -0.280541 -0.886633 66 60 54 2 4
0.282862 -0.124483 -0.881167 96 89 84 2 4
0.310643 -0.121410 -0.881642 97 91 84 2 4
-0.316059 -0.204676 -0.887650 68 60 50 2 4
-0.321122 -0.214267 -0.888305 79 73 62 2 4
-0.336181 -0.274190 -0.888365 56 53 46 2 4
-0.337259 -0.262121 -0.888023 61 57 48 2 4
0.056776 -0.257927 -0.882056 89 86 81 2 4
0.248575 -0.269042 -0.881288 101 93 87 2 4
0.236546 -0.287303 -0.879874 100 92 88 2 4
0.264082 -0.288613 -0.878601 103 96 90 2 4
0.225075 -0.317230 -0.877914 100 93 90 2 4
0.144177 -0.218836 -0.879620 95 88 82 2 4
0.180914 -0.203919 -0.879908 91 85 79 2 4
0.162970 -0.233319 -0.879525 94 88 83 2 4
0.078594 -0.237543 -0.878849 101 95 92 2 4
-0.401697 -0.236998 -0.890273 61 55 46 2 4
-0.388464 -0.225450 -0.891094 62 57 49 2 4
0.105217 -0.322593 -0.878046 112 104 96 2 4
0.108972 -0.339159 -0.879366 99 91 83 2 4
0.130321 -0.339492 -0.879601 99 93 86 2 4
0.089182 -0.321481 -0.879143 102 97 88 2 4
0.095276 -0.355544 -0.880205 105 97 86 2 4
0.100552 -0.370186 -0.880069 108 99 94 2 4
0.088385 -0.397281 -0.881364 108 99 94 2 4
0.016874 -0.241435 -0.885805 78 72 67 2 4
0.021041 -0.211810 -0.886247 88 80 72 2 4
0.474815 -0.099867 -0.882124 103 99 91 2 4
0.456933 -0.082808 -0.882654 106 100 93 2 4
0.482775 -0.089238 -0.881803 105 99 91 2 4
0.474844 -0.075157 -0.881464 102 95 89 2 4
0.148135 -0.225776 -0.880093 94 88 84 2 4
0.110615 -0.230208 -0.878714 94 90 83 2 4
0.127979 -0.208111 -0.881128 96 92 85 2 4
-0.185958 -0.209378 -0.886572 71 61 57 2 4
-0.168076 -0.212669 -0.886095 68 63 55 2 4
0.301564 -0.044798 -0.880435 97 91 88 2 4
0.462994 -0.245177 -0.876527 116 110 101 2 4
0.448259 -0.255391 -0.876147 114 109 99 2 4
0.477045 -0.014959 -0.881807 89 86 79 2 4
0.505617 -0.006188 -0.880868 79 74 70 2 4
0.297442 -0.241087 -0.878814 101 95 85 2 4
-0.001218 -0.402462 -0.886343 78 74 66 2 4
0.021121 -0.398319 -0.885957 81 77 69 2 4
0.042473 -0.267210 -0.884555 83 78 69 2 4
0.045519 -0.244015 -0.882929 91 81 76 2 4
0.041754 -0.371464 -0.884993 85 82 71 2 4
0.064592 -0.382641 -0.882948 93 86 78 2 4
0.085892 -0.367186 -0.881401 100 94 84 2 4
0.442776 -0.218577 -0.876571 110 103 94 2 4
0.478976 -0.233535 -0.876909 110 105 95 2 4
0.452707 -0.206115 -0.876182 109 101 93 2 4
0.125847 -0.395163 -0.881113 113 105 100 2 4
0.103625 -0.396144 -0.878957 103 98 88 2 4
0.113946 -0.380469 -0.880825 109 102 98 2 4
-0.104263 -0.352060 -0.886446 76 68 63 2 4
-0.071352 -0.343091 -0.886935 75 67 62 2 4
0.479732 -0.134982 -0.880429 101 97 88 2 4
0.494345 -0.111733 -0.880803 106 101 94 2 4
-0.093122 -0.383331 -0.885780 74 69 62 2 4
-0.114570 -0.387287 -0.886207 72 66 61 2 4
-0.078597 -0.379782 -0.886292 74 68 62 2 4
-0.266503 -0.340817 -0.887731 58 55 46 2 4
-0.294812 -0.321782 -0.886177 58 51 46 2 4
0.101616 -0.203946 -0.880015 102 96 90 2 4
0.074964 -0.202288 -0.879605 98 92 88 2 4
0.400517 -0.108207 -0.882860 105 99 92 2 4
0.408382 -0.132451 -0.880611 105 96 88 2 4
-0.051009 -0.320503 -0.887496 72 66 59 2 4
-0.030003 -0.306177 -0.885400 70 66 56 2 4
0.294314 -0.339673 -0.876040 109 103 95 2 4
0.370708 -0.299319 -0.874707 113 106 99 2 4
0.342881 -0.287908 -0.875124 111 102 95 2 4
-0.157645 -0.200036 -0.887112 62 58 52 2 4
-0.188284 -0.190240 -0.885851 65 60 54 2 4
0.315904 -0.262731 -0.878312 112 104 94 2 4
-0.237601 -0.274824 -0.886962 62 57 48 2 4
-0.266593 -0.273209 -0.885829 61 57 48 2 4
0.307434 -0.253542 -0.877711 102 95 87 2 4
0.212953 -0.184475 -0.880136 94 89 82 2 4
0.184073 -0.214981 -0.880954 91 86 82 2 4
0.402067 -0.024179 -0.880543 100 95 90 2 4
0.465151 -0.188127 -0.876858 109 102 95 2 4
0.471001 -0.173084 -0.877904 106 99 92 2 4
0.478365 -0.217215 -0.875923 106 97 89 2 4
-0.332096 -0.244884 -0.888469 65 58 49 2 4
-0.345565 -0.225986 -0.890133 62 59 49 2 4
-0.039616 -0.373903 -0.887575 77 69 65 2 4
-0.049744 -0.362082 -0.887327 77 69 63 2 4
0.153063 -0.259139 -0.880922 99 91 83 2 4
0.140919 -0.303521 -0.879748 92 88 83 2 4
0.127595 -0.285877 -0.880015 94 89 83 2 4
0.401247 -0.213097 -0.877313 110 101 94 2 4
