ply
format ascii 1.0
element vertex 1067
property float x
property float y
property float z
property uchar red
property uchar green
property uchar blue
property uchar semantic_label
property uchar instance_label
end_header
-0.046869 -0.432302 -0.349883 164 138 137 5 3
-0.170424 -0.218539 -0.268742 152 146 158 5 3
-0.154215 -0.206673 -0.266450 180 175 180 5 3
-0.183540 -0.204121 -0.270916 173 164 192 5 3
-0.174584 -0.200825 -0.269103 173 164 192 5 3
-0.185481 -0.187333 -0.275923 113 76 80 5 3
-0.168749 -0.181635 -0.273701 133 112 105 5 3
-0.171974 -0.190589 -0.269833 85 47 71 5 3
-0.001316 0.167706 -0.255289 188 189 189 5 4
-0.009820 0.202613 -0.665259 94 47 58 2 5
-0.033079 0.190515 -0.663174 91 48 60 2 5
0.043001 -0.072906 -0.669563 101 51 67 2 5
0.062811 -0.054822 -0.666408 91 44 57 2 5
-0.059542 0.090756 -0.667720 93 44 53 2 5
0.005030 -0.368230 -0.277652 172 151 131 5 3
0.033194 -0.598622 -0.294668 181 162 155 5 3
0.021889 -0.594153 -0.294757 156 127 108 5 3
0.023841 -0.593162 -0.275833 175 157 155 5 3
-0.073062 -0.143720 -0.254611 192 162 136 5 3
-0.058886 -0.174869 -0.259407 193 161 135 5 3
-0.103828 -0.163623 -0.259334 193 163 141 5 3
-0.099254 -0.354298 -0.347311 150 111 96 5 3
-0.096177 -0.343761 -0.297407 218 186 137 5 3
-0.067732 -0.342668 -0.295174 198 165 132 5 3
-0.064336 -0.362872 -0.297542 218 186 139 5 3
-0.214208 -0.248565 -0.310174 126 100 101 5 3
0.049268 0.192226 -0.284690 180 144 118 5 4
0.059384 0.192369 -0.288289 151 119 94 5 4
0.033661 0.209518 -0.277748 190 153 126 5 4
0.033049 0.189393 -0.277770 159 118 93 5 4
-0.212256 -0.267487 -0.276771 214 198 199 5 3
-0.195964 -0.263321 -0.275666 211 183 169 5 3
-0.205766 -0.244633 -0.275056 133 116 134 5 3
-0.036421 0.056007 -0.668876 104 62 78 7 1
-0.010421 0.049291 -0.668205 104 63 91 7 1
0.045221 0.201865 -0.281050 195 160 129 5 4
0.044365 0.230600 -0.281686 161 141 125 5 4
0.034132 0.234296 -0.282626 183 173 159 5 4
-0.036853 -0.476209 -0.334557 198 177 157 5 3
-0.041564 -0.461409 -0.337519 193 174 155 5 3
-0.047619 -0.495814 -0.314541 210 189 164 5 3
-0.060078 -0.466618 -0.335260 204 181 165 5 3
-0.055990 -0.477086 -0.330098 220 203 182 5 3
-0.043064 -0.487077 -0.327088 211 188 168 5 3
-0.020715 -0.122460 -0.672307 84 34 43 2 5
-0.025837 -0.385107 -0.293251 209 177 140 5 3
-0.039890 -0.393203 -0.297833 218 190 155 5 3
-0.061482 -0.377928 -0.298831 218 189 150 5 3
0.031854 -0.540236 -0.266190 209 177 141 5 3
0.030482 -0.560676 -0.265438 201 169 131 5 3
0.018957 -0.541404 -0.271353 224 194 156 5 3
-0.248911 -0.257141 -0.283495 100 76 105 5 3
-0.232334 -0.250845 -0.281852 105 86 119 5 3
-0.236784 -0.247094 -0.290751 104 83 108 5 3
-0.242472 -0.260144 -0.294365 116 95 123 5 3
-0.246892 -0.264427 -0.286768 237 235 239 5 3
-0.239554 -0.280988 -0.281532 125 119 121 5 3
-0.242507 -0.264252 -0.282208 234 234 237 5 3
-0.227913 -0.271809 -0.304976 131 105 132 5 3
-0.225622 -0.245590 -0.301934 110 80 84 5 3
-0.225509 -0.244170 -0.282670 123 106 124 5 3
0.015501 -0.501630 -0.265517 205 173 140 5 3
0.019447 -0.526267 -0.270416 213 183 147 5 3
0.008558 -0.516215 -0.273240 209 178 142 5 3
0.020928 -0.517947 -0.260117 207 177 144 5 3
0.033210 -0.525093 -0.253573 200 165 135 5 3
0.018321 -0.517770 -0.265922 212 182 145 5 3
-0.054872 -0.445259 -0.300113 224 201 169 5 3
-0.011083 -0.389363 -0.271793 179 147 121 5 3
-0.019581 -0.373966 -0.271135 179 147 119 5 3
-0.000615 -0.396394 -0.274245 181 151 136 5 3
-0.000335 -0.380904 -0.281924 174 145 115 5 3
-0.006115 -0.369994 -0.281117 177 148 114 5 3
-0.032413 -0.501457 -0.320968 213 194 167 5 3
0.052394 -0.275165 -0.272544 191 164 140 5 3
0.046734 -0.292800 -0.277867 187 160 144 5 3
-0.147046 -0.250896 -0.274821 191 155 127 5 3
-0.157442 -0.276492 -0.280014 191 161 137 5 3
-0.130861 -0.272707 -0.282778 194 158 133 5 3
-0.156265 -0.258936 -0.276818 199 165 134 5 3
-0.090999 -0.447764 -0.328611 190 166 149 5 3
-0.109015 -0.434595 -0.320411 179 155 140 5 3
-0.101116 -0.439578 -0.311226 217 201 185 5 3
0.011818 -0.312595 -0.290401 206 181 158 5 3
0.010945 -0.335422 -0.288751 203 179 156 5 3
0.015022 -0.328311 -0.289727 208 183 159 5 3
0.014703 -0.320591 -0.288127 204 181 159 5 3
0.037761 -0.331035 -0.287857 199 179 157 5 3
-0.054851 -0.032108 -0.668114 103 101 142 7 1
-0.037855 -0.021666 -0.668449 186 196 221 7 1
-0.115940 -0.182647 -0.262079 193 171 158 5 3
-0.104105 -0.203015 -0.264484 193 157 127 5 3
0.015678 0.097644 -0.663363 132 136 190 7 1
0.013022 0.111693 -0.665631 127 132 194 7 1
-0.000959 0.087405 -0.665805 125 125 177 7 1
0.013468 -0.561343 -0.307142 179 146 113 5 3
0.004362 -0.550009 -0.308188 170 138 106 5 3
0.027159 -0.553674 -0.312396 196 168 135 5 3
0.058997 -0.246593 -0.267696 196 170 146 5 3
0.045600 -0.245803 -0.269196 195 167 145 5 3
0.052141 -0.261807 -0.270611 191 170 149 5 3
-0.140041 -0.290752 -0.285046 194 158 135 5 3
-0.007983 -0.538857 -0.278386 210 180 141 5 3
0.029153 0.225692 -0.279246 184 170 154 5 4
-0.127464 -0.120078 -0.256994 158 145 135 5 3
-0.131760 -0.132558 -0.262322 121 106 102 5 3
-0.130104 -0.123377 -0.252851 169 156 155 5 3
-0.134054 -0.132887 -0.253880 117 77 84 5 3
-0.120259 -0.145481 -0.258938 163 142 136 5 3
-0.141769 -0.140562 -0.262085 144 123 122 5 3
-0.123613 -0.139032 -0.258364 118 81 90 5 3
0.048274 -0.110418 -0.670789 95 47 63 2 5
0.009662 0.159959 -0.255197 186 187 181 5 4
0.027640 0.155253 -0.274544 162 131 100 5 4
0.023703 0.157860 -0.256144 140 104 88 5 4
0.028996 0.151381 -0.267615 138 101 80 5 4
0.007040 0.163670 -0.266529 178 166 154 5 4
0.017240 0.156076 -0.267903 164 132 96 5 4
0.000038 0.168785 -0.249209 189 187 180 5 4
-0.110023 -0.374121 -0.341892 135 102 85 5 3
-0.127541 -0.371565 -0.335388 147 104 90 5 3
0.057350 0.055410 -0.664780 86 47 65 7 1
-0.049955 0.060494 -0.669627 99 43 50 2 5
0.028040 -0.450523 -0.272874 189 169 161 5 3
0.029591 -0.446443 -0.282232 189 168 159 5 3
0.018499 -0.441963 -0.268894 189 166 156 5 3
0.030791 -0.459400 -0.278179 188 168 163 5 3
0.025225 -0.456345 -0.268361 186 164 161 5 3
0.017086 -0.447587 -0.264022 82 71 59 5 3
0.033814 -0.470674 -0.266418 174 151 145 5 3
-0.036695 -0.443252 -0.347790 192 166 153 5 3
-0.047550 -0.447393 -0.345628 214 197 176 5 3
0.018370 -0.437001 -0.289462 204 180 157 5 3
0.024102 -0.433627 -0.286398 201 179 162 5 3
0.030209 -0.453453 -0.285241 201 181 173 5 3
0.005259 -0.452628 -0.283316 206 180 150 5 3
0.025685 -0.456741 -0.284666 198 176 160 5 3
0.012096 0.248781 -0.275999 190 178 159 5 4
0.019512 0.257636 -0.279033 200 190 167 5 4
0.034635 0.140591 -0.658694 99 130 194 2 5
0.037367 0.126420 -0.657262 125 171 233 7 1
0.014316 0.134800 -0.664072 113 150 213 7 1
-0.034247 -0.344322 -0.292357 191 165 152 5 3
-0.013891 -0.347034 -0.290113 198 171 159 5 3
-0.002640 -0.367158 -0.292104 182 159 155 5 3
-0.018094 -0.354979 -0.293578 180 154 138 5 3
-0.005788 -0.336775 -0.286429 200 176 160 5 3
-0.011568 -0.368472 -0.276315 189 161 138 5 3
0.054103 -0.597047 -0.307374 148 119 100 5 3
0.029533 -0.595446 -0.302434 155 125 105 5 3
0.049058 -0.602512 -0.299950 188 167 151 5 3
0.061087 -0.600104 -0.299833 144 128 117 5 3
0.043352 -0.598387 -0.287358 129 102 111 5 3
-0.027545 -0.297209 -0.287169 198 173 151 5 3
-0.050433 -0.338667 -0.291278 205 180 142 5 3
-0.037978 -0.323054 -0.292255 206 179 158 5 3
-0.054258 -0.328250 -0.292087 207 177 149 5 3
-0.038578 -0.308349 -0.290317 210 184 158 5 3
-0.053865 -0.306318 -0.290821 205 174 143 5 3
-0.026275 -0.311699 -0.284316 198 171 143 5 3
0.059297 -0.108890 -0.669107 96 47 62 2 5
0.046616 -0.088962 -0.670859 106 52 71 2 5
0.043315 -0.133820 -0.671068 105 54 68 2 5
0.006852 -0.152063 -0.254006 175 150 126 5 3
-0.154475 -0.303611 -0.286368 180 144 118 5 3
-0.203193 -0.290402 -0.280517 190 157 129 5 3
-0.162950 -0.283602 -0.280502 204 170 137 5 3
-0.099307 -0.141245 -0.257050 227 242 252 5 3
-0.111936 -0.114170 -0.259980 135 123 130 5 3
-0.193031 -0.274882 -0.277097 212 184 152 5 3
-0.099498 -0.126380 -0.256999 88 69 92 5 3
0.055093 -0.316456 -0.281744 187 168 159 5 3
0.041896 -0.323225 -0.284288 192 173 154 5 3
0.058801 -0.325628 -0.281517 202 183 169 5 3
0.041540 -0.344129 -0.290838 203 180 162 5 3
-0.192342 -0.272999 -0.318742 189 167 160 5 3
-0.192330 -0.289531 -0.315798 179 147 124 5 3
0.029223 0.082818 -0.658397 102 69 90 7 1
0.025065 0.091538 -0.658152 100 58 76 7 1
0.038327 0.116211 -0.656801 134 144 184 7 1
0.059211 0.168899 -0.285853 152 113 78 5 4
0.045124 0.156665 -0.277549 151 110 79 5 4
0.058663 0.160691 -0.281249 151 110 77 5 4
0.033779 0.167980 -0.276304 173 135 104 5 4
-0.068897 -0.468796 -0.328593 201 175 161 5 3
-0.066514 -0.481795 -0.312676 216 193 177 5 3
-0.076605 -0.473406 -0.311361 211 190 174 5 3
-0.064076 -0.145168 -0.254827 190 163 139 5 3
-0.036309 -0.165417 -0.257419 188 157 132 5 3
0.021823 0.189962 -0.662303 85 44 58 2 5
0.015432 0.207267 -0.662288 90 48 60 2 5
0.009326 -0.170269 -0.257909 181 147 123 5 3
-0.016326 -0.162662 -0.257091 181 148 124 5 3
0.071453 0.026562 -0.665631 121 150 207 2 5
0.012019 0.151667 -0.664478 90 46 54 2 5
0.009731 0.180984 -0.662730 89 43 54 2 5
0.000197 0.170888 -0.662441 96 47 58 2 5
0.033928 -0.216099 -0.671089 93 48 60 2 5
0.015410 -0.211943 -0.673598 96 44 59 2 5
-0.150781 -0.379966 -0.322740 192 159 138 5 3
-0.138631 -0.385216 -0.330523 194 156 122 5 3
-0.123954 -0.386152 -0.336642 198 160 127 5 3
-0.130198 -0.401011 -0.330080 191 158 139 5 3
-0.141602 -0.395849 -0.314186 193 160 136 5 3
-0.137136 -0.395395 -0.312191 207 174 144 5 3
-0.149029 -0.363836 -0.327682 200 161 126 5 3
-0.072230 -0.456735 -0.304336 232 216 188 5 3
-0.171135 -0.256011 -0.275548 201 171 139 5 3
0.060287 -0.009582 -0.260954 101 70 60 5 3
0.042059 -0.006954 -0.260557 92 49 47 5 3
0.047634 -0.010655 -0.267433 102 68 66 5 3
0.058262 -0.018012 -0.276871 70 29 27 5 3
0.057056 -0.010871 -0.253008 101 73 67 5 3
0.039013 -0.008245 -0.250909 104 61 56 5 3
-0.024565 -0.333299 -0.291464 211 186 161 5 3
-0.022885 -0.322918 -0.284828 212 188 162 5 3
-0.000578 -0.317611 -0.285802 214 190 161 5 3
-0.011249 -0.306623 -0.286737 202 173 151 5 3
0.032192 -0.345542 -0.290195 201 180 160 5 3
0.032115 -0.356816 -0.291720 183 161 138 5 3
0.006199 -0.347323 -0.285106 200 178 160 5 3
-0.000863 -0.362631 -0.283330 196 169 144 5 3
-0.010213 -0.140964 -0.673279 80 37 50 2 5
-0.004162 -0.116377 -0.671328 107 54 72 2 5
0.048626 -0.028294 -0.282122 85 51 49 5 3
0.038182 -0.048811 -0.289029 87 72 86 5 3
0.062110 -0.038872 -0.289669 97 98 139 5 3
0.049023 -0.036830 -0.287204 113 90 86 5 3
-0.090492 -0.431985 -0.309301 223 208 187 5 3
-0.049482 0.108158 -0.665993 100 44 55 2 5
-0.021855 -0.198401 -0.266795 189 153 128 5 3
-0.028230 -0.219943 -0.273644 187 150 124 5 3
0.063289 0.079739 -0.657512 84 43 61 7 1
0.064730 0.092144 -0.654801 82 43 61 7 1
0.047407 0.095032 -0.654504 115 107 135 7 1
-0.061549 -0.018366 -0.669242 92 39 52 7 1
-0.033548 0.234858 -0.248248 181 178 156 5 4
-0.026108 0.218643 -0.664538 100 55 68 2 5
-0.005512 0.222000 -0.665730 91 47 59 2 5
-0.094095 -0.213111 -0.269305 189 153 117 5 3
-0.152023 -0.189467 -0.266380 157 171 182 5 3
-0.013872 -0.009906 -0.668968 119 102 135 7 1
-0.020538 -0.000469 -0.668897 90 43 62 7 1
-0.030224 0.021709 -0.670737 96 41 51 7 1
-0.098767 -0.401301 -0.344283 201 166 139 5 3
-0.103109 -0.395164 -0.343616 199 162 135 5 3
-0.013854 -0.524204 -0.278677 222 197 163 5 3
-0.027363 -0.517772 -0.282163 218 194 157 5 3
-0.218122 -0.242213 -0.279144 250 243 253 5 3
-0.214499 -0.225465 -0.277850 92 54 80 5 3
-0.203177 -0.212787 -0.279856 157 172 220 5 3
-0.189889 -0.232827 -0.271726 222 219 227 5 3
-0.200276 -0.214992 -0.272971 151 134 165 5 3
-0.110993 -0.288996 -0.289021 187 148 119 5 3
-0.100480 -0.268600 -0.284331 184 147 115 5 3
0.047412 0.136007 -0.657282 94 128 194 7 1
0.061210 0.156347 -0.662818 91 120 183 2 5
-0.019980 0.189268 -0.250346 177 172 159 5 4
-0.029007 0.221817 -0.256026 180 177 153 5 4
-0.010444 0.213718 -0.266101 189 187 171 5 4
-0.020333 0.225880 -0.264512 189 189 169 5 4
-0.012879 0.229724 -0.268555 195 190 170 5 4
-0.083646 -0.423051 -0.342353 214 187 169 5 3
-0.071024 -0.424271 -0.345829 214 188 167 5 3
-0.081712 -0.414273 -0.346065 213 185 162 5 3
-0.000868 -0.396754 -0.293204 191 162 146 5 3
0.021154 -0.362947 -0.287574 192 168 147 5 3
0.017879 -0.431675 -0.272324 182 153 136 5 3
0.024737 -0.409280 -0.277259 175 147 124 5 3
0.021673 -0.421858 -0.274561 180 154 138 5 3
0.017314 -0.404664 -0.277436 172 142 117 5 3
0.046823 0.247689 -0.284320 183 166 145 5 4
-0.002281 -0.030099 -0.255238 81 51 66 5 3
-0.002463 -0.040471 -0.262786 112 88 93 5 3
0.039859 0.156506 -0.258546 119 76 82 5 4
0.051407 0.148808 -0.274521 168 130 100 5 4
0.067783 0.161482 -0.261487 154 130 116 5 4
0.036565 0.149817 -0.274088 168 135 94 5 4
0.055521 0.150329 -0.278509 166 136 98 5 4
-0.211088 -0.239310 -0.314856 88 43 51 5 3
-0.002800 0.140839 -0.665672 104 57 84 2 5
0.027106 0.116656 -0.661798 123 149 212 7 1
0.004360 0.118143 -0.666504 108 70 113 2 5
-0.154339 -0.156740 -0.267767 149 137 131 5 3
-0.180747 -0.174012 -0.272034 89 49 58 5 3
-0.172158 -0.174341 -0.278643 109 88 86 5 3
-0.161447 -0.166288 -0.276837 137 117 104 5 3
-0.165404 -0.165251 -0.263943 155 144 139 5 3
-0.173958 -0.173853 -0.265233 146 142 156 5 3
-0.166893 -0.165317 -0.269997 133 118 107 5 3
-0.040607 -0.352477 -0.293409 192 162 133 5 3
-0.043160 -0.362955 -0.294612 212 180 143 5 3
-0.054612 0.185996 -0.661949 78 50 63 2 5
-0.034923 0.164176 -0.659831 113 93 126 2 5
0.039738 -0.587230 -0.279560 120 99 98 5 3
0.009024 -0.238997 -0.272977 192 163 137 5 3
0.021298 -0.223708 -0.267867 191 159 132 5 3
-0.197105 -0.204991 -0.272768 149 138 170 5 3
-0.189673 -0.188359 -0.268154 153 129 126 5 3
-0.193606 -0.190379 -0.276640 110 76 78 5 3
-0.200997 -0.195081 -0.269973 177 164 151 5 3
0.009884 -0.558141 -0.275824 197 171 140 5 3
0.005314 -0.580657 -0.276548 197 171 140 5 3
0.019959 -0.585978 -0.269712 194 173 159 5 3
0.020141 -0.570172 -0.268472 200 167 145 5 3
0.026929 -0.577703 -0.270428 193 160 140 5 3
-0.161015 -0.187470 -0.290110 37 16 22 5 3
-0.169490 -0.191733 -0.285944 120 101 99 5 3
-0.170548 -0.187083 -0.279343 108 73 76 5 3
0.037838 -0.372069 -0.291518 184 160 137 5 3
0.054005 -0.396809 -0.285747 136 118 99 5 3
0.041236 -0.390041 -0.287476 175 147 128 5 3
0.060594 -0.372502 -0.293461 198 174 152 5 3
0.050475 -0.381101 -0.291124 167 146 124 5 3
0.026511 -0.378897 -0.283903 146 127 109 5 3
0.064170 -0.394527 -0.293695 167 144 121 5 3
0.033033 -0.391591 -0.284373 150 126 108 5 3
-0.021177 0.080813 -0.667993 131 108 149 2 5
-0.030087 0.093507 -0.666506 126 86 121 2 5
-0.023482 0.114448 -0.666250 109 64 94 2 5
0.060910 -0.184453 -0.254024 177 155 139 5 3
0.061121 -0.198294 -0.257494 184 158 143 5 3
-0.087738 -0.408494 -0.305380 213 190 163 5 3
-0.085916 -0.390740 -0.302934 218 188 147 5 3
-0.112128 -0.395318 -0.308667 216 186 152 5 3
-0.066627 -0.214920 -0.272290 186 149 117 5 3
-0.045567 -0.187868 -0.264025 188 150 123 5 3
-0.076834 -0.183343 -0.260593 189 155 127 5 3
-0.027795 -0.258987 -0.283413 189 151 122 5 3
-0.044864 -0.243029 -0.281525 188 148 117 5 3
-0.051118 -0.264059 -0.282170 190 155 124 5 3
0.013148 -0.022269 -0.669274 163 149 178 2 5
0.029191 -0.029847 -0.670030 203 214 227 2 5
0.004357 -0.054152 -0.672213 223 218 229 2 5
0.012855 -0.037584 -0.671509 231 234 244 2 5
0.028420 -0.043921 -0.671330 108 102 130 2 5
-0.092748 -0.301970 -0.290422 199 162 133 5 3
-0.077983 -0.292630 -0.289056 184 147 117 5 3
-0.073441 -0.278049 -0.288572 187 151 121 5 3
0.006252 0.236069 -0.666135 94 51 65 2 5
0.036191 0.195308 -0.663559 89 45 58 2 5
-0.139306 -0.200605 -0.264687 192 163 133 5 3
-0.123873 -0.242173 -0.274850 192 154 125 5 3
-0.149179 -0.238713 -0.272556 194 156 128 5 3
0.009883 -0.181182 -0.671868 106 52 67 2 5
0.017268 -0.161803 -0.672320 105 54 68 2 5
0.029483 -0.175145 -0.671252 104 54 71 2 5
0.015160 -0.141505 -0.672356 102 51 69 2 5
-0.057523 -0.454369 -0.338299 216 200 182 5 3
0.035284 -0.303246 -0.282924 187 158 143 5 3
0.047057 -0.019320 -0.252374 93 84 98 5 3
0.028047 -0.248560 -0.271454 194 167 141 5 3
0.018358 -0.268522 -0.277078 197 168 143 5 3
0.032031 -0.267520 -0.275124 196 166 140 5 3
0.012067 -0.253930 -0.277341 198 167 144 5 3
-0.206667 -0.300216 -0.308809 187 157 128 5 3
-0.218132 -0.296070 -0.304167 195 174 157 5 3
0.011545 -0.398055 -0.276756 167 138 108 5 3
0.015181 -0.375382 -0.279790 98 83 76 5 3
-0.007622 -0.456501 -0.286759 212 184 149 5 3
-0.224724 -0.302584 -0.286776 176 145 116 5 3
-0.213524 -0.309712 -0.285877 190 156 128 5 3
-0.240608 -0.284977 -0.285945 184 151 125 5 3
-0.242603 -0.279239 -0.290507 216 216 219 5 3
-0.231194 -0.283434 -0.302148 173 145 130 5 3
-0.231955 -0.288080 -0.281312 188 160 133 5 3
-0.231676 -0.294698 -0.291782 192 174 165 5 3
-0.129010 -0.376074 -0.306564 205 172 139 5 3
-0.141796 -0.360224 -0.303782 198 162 127 5 3
-0.133070 -0.331047 -0.296623 205 168 123 5 3
-0.052735 -0.001922 -0.669694 97 43 51 7 1
0.016913 -0.196464 -0.672042 107 54 66 2 5
0.034062 -0.203232 -0.670720 104 52 66 2 5
-0.089019 -0.365540 -0.300682 214 184 138 5 3
-0.020725 -0.275916 -0.286098 194 162 134 5 3
-0.000876 -0.262826 -0.280648 195 159 128 5 3
-0.184251 -0.327193 -0.290683 204 167 134 5 3
-0.171554 -0.347210 -0.298852 188 155 136 5 3
-0.068596 -0.063076 -0.248156 77 35 45 5 3
-0.071579 -0.075177 -0.256423 149 140 137 5 3
-0.058418 -0.066450 -0.259858 143 149 157 5 3
-0.064615 -0.084089 -0.265322 193 207 213 5 3
-0.120803 -0.404675 -0.334739 189 158 140 5 3
-0.103611 -0.423808 -0.335978 202 171 143 5 3
-0.095653 -0.418153 -0.309024 220 195 177 5 3
-0.111414 -0.427458 -0.314345 187 166 150 5 3
-0.114362 -0.419195 -0.329884 189 160 142 5 3
0.042000 -0.580425 -0.310087 177 147 121 5 3
-0.202764 -0.330648 -0.295729 198 164 136 5 3
-0.202072 -0.327428 -0.301244 191 158 134 5 3
-0.210529 -0.318947 -0.290077 185 152 123 5 3
-0.196012 -0.313379 -0.286165 184 153 130 5 3
-0.214173 -0.309762 -0.300754 174 143 115 5 3
-0.216250 -0.313830 -0.293746 184 150 123 5 3
-0.192963 -0.326097 -0.309714 181 148 121 5 3
0.045312 -0.495430 -0.271036 186 161 153 5 3
0.030786 -0.488895 -0.271666 189 168 163 5 3
0.042322 -0.483683 -0.274514 185 163 158 5 3
0.044892 -0.492912 -0.265477 182 156 143 5 3
-0.072570 -0.454305 -0.336165 206 184 168 5 3
-0.084924 -0.461934 -0.315147 205 177 166 5 3
-0.101278 -0.445936 -0.315855 211 189 175 5 3
-0.098372 -0.432240 -0.334925 189 169 147 5 3
-0.082056 -0.437975 -0.340893 208 187 173 5 3
-0.078058 -0.458569 -0.328605 213 189 177 5 3
-0.157553 -0.340441 -0.323767 199 164 131 5 3
-0.143224 -0.340160 -0.328175 130 98 86 5 3
-0.132676 -0.334729 -0.331849 142 111 90 5 3
0.018141 -0.311986 -0.288471 201 176 152 5 3
0.009547 -0.288010 -0.283882 197 171 145 5 3
0.006139 -0.290913 -0.286541 197 171 145 5 3
0.028008 -0.289648 -0.279144 194 164 143 5 3
0.000110 -0.276326 -0.283897 199 168 145 5 3
-0.081705 -0.086639 -0.252004 165 182 207 5 3
-0.075142 -0.099172 -0.269356 77 42 52 5 3
-0.067564 -0.091315 -0.268455 96 65 69 5 3
-0.085312 -0.091886 -0.254187 163 149 132 5 3
-0.079921 -0.090776 -0.251788 152 140 141 5 3
-0.084201 -0.106271 -0.255875 89 70 95 5 3
-0.066341 -0.099917 -0.251899 138 123 155 5 3
-0.087039 -0.102247 -0.266364 101 99 102 5 3
-0.070789 -0.107952 -0.273763 133 114 111 5 3
0.039066 0.060651 -0.663367 92 44 56 7 1
0.009981 -0.034250 -0.265653 84 68 79 5 3
0.016310 -0.037260 -0.270958 107 93 105 5 3
0.016861 -0.019279 -0.258975 73 32 30 5 3
-0.024943 0.140117 -0.665533 110 56 76 2 5
0.035776 0.236610 -0.663919 91 48 63 2 5
-0.156743 -0.375722 -0.313043 197 158 121 5 3
-0.166462 -0.362975 -0.311527 200 162 124 5 3
-0.164562 -0.359187 -0.317392 202 169 134 5 3
-0.182385 -0.347235 -0.308417 193 163 125 5 3
-0.156701 -0.370337 -0.320068 194 155 128 5 3
-0.150313 -0.358100 -0.326567 202 165 130 5 3
-0.170191 -0.342267 -0.319474 191 162 128 5 3
-0.020815 -0.241725 -0.279746 195 163 139 5 3
-0.022565 -0.146482 -0.254553 187 158 133 5 3
0.046702 -0.241072 -0.672020 93 49 62 2 5
0.057675 -0.217843 -0.671923 92 48 59 2 5
-0.223010 -0.238195 -0.294902 149 122 120 5 3
-0.001123 -0.564397 -0.280785 188 157 124 5 3
0.039880 -0.056611 -0.670443 95 47 65 2 5
0.042300 -0.023105 -0.670510 105 69 90 2 5
-0.046322 0.014759 -0.670500 96 41 53 7 1
-0.174780 -0.295541 -0.320453 143 108 87 5 3
-0.183400 -0.279031 -0.320719 162 124 105 5 3
-0.172348 -0.286249 -0.322561 133 94 84 5 3
0.038037 -0.490986 -0.256804 179 153 143 5 3
0.019451 -0.464653 -0.264035 186 163 157 5 3
0.007759 -0.488184 -0.269703 200 181 156 5 3
0.031455 -0.476982 -0.272246 189 170 167 5 3
0.026868 -0.468149 -0.268322 178 159 153 5 3
0.019143 -0.490854 -0.267833 206 181 172 5 3
0.013974 -0.479686 -0.271287 201 176 162 5 3
0.012228 -0.471929 -0.276942 200 178 157 5 3
0.029493 -0.467712 -0.277726 204 180 169 5 3
-0.011410 0.158147 -0.663911 105 55 70 2 5
-0.008496 0.175386 -0.663479 103 53 65 2 5
-0.047800 -0.056041 -0.257015 84 51 74 5 3
-0.042510 -0.048338 -0.250554 107 97 128 5 3
-0.042529 -0.061681 -0.262931 107 97 128 5 3
-0.053132 -0.078692 -0.269099 117 104 126 5 3
-0.021737 -0.057106 -0.267029 112 93 116 5 3
-0.142413 -0.226416 -0.268964 199 170 155 5 3
-0.176230 -0.230625 -0.270424 198 177 161 5 3
-0.056032 -0.227504 -0.276804 187 149 114 5 3
-0.000136 -0.374978 -0.290516 178 147 130 5 3
-0.001037 -0.384831 -0.293884 191 161 150 5 3
-0.006525 -0.373736 -0.293707 195 165 132 5 3
0.005243 -0.188476 -0.263397 184 153 135 5 3
0.035154 -0.202812 -0.260642 186 157 126 5 3
-0.126669 -0.347450 -0.335341 153 116 102 5 3
-0.130310 -0.355295 -0.332219 181 144 113 5 3
-0.065641 -0.191405 -0.264576 190 157 131 5 3
-0.094927 -0.193220 -0.262341 192 157 132 5 3
0.027380 0.157729 -0.663741 88 111 166 2 5
-0.115629 -0.425164 -0.319617 187 160 144 5 3
-0.138657 -0.399999 -0.318269 187 160 144 5 3
0.011086 0.039811 -0.670739 105 50 75 7 1
-0.001309 0.014816 -0.668757 84 52 69 7 1
-0.008471 0.029502 -0.669258 95 46 60 7 1
0.005360 -0.534863 -0.315452 205 178 146 5 3
0.038256 -0.562392 -0.310575 164 128 99 5 3
0.020476 -0.543640 -0.313441 178 147 117 5 3
-0.148252 -0.381904 -0.310783 203 167 136 5 3
0.014788 -0.532229 -0.316055 196 170 139 5 3
-0.044253 0.137599 -0.664151 124 88 106 2 5
-0.032239 -0.043633 -0.674009 66 27 38 7 1
-0.018163 -0.035039 -0.672850 79 39 56 7 1
-0.033298 -0.012657 -0.666807 125 131 159 7 1
-0.001593 -0.026651 -0.671460 81 41 60 7 1
-0.090818 -0.391835 -0.345986 157 124 113 5 3
-0.082276 -0.389752 -0.347438 81 63 58 5 3
0.026271 -0.501195 -0.263408 204 177 156 5 3
0.050145 -0.505914 -0.265325 193 165 143 5 3
0.033155 -0.511150 -0.263089 196 165 139 5 3
0.040125 -0.520434 -0.256384 199 166 139 5 3
0.050016 -0.494518 -0.258675 92 78 68 5 3
0.048406 -0.524448 -0.250461 156 117 98 5 3
0.040433 -0.518654 -0.250594 115 86 73 5 3
0.054745 -0.517076 -0.254355 115 86 73 5 3
0.046547 -0.513321 -0.263575 145 116 98 5 3
-0.202290 -0.234852 -0.317386 123 96 100 5 3
-0.203409 -0.274252 -0.317592 120 113 133 5 3
-0.195424 -0.248835 -0.321647 167 136 110 5 3
-0.205053 -0.256459 -0.317062 114 78 79 5 3
-0.222728 -0.256705 -0.305225 219 217 237 5 3
-0.129954 -0.222689 -0.268748 187 152 121 5 3
-0.116632 -0.218533 -0.267214 191 156 126 5 3
-0.085415 -0.231380 -0.275030 186 150 119 5 3
-0.092097 -0.241175 -0.277182 181 147 119 5 3
0.047693 -0.587781 -0.308091 179 153 123 5 3
0.053960 -0.589323 -0.287906 175 149 135 5 3
0.046415 -0.573435 -0.277483 212 181 150 5 3
-0.167716 -0.314893 -0.288070 200 162 129 5 3
-0.137988 -0.173837 -0.263880 197 233 248 5 3
-0.164844 -0.178699 -0.266109 87 52 84 5 3
-0.154711 -0.158755 -0.262130 153 154 172 5 3
-0.134411 -0.154596 -0.259754 111 106 140 5 3
-0.145635 -0.153831 -0.272500 127 107 101 5 3
-0.136959 -0.154444 -0.273890 96 71 81 5 3
-0.140357 -0.152424 -0.261009 157 138 124 5 3
-0.135904 -0.145727 -0.264743 174 181 196 5 3
0.051137 -0.189762 -0.672095 104 51 66 2 5
0.050106 -0.207521 -0.672811 96 49 65 2 5
-0.077491 -0.469884 -0.306272 210 188 173 5 3
-0.091788 -0.453500 -0.309665 211 188 177 5 3
-0.056606 -0.439405 -0.300988 232 217 190 5 3
-0.081391 -0.435917 -0.305936 227 210 184 5 3
0.045949 -0.352182 -0.289521 203 181 157 5 3
0.055347 -0.333294 -0.285686 206 181 161 5 3
0.051073 -0.367122 -0.295765 199 176 150 5 3
0.053313 -0.359079 -0.290684 206 181 164 5 3
0.045244 -0.063211 -0.298020 119 99 96 5 3
0.050701 -0.054157 -0.295648 94 53 57 5 3
0.056855 -0.050901 -0.294611 82 54 57 5 3
0.034417 -0.062877 -0.296219 120 101 96 5 3
0.064268 -0.059931 -0.296052 66 33 36 5 3
0.038868 -0.155228 -0.670458 102 52 66 2 5
0.052251 -0.170401 -0.670139 104 52 70 2 5
0.063659 -0.173002 -0.670473 96 46 62 2 5
0.016693 0.188282 -0.271304 188 151 122 5 4
0.022992 0.206663 -0.274671 176 144 118 5 4
0.012760 0.163583 -0.270347 184 180 162 5 4
-0.049660 -0.470479 -0.296026 231 208 172 5 3
-0.060887 -0.492472 -0.302179 215 195 164 5 3
-0.054407 -0.494669 -0.293831 220 196 167 5 3
-0.069365 -0.480625 -0.303197 226 205 173 5 3
-0.038110 -0.485468 -0.289795 235 216 183 5 3
-0.028971 -0.527669 -0.302111 182 153 122 5 3
-0.008173 -0.551942 -0.281597 185 150 115 5 3
-0.011475 -0.552884 -0.288265 175 142 110 5 3
-0.001782 -0.568339 -0.287390 165 133 100 5 3
-0.021577 -0.541289 -0.291467 176 144 116 5 3
-0.008780 -0.536656 -0.309036 177 145 115 5 3
-0.028697 -0.532366 -0.291945 181 150 119 5 3
-0.014651 -0.528781 -0.313624 181 150 123 5 3
-0.031262 -0.529010 -0.287690 185 151 117 5 3
-0.017779 -0.541558 -0.281327 210 181 148 5 3
-0.035574 -0.420628 -0.296245 216 187 149 5 3
-0.002832 -0.434150 -0.287236 202 174 145 5 3
-0.020997 -0.402981 -0.294848 211 182 138 5 3
-0.116781 -0.261576 -0.280998 183 148 123 5 3
-0.101326 -0.249992 -0.279979 184 143 117 5 3
0.022588 -0.414794 -0.283286 187 163 148 5 3
-0.005064 -0.412594 -0.292489 196 169 144 5 3
0.020487 -0.420762 -0.291162 192 165 142 5 3
0.007611 -0.395977 -0.290742 195 166 147 5 3
0.008129 -0.398012 -0.283055 185 159 145 5 3
0.012644 -0.426238 -0.291103 200 171 141 5 3
-0.017041 -0.492758 -0.281976 215 188 156 5 3
0.003867 -0.495761 -0.274793 209 182 152 5 3
0.034391 0.246385 -0.281886 205 195 170 5 4
0.041048 0.259726 -0.282925 203 197 175 5 4
-0.060709 -0.099911 -0.277987 108 90 89 5 3
-0.054392 -0.088546 -0.267935 121 125 129 5 3
0.045647 0.043131 -0.665380 89 47 61 2 5
0.030558 0.038295 -0.666830 90 47 59 2 5
0.041714 0.019329 -0.665836 85 43 69 2 5
0.019604 0.056512 -0.667754 102 50 58 7 1
-0.003188 -0.296198 -0.287046 201 176 152 5 3
-0.076956 -0.114730 -0.253589 242 244 252 5 3
-0.062617 -0.130550 -0.252184 186 183 187 5 3
0.027513 -0.020459 -0.267587 95 101 149 5 3
0.024520 -0.008858 -0.249926 80 56 53 5 3
0.023030 -0.232822 -0.269064 195 167 144 5 3
0.043528 -0.225347 -0.264976 190 164 144 5 3
0.012316 -0.006805 -0.665935 98 71 102 2 5
0.022067 0.014899 -0.667775 92 58 81 2 5
0.037612 -0.001366 -0.668009 105 97 127 2 5
-0.066648 -0.252811 -0.280101 188 151 122 5 3
-0.084359 -0.256042 -0.283568 182 145 111 5 3
-0.070528 -0.265566 -0.286289 187 152 124 5 3
-0.183115 -0.337192 -0.313716 194 159 130 5 3
-0.178995 -0.310134 -0.317687 201 166 135 5 3
-0.168523 -0.316679 -0.320118 197 165 131 5 3
-0.124180 -0.356330 -0.302370 204 172 132 5 3
-0.114265 -0.334987 -0.297885 214 179 133 5 3
-0.107316 -0.366507 -0.302371 216 182 139 5 3
0.017889 0.242060 -0.664238 87 47 63 2 5
-0.011637 0.245459 -0.272087 199 191 165 5 4
-0.007916 0.255366 -0.272685 185 164 143 5 4
-0.023752 0.250938 -0.271474 188 170 142 5 4
0.022422 -0.111254 -0.671205 106 54 73 2 5
0.032678 -0.121261 -0.670771 109 58 73 2 5
0.009019 -0.104723 -0.670921 106 55 69 2 5
0.033309 -0.091234 -0.671784 106 52 70 2 5
0.061243 -0.248350 -0.673634 95 48 60 2 5
0.055893 -0.143803 -0.249837 175 152 137 5 3
0.042491 -0.155739 -0.252682 172 149 126 5 3
0.032770 -0.178927 -0.257648 175 151 131 5 3
0.005734 -0.523058 -0.320636 199 175 148 5 3
-0.006099 -0.514931 -0.321568 200 175 141 5 3
-0.018106 -0.505718 -0.323160 214 186 154 5 3
-0.024294 -0.515077 -0.314429 202 173 145 5 3
-0.008582 -0.227188 -0.273658 189 158 129 5 3
-0.004189 -0.219767 -0.270619 188 152 125 5 3
0.000310 -0.204356 -0.266757 187 150 127 5 3
-0.195392 -0.329712 -0.291879 204 168 133 5 3
-0.155383 -0.359981 -0.303645 203 165 127 5 3
-0.170179 -0.357945 -0.304952 199 164 130 5 3
-0.187399 -0.344327 -0.300472 194 164 130 5 3
-0.048595 0.161570 -0.660245 142 139 175 2 5
0.046387 0.081466 -0.656134 87 43 53 7 1
-0.097103 -0.101674 -0.261041 84 45 59 5 3
-0.109285 -0.121402 -0.255448 150 128 123 5 3
-0.107792 -0.108117 -0.255134 98 70 84 5 3
-0.102304 -0.098738 -0.252493 153 151 152 5 3
-0.098622 -0.103101 -0.252927 121 101 96 5 3
-0.107274 -0.106742 -0.259225 135 127 120 5 3
-0.029289 0.244557 -0.265323 159 147 155 5 4
-0.035189 0.243483 -0.252501 151 135 125 5 4
-0.041851 0.263610 -0.265532 217 215 228 5 4
0.008811 -0.587727 -0.282946 154 125 106 5 3
0.007967 -0.582196 -0.291428 144 111 87 5 3
0.028391 -0.578961 -0.306592 161 130 105 5 3
0.010103 -0.569497 -0.300652 153 122 94 5 3
0.013240 -0.089926 -0.671899 101 50 65 2 5
-0.021379 -0.100492 -0.672966 95 48 59 2 5
0.039961 0.175535 -0.665047 82 44 62 2 5
-0.003156 -0.073785 -0.673221 91 47 72 2 5
-0.039071 -0.066615 -0.672861 80 34 42 2 5
-0.118356 -0.159878 -0.260790 193 221 232 5 3
-0.127964 -0.146056 -0.272112 157 163 181 5 3
-0.022244 -0.463404 -0.290582 224 199 160 5 3
-0.027513 -0.482668 -0.286220 226 201 163 5 3
-0.010037 -0.478751 -0.282812 212 186 151 5 3
-0.002702 -0.478961 -0.279163 214 190 160 5 3
-0.210292 -0.226716 -0.294952 142 129 160 5 3
-0.220139 -0.233893 -0.281609 147 140 180 5 3
-0.218238 -0.236781 -0.309344 85 38 43 5 3
-0.209914 -0.220313 -0.284140 149 143 180 5 3
-0.045511 -0.515225 -0.295121 186 157 130 5 3
-0.029211 -0.523547 -0.283751 201 172 132 5 3
-0.044674 -0.512523 -0.290798 206 175 149 5 3
-0.050748 -0.503828 -0.302253 206 180 156 5 3
-0.040631 -0.512658 -0.304998 210 182 156 5 3
-0.109126 -0.321681 -0.295436 183 146 112 5 3
-0.132650 -0.320389 -0.293641 186 150 117 5 3
-0.085251 -0.324057 -0.295043 197 163 126 5 3
-0.107509 -0.300158 -0.290149 197 160 127 5 3
0.036084 -0.548820 -0.260793 143 104 91 5 3
0.046073 -0.546649 -0.254780 109 65 57 5 3
0.050611 -0.538683 -0.255564 139 103 89 5 3
0.067031 -0.537689 -0.254653 137 98 81 5 3
0.042194 -0.554826 -0.265342 195 162 136 5 3
0.067390 -0.551909 -0.274206 192 159 135 5 3
0.009412 0.213505 -0.271745 188 185 164 5 4
0.004881 0.222945 -0.273092 190 190 170 5 4
0.013311 0.234391 -0.275958 197 196 175 5 4
-0.060789 -0.292034 -0.290790 191 157 129 5 3
-0.037233 -0.296494 -0.290753 199 165 141 5 3
-0.052553 -0.278062 -0.288988 190 155 128 5 3
-0.035048 -0.284373 -0.285152 194 162 134 5 3
-0.010079 -0.167309 -0.672601 81 33 40 2 5
-0.185155 -0.432671 0.045238 145 127 110 5 3
-0.189232 -0.417119 0.020066 144 122 107 5 3
-0.179820 -0.428327 0.015376 142 119 107 5 3
-0.219677 -0.352675 -0.167419 208 181 138 5 3
-0.218526 -0.366628 -0.178339 208 178 134 5 3
-0.008413 -0.059380 -0.243814 93 78 97 5 3
-0.191252 -0.337056 -0.074134 135 102 74 5 3
-0.201002 -0.365085 -0.077678 134 101 73 5 3
-0.202836 -0.360035 -0.064758 138 106 79 5 3
-0.210408 -0.344704 -0.092199 133 98 71 5 3
-0.208594 -0.336471 -0.073913 137 105 77 5 3
-0.206218 -0.351782 -0.061959 138 106 79 5 3
-0.220739 -0.362785 0.043275 142 112 83 5 3
-0.083022 -0.514757 -0.040212 165 161 169 5 3
-0.118240 -0.527712 -0.039863 163 161 170 5 3
-0.091598 -0.511183 -0.030835 165 162 173 5 3
0.027547 -0.610731 -0.054694 115 77 51 5 3
0.021242 -0.606407 -0.031948 136 111 97 5 3
0.030210 -0.614243 -0.041130 116 77 50 5 3
0.024783 -0.610705 -0.040964 119 81 54 5 3
0.026356 -0.604559 -0.051496 141 120 110 5 3
0.020582 -0.614209 -0.017206 127 95 75 5 3
-0.210387 -0.288415 -0.208085 210 175 121 5 3
-0.203957 -0.297863 -0.208264 214 177 122 5 3
-0.194618 -0.274247 -0.185764 197 168 137 5 3
-0.195650 -0.278123 -0.194233 188 161 132 5 3
-0.187729 -0.272906 -0.214728 199 163 131 5 3
0.005942 -0.549233 -0.210683 111 59 52 5 3
0.005745 -0.563595 -0.204970 108 58 49 5 3
-0.216786 -0.325142 -0.093577 140 106 77 5 3
-0.221179 -0.343222 -0.108666 163 133 102 5 3
-0.164385 -0.479859 -0.018734 150 133 127 5 3
-0.095696 -0.391218 -0.237662 181 149 118 5 3
-0.113341 -0.383895 -0.232258 182 152 121 5 3
-0.119789 -0.373155 -0.232500 187 157 128 5 3
-0.104421 -0.389795 -0.234683 180 151 114 5 3
-0.116767 -0.397551 -0.229302 180 151 114 5 3
-0.197288 -0.385144 -0.197606 219 194 165 5 3
-0.182261 -0.435650 -0.186079 220 195 161 5 3
-0.241487 -0.301645 -0.179964 190 150 106 5 3
-0.248040 -0.289819 -0.180472 188 148 105 5 3
-0.253078 -0.269193 -0.163454 161 125 91 5 3
-0.242871 -0.287145 -0.157457 184 146 98 5 3
-0.225080 -0.329704 -0.111379 151 118 86 5 3
-0.085782 -0.528812 -0.141398 126 81 57 5 3
-0.224800 -0.320584 0.005612 140 104 76 5 3
-0.227449 -0.307724 -0.006696 140 105 75 5 3
-0.222200 -0.321830 -0.002429 138 103 75 5 3
-0.228080 -0.302561 -0.002025 140 104 73 5 3
-0.227866 -0.316933 -0.001875 140 105 75 5 3
-0.227922 -0.325820 0.008208 140 104 76 5 3
-0.223763 -0.329843 -0.004051 138 103 75 5 3
-0.184190 -0.279160 -0.158634 199 174 154 5 3
-0.188821 -0.274228 -0.169284 206 180 152 5 3
-0.170118 -0.297051 -0.167237 184 164 121 5 3
-0.179271 -0.287836 -0.157005 187 167 166 5 3
-0.167951 -0.298481 -0.179025 182 160 132 5 3
-0.186346 -0.387867 -0.018650 138 112 90 5 3
-0.184832 -0.398683 -0.006581 139 115 97 5 3
-0.008792 -0.568646 -0.067486 145 124 108 5 3
-0.003351 -0.568446 -0.092267 135 108 103 5 3
0.001527 -0.577732 -0.053394 140 121 108 5 3
0.009684 -0.584111 -0.064836 121 115 119 5 3
-0.200566 -0.407803 -0.118391 193 157 103 5 3
-0.146477 -0.481122 0.040829 157 151 151 5 3
0.029852 -0.533353 -0.254258 174 142 121 5 3
0.039208 -0.036597 -0.034984 105 71 83 7 1
0.033763 -0.047628 -0.030064 101 70 77 7 1
0.021818 -0.020663 -0.020720 103 67 78 7 1
0.021364 -0.031052 -0.018737 122 94 106 7 1
-0.218139 -0.352612 -0.112549 161 131 102 5 3
-0.216923 -0.360145 -0.112041 144 112 83 5 3
-0.209398 -0.359132 -0.096220 160 130 100 5 3
-0.216533 -0.349876 -0.105639 136 104 77 5 3
0.035825 -0.075388 0.013876 200 177 143 7 1
0.059768 -0.052302 0.031647 194 169 135 7 1
0.041130 -0.082115 0.008344 159 132 105 7 1
-0.186989 -0.352183 -0.072000 137 105 77 5 3
-0.158347 -0.356371 -0.083393 169 145 112 5 3
-0.183495 -0.345884 -0.080932 139 107 78 5 3
-0.175845 -0.362429 -0.081539 140 111 84 5 3
0.054026 -0.037173 -0.039828 100 53 45 7 1
0.051212 -0.050750 -0.039131 95 45 49 7 1
0.059712 -0.019511 -0.039584 94 47 42 7 1
0.035796 -0.527900 -0.249324 195 162 140 5 3
-0.177766 -0.289480 -0.113389 203 178 151 5 3
-0.178319 -0.294865 -0.093209 207 182 156 5 3
-0.170158 -0.300062 -0.105910 190 165 135 5 3
-0.179910 -0.299035 -0.087453 210 188 166 5 3
0.018817 -0.626893 0.050430 147 106 71 5 3
-0.134102 -0.498676 -0.170877 160 117 76 5 3
0.013490 -0.579781 -0.157166 146 106 76 5 3
-0.000011 -0.579236 -0.184146 140 109 101 5 3
0.018397 -0.587036 -0.162658 138 100 75 5 3
0.008818 -0.578581 -0.171721 145 109 85 5 3
-0.144360 -0.484664 -0.141861 154 107 64 5 3
-0.147947 -0.486308 -0.171281 197 162 121 5 3
-0.145065 -0.500113 -0.066210 151 133 126 5 3
-0.138410 -0.500295 -0.086874 149 132 124 5 3
-0.218413 -0.351870 -0.190040 210 186 152 5 3
0.012773 0.199515 -0.236707 156 139 121 5 4
0.007394 0.237321 -0.238852 168 163 149 5 4
-0.204905 -0.329673 -0.204310 210 178 131 5 3
-0.206278 -0.308734 -0.206407 205 173 120 5 3
-0.197249 -0.320012 -0.208159 217 180 125 5 3
-0.067684 -0.062757 -0.242409 144 119 115 5 3
-0.082446 -0.073980 -0.240723 172 156 143 5 3
-0.085766 -0.082905 -0.246341 187 172 157 5 3
-0.060200 -0.070302 -0.242543 107 84 92 5 3
-0.082639 -0.075254 -0.248027 193 181 173 5 3
-0.156068 -0.483790 0.043624 153 144 136 5 3
-0.181221 -0.460790 0.042608 152 139 129 5 3
-0.167058 -0.469249 0.043781 152 139 130 5 3
-0.155320 -0.503889 0.039793 158 152 153 5 3
-0.150033 -0.512210 0.031644 161 156 159 5 3
-0.143493 -0.514178 0.012485 156 151 152 5 3
-0.159550 -0.494195 0.019506 156 149 148 5 3
-0.135108 -0.527801 0.023022 160 156 159 5 3
-0.181316 -0.439028 -0.144011 180 139 87 5 3
-0.167005 -0.459617 -0.157042 168 129 76 5 3
-0.172017 -0.453803 -0.138391 171 129 78 5 3
0.008433 -0.591875 0.050339 131 100 76 5 3
0.000039 -0.575925 -0.196636 105 58 45 5 3
-0.222083 -0.358505 0.034042 139 106 72 5 3
-0.223867 -0.367027 0.040757 141 111 82 5 3
-0.224569 -0.352884 0.021161 141 107 74 5 3
-0.224685 -0.338453 0.009960 141 105 77 5 3
-0.220890 -0.364789 0.012514 140 105 76 5 3
-0.119918 -0.492768 -0.021320 158 156 160 5 3
-0.128310 -0.484271 -0.008438 161 160 164 5 3
0.046808 -0.614145 -0.129820 87 78 97 5 3
0.026620 -0.600224 -0.139214 111 92 87 5 3
0.037062 -0.611549 -0.155282 93 82 95 5 3
0.034144 -0.609378 -0.130785 98 82 86 5 3
-0.214330 -0.361628 -0.146460 205 174 125 5 3
-0.043709 -0.596190 0.050515 184 164 147 5 3
-0.026759 -0.598668 0.035480 183 162 142 5 3
0.043763 -0.106419 0.017230 195 170 134 7 1
0.027634 -0.086789 0.021546 192 168 132 7 1
0.033791 -0.099885 0.026110 201 177 139 7 1
-0.188073 -0.349418 -0.208163 219 187 139 5 3
-0.219596 -0.360093 -0.184489 214 186 151 5 3
-0.205822 -0.349392 -0.201105 210 186 153 5 3
-0.127391 -0.500573 -0.158704 152 108 71 5 3
-0.101682 -0.519665 -0.155700 125 78 50 5 3
-0.094459 -0.528468 -0.177637 138 92 65 5 3
-0.118119 -0.509908 -0.169810 186 149 108 5 3
-0.184178 -0.282871 -0.218156 195 160 130 5 3
-0.169880 -0.295489 -0.221919 218 196 158 5 3
-0.157760 -0.297004 -0.222467 186 159 131 5 3
-0.166094 -0.293906 -0.218331 194 168 137 5 3
-0.181150 -0.384816 -0.042757 139 113 89 5 3
-0.184453 -0.390866 -0.025873 139 111 89 5 3
-0.177819 -0.406422 -0.031264 140 116 93 5 3
-0.184786 -0.377411 -0.036526 137 108 82 5 3
0.065398 0.253766 -0.028760 118 72 69 7 1
0.049544 0.228243 -0.023027 97 69 74 7 1
0.055362 0.252788 -0.018715 92 59 68 7 1
-0.194849 -0.438027 0.027929 143 119 103 5 3
-0.203585 -0.419269 0.017174 143 118 100 5 3
-0.202520 -0.423045 0.035853 145 120 103 5 3
-0.209429 -0.412908 0.033415 143 119 100 5 3
-0.207085 -0.413231 0.042525 142 117 94 5 3
-0.209217 -0.407662 0.017927 141 115 92 5 3
0.037518 -0.049303 0.031014 195 170 133 7 1
-0.085988 -0.508177 -0.052366 165 158 158 5 3
-0.069147 -0.523499 -0.049865 168 166 167 5 3
-0.071180 -0.527652 -0.029913 171 171 182 5 3
-0.186040 -0.414087 -0.195015 213 187 153 5 3
-0.167013 -0.400504 -0.208025 215 183 138 5 3
-0.156605 -0.416457 -0.209745 217 186 145 5 3
-0.175372 -0.431812 -0.193714 222 196 157 5 3
-0.163854 -0.442238 -0.196800 209 175 131 5 3
-0.156661 -0.424947 -0.206230 220 194 151 5 3
0.027230 0.165420 -0.250580 134 89 88 5 4
-0.025175 -0.607763 0.043910 167 139 114 5 3
-0.010622 -0.615952 0.038837 127 82 46 5 3
0.010836 0.030774 0.030657 198 176 143 7 1
0.002136 0.030200 0.021744 200 181 147 7 1
0.004392 0.013400 0.025577 198 177 144 7 1
0.018263 0.018376 0.031871 197 174 140 7 1
0.029104 0.035907 0.033560 198 175 140 7 1
0.008292 0.018573 0.028983 198 175 142 7 1
-0.161881 -0.470484 -0.170567 189 152 108 5 3
-0.182560 -0.445250 -0.173775 196 160 117 5 3
0.021997 -0.576412 0.017415 111 70 39 5 3
0.017040 -0.587537 0.030847 117 74 45 5 3
0.020440 -0.574323 0.001327 142 110 95 5 3
0.014150 -0.590429 0.042318 143 110 90 5 3
0.027977 -0.592117 0.033032 120 86 59 5 3
0.060140 -0.139271 -0.023105 106 63 58 7 1
-0.046459 -0.506442 -0.212589 84 64 50 5 3
-0.048881 -0.504847 -0.206256 83 62 47 5 3
-0.048502 -0.512447 -0.217461 185 148 115 5 3
-0.059886 -0.526983 -0.201695 190 156 121 5 3
-0.036881 -0.515276 -0.208501 165 128 100 5 3
-0.037468 -0.526625 -0.210336 181 147 121 5 3
-0.049274 -0.511316 -0.204632 83 61 45 5 3
-0.188950 -0.277319 -0.114226 206 180 158 5 3
-0.153576 -0.480061 -0.114308 163 121 69 5 3
-0.177685 -0.449382 -0.110753 169 128 77 5 3
-0.169474 -0.460138 -0.096855 147 121 99 5 3
-0.218922 -0.374389 0.022109 140 111 85 5 3
-0.205054 -0.374585 0.018854 140 112 85 5 3
-0.217684 -0.392417 0.040629 142 114 90 5 3
-0.207190 -0.385064 0.035264 143 115 92 5 3
-0.214102 -0.392180 0.024159 140 112 85 5 3
-0.215809 -0.365435 0.036227 143 114 88 5 3
-0.215206 -0.373548 0.038374 143 114 88 5 3
-0.214042 -0.382288 0.008265 139 109 84 5 3
-0.201092 -0.397049 0.031230 141 116 93 5 3
-0.062123 -0.541316 -0.162183 115 68 51 5 3
-0.077090 -0.535222 -0.175467 115 69 46 5 3
-0.185893 -0.428470 0.032374 145 128 111 5 3
-0.191412 -0.442194 0.037183 146 131 115 5 3
-0.178545 -0.462446 0.026356 147 133 120 5 3
-0.173309 -0.438352 0.011579 147 130 118 5 3
-0.160782 -0.466976 0.042638 150 139 130 5 3
-0.236321 -0.304196 0.009079 142 107 77 5 3
-0.238019 -0.318990 0.017419 145 110 79 5 3
-0.237529 -0.318559 0.027438 144 109 79 5 3
-0.225510 -0.345045 0.024093 140 105 75 5 3
-0.233543 -0.316001 0.004688 142 105 76 5 3
-0.227760 -0.330519 0.013477 140 103 75 5 3
-0.219057 -0.323938 0.013437 141 104 75 5 3
-0.232514 -0.334443 0.025401 142 107 74 5 3
-0.228892 -0.329231 0.020741 141 106 73 5 3
-0.230322 -0.312011 0.013331 141 105 76 5 3
-0.229989 -0.318421 0.019754 142 105 76 5 3
-0.232461 -0.328719 0.017490 140 103 74 5 3
-0.133560 -0.421403 -0.088726 177 151 115 5 3
0.035913 -0.060828 -0.031375 102 67 74 7 1
0.037522 -0.076870 -0.027934 94 53 57 7 1
0.043685 -0.069348 -0.034695 94 53 57 7 1
0.049748 -0.060904 -0.038619 97 59 62 7 1
0.035701 -0.081327 -0.015034 111 78 81 7 1
0.067559 -0.081713 -0.039587 101 45 36 7 1
-0.226675 -0.323834 -0.138690 203 169 119 5 3
-0.108495 -0.464772 -0.214056 206 180 146 5 3
-0.121820 -0.460325 -0.209908 172 138 109 5 3
-0.114217 -0.468236 -0.209147 187 156 128 5 3
0.048481 -0.118307 -0.246976 163 143 128 5 3
-0.141006 -0.463649 -0.036511 149 133 123 5 3
-0.148378 -0.454895 -0.040431 145 125 111 5 3
-0.153318 -0.446293 -0.045789 146 123 107 5 3
-0.133114 -0.466312 -0.056009 150 132 123 5 3
-0.160874 -0.437231 -0.034429 148 129 118 5 3
-0.033538 -0.554472 -0.014555 160 152 146 5 3
-0.056234 -0.538194 -0.030577 166 160 163 5 3
0.045747 0.135111 -0.038071 97 46 42 7 1
0.061306 0.127330 -0.042280 148 108 98 7 1
0.057773 0.134702 -0.043038 116 71 65 7 1
0.058316 0.113993 -0.043473 137 93 84 7 1
0.046315 0.119401 -0.038559 188 188 196 7 1
0.037594 0.143452 -0.034963 125 112 120 7 1
-0.143547 -0.409521 -0.217441 209 178 134 5 3
-0.155311 -0.405877 -0.212910 188 157 123 5 3
0.045036 0.224831 0.013444 199 186 175 7 1
0.040358 0.229343 0.017699 194 176 165 7 1
0.059955 0.214010 0.034078 193 175 151 7 1
0.040678 0.228948 0.029901 198 181 162 7 1
0.047654 0.226505 0.009334 188 186 177 7 1
-0.189772 -0.294717 -0.215745 220 195 158 5 3
0.011937 -0.016623 0.021311 200 177 141 7 1
0.007103 0.006840 0.021594 205 186 152 7 1
0.004954 -0.001369 0.025713 196 174 141 7 1
0.017093 -0.002513 0.017196 204 184 154 7 1
0.013676 -0.010653 0.029867 195 173 136 7 1
0.021865 0.000639 0.012070 167 148 130 7 1
0.015423 0.026934 0.015475 196 177 152 7 1
0.055674 0.052756 -0.044154 107 58 57 7 1
0.037143 0.069394 -0.038479 102 47 50 7 1
0.061538 0.069964 -0.047109 160 163 177 7 1
0.052646 0.065922 -0.044536 108 55 58 7 1
0.013773 -0.549144 -0.064986 132 119 115 5 3
0.065564 0.269777 -0.002656 177 182 188 7 1
0.059087 0.254435 0.008958 198 202 211 7 1
0.036857 -0.624949 0.002514 125 80 44 5 3
0.060020 -0.621911 0.004793 128 85 51 5 3
0.028650 -0.618148 -0.018834 125 81 50 5 3
0.043566 -0.619916 -0.011570 119 75 47 5 3
0.065726 -0.612257 -0.017049 132 91 58 5 3
0.065413 -0.617779 0.002123 162 118 86 5 3
0.051446 -0.622292 -0.005434 128 83 52 5 3
0.049084 -0.616621 -0.025096 120 78 49 5 3
-0.126907 -0.372938 -0.230086 186 156 126 5 3
-0.130596 -0.382968 -0.226169 183 151 119 5 3
-0.141494 -0.367937 -0.226672 186 156 130 5 3
-0.145370 -0.389536 -0.220010 196 166 131 5 3
-0.153396 -0.396308 -0.216116 196 166 131 5 3
-0.172968 -0.463350 -0.053449 144 124 109 5 3
-0.200882 -0.262807 -0.188953 198 164 132 5 3
-0.205125 -0.251038 -0.183524 193 155 124 5 3
-0.191857 -0.279415 -0.204085 199 163 129 5 3
-0.206658 -0.254759 -0.210123 193 157 124 5 3
-0.198906 -0.258839 -0.209514 193 154 124 5 3
-0.207777 -0.279141 -0.210242 195 158 126 5 3
-0.208506 -0.249934 -0.196726 191 153 119 5 3
-0.217007 -0.253068 -0.203953 193 157 125 5 3
0.009093 -0.563935 -0.048535 117 101 103 5 3
0.008865 -0.560024 -0.057311 134 131 136 5 3
-0.157257 -0.368308 -0.219838 215 185 146 5 3
-0.172798 -0.347956 -0.215569 216 189 150 5 3
-0.016425 0.193513 -0.239883 160 140 118 5 4
-0.012403 0.180279 -0.242970 152 124 107 5 4
-0.223643 -0.295342 -0.054086 132 96 65 5 3
-0.223885 -0.297977 -0.038510 137 105 76 5 3
-0.220876 -0.293399 -0.042929 135 101 71 5 3
-0.195549 -0.268432 -0.167987 208 179 146 5 3
-0.196331 -0.263216 -0.158052 207 178 147 5 3
-0.218321 -0.242836 -0.158583 206 175 144 5 3
-0.196732 -0.253911 -0.155859 209 182 162 5 3
-0.187197 -0.270633 -0.156996 205 182 159 5 3
-0.199788 -0.255100 -0.168476 204 173 138 5 3
-0.221013 -0.244104 -0.176374 195 160 130 5 3
-0.205080 -0.248391 -0.153264 206 176 146 5 3
-0.207891 -0.250139 -0.176266 201 166 133 5 3
0.024556 -0.561040 -0.211159 97 44 36 5 3
0.021658 -0.581213 -0.206677 110 63 52 5 3
0.005882 -0.577334 -0.200456 103 55 49 5 3
0.033670 -0.582362 -0.210226 106 65 60 5 3
0.029760 -0.573027 -0.209853 96 42 36 5 3
0.035348 0.087677 -0.037564 149 138 148 7 1
0.028647 0.103725 -0.034615 131 105 113 7 1
0.057145 0.076567 -0.042217 148 105 94 7 1
0.048366 0.079173 -0.044628 96 63 61 7 1
0.029724 0.079190 -0.036711 123 75 83 7 1
0.045243 0.092506 -0.041528 158 142 149 7 1
0.047352 0.104009 -0.043322 138 106 117 7 1
0.044574 -0.571529 -0.216834 105 53 39 5 3
0.029205 -0.592496 -0.205350 104 65 65 5 3
0.053679 -0.594083 -0.215406 108 70 67 5 3
-0.217948 -0.289052 -0.053047 132 97 67 5 3
-0.210693 -0.300817 -0.050007 135 103 73 5 3
-0.216243 -0.297630 -0.038858 136 103 73 5 3
-0.215315 -0.309290 -0.034215 136 102 73 5 3
-0.203368 -0.399925 0.044539 141 118 95 5 3
-0.217755 -0.385837 0.047371 145 114 88 5 3
-0.208022 -0.386438 0.046149 141 114 90 5 3
-0.221163 -0.378563 0.044288 143 112 85 5 3
-0.214105 -0.379613 0.049030 145 115 90 5 3
0.011919 -0.014146 -0.248462 131 106 99 5 3
0.011295 -0.017048 -0.240790 107 103 137 5 3
-0.000094 -0.019430 -0.242392 98 71 71 5 3
-0.167791 -0.303327 -0.116105 140 122 102 5 3
-0.164656 -0.307483 -0.123819 143 127 106 5 3
0.059355 -0.613284 -0.171484 126 109 116 5 3
0.049447 -0.614248 -0.158518 88 80 94 5 3
0.037733 -0.614440 -0.166275 88 85 103 5 3
-0.020603 -0.559906 -0.092369 139 96 75 5 3
0.003697 -0.570519 -0.118975 140 99 71 5 3
-0.096659 -0.493050 -0.079779 163 149 135 5 3
-0.088768 -0.482766 -0.084172 181 160 135 5 3
-0.160063 -0.303279 -0.216324 200 174 144 5 3
-0.158477 -0.302096 -0.226508 198 169 139 5 3
-0.149919 -0.302890 -0.226456 199 171 139 5 3
-0.139231 -0.309730 -0.227739 202 174 148 5 3
-0.052053 -0.555378 0.015372 170 159 154 5 3
-0.048168 -0.562236 0.030365 178 178 182 5 3
-0.177970 -0.370853 -0.209391 212 183 147 5 3
-0.132424 -0.414212 -0.084928 181 158 124 5 3
-0.145258 -0.405157 -0.085006 189 163 129 5 3
-0.152913 -0.433579 -0.072982 142 119 97 5 3
-0.152610 -0.411919 -0.083300 143 115 96 5 3
-0.148187 -0.427142 -0.083339 151 126 102 5 3
-0.028103 0.246107 -0.243074 181 179 165 5 4
-0.004369 0.255619 -0.239731 175 167 148 5 4
0.045381 0.169197 0.033723 192 173 152 7 1
0.034393 0.189447 0.031961 193 175 155 7 1
0.045768 0.201697 0.033261 192 173 152 7 1
0.025345 0.225131 -0.238855 163 159 149 5 4
0.069816 0.224173 -0.238395 165 159 152 5 4
0.058970 0.215590 -0.237328 150 125 107 5 4
-0.091381 -0.526824 -0.164631 119 73 46 5 3
-0.180031 -0.403804 -0.018763 140 115 94 5 3
-0.176024 -0.423849 -0.001803 140 119 104 5 3
-0.168232 -0.429187 -0.024574 140 119 104 5 3
-0.187587 -0.405629 0.005982 140 118 95 5 3
-0.130949 -0.497454 -0.180762 198 163 121 5 3
-0.126028 -0.487801 -0.193541 207 173 131 5 3
-0.131622 -0.471348 -0.198960 197 161 119 5 3
-0.146488 -0.477406 -0.185537 210 177 135 5 3
-0.056234 -0.542717 -0.006714 173 174 181 5 3
-0.037510 -0.557098 -0.000626 171 171 176 5 3
-0.099388 -0.534221 -0.055522 165 159 156 5 3
-0.044425 -0.552478 -0.079396 165 149 135 5 3
-0.072971 -0.542553 -0.064179 163 151 148 5 3
-0.069015 -0.546692 -0.052076 163 155 155 5 3
-0.074491 -0.484627 -0.219993 175 149 135 5 3
-0.075505 -0.469121 -0.223971 186 158 141 5 3
-0.066559 -0.477555 -0.223077 177 151 140 5 3
-0.059667 -0.468089 -0.223729 165 137 119 5 3
