ply
format ascii 1.0
element vertex 1189
property float x
property float y
property float z
property uchar red
property uchar green
property uchar blue
property uchar semantic_label
property uchar instance_label
end_header
0.273419 0.994492 0.119510 0 255 0 89 6
0.311194 0.874004 0.151753 0 255 0 89 6
0.323205 0.959373 0.115194 0 255 0 89 6
0.274147 0.892103 0.201462 0 255 0 89 6
0.284902 0.808030 0.119161 0 255 0 89 6
0.145154 0.929745 0.117608 0 255 0 89 6
0.211914 0.936002 -0.136987 0 255 0 89 6
0.281281 0.902854 0.129996 0 255 0 89 6
0.276539 0.797540 0.115183 0 255 0 89 6
0.281165 0.870164 0.195996 0 255 0 89 6
0.195630 0.984446 0.119285 0 255 0 89 6
0.167354 0.851418 0.117553 0 255 0 89 6
0.113240 0.885412 0.172922 0 255 0 89 6
0.339274 0.890677 0.203996 0 255 0 89 6
0.300042 0.860018 0.089765 0 255 0 89 6
0.265241 0.917538 0.187996 0 255 0 89 6
0.286150 0.813899 0.097559 0 255 0 89 6
0.140307 0.820363 0.115130 0 255 0 89 6
0.231544 0.807104 0.115153 0 255 0 89 6
0.169845 0.843896 0.115996 0 255 0 89 6
0.222594 0.813095 0.088912 0 255 0 89 6
0.117180 0.952049 0.119239 0 255 0 89 6
0.187116 0.896290 0.207251 0 255 0 89 6
0.313859 0.867305 0.162877 0 255 0 89 6
0.302404 0.904499 0.091996 0 255 0 89 6
0.207387 0.885847 -0.136940 0 255 0 89 6
0.150674 0.801802 0.115122 0 255 0 89 6
0.300165 0.870215 0.118862 0 255 0 89 6
0.187238 0.906487 -0.136990 0 255 0 89 6
0.279040 0.857404 0.191996 0 255 0 89 6
0.285252 0.934726 0.115010 0 255 0 89 6
0.274677 0.913835 0.199996 0 255 0 89 6
0.096805 0.856190 0.117579 0 255 0 89 6
0.299272 0.880629 0.165996 0 255 0 89 6
0.250040 0.913585 0.207996 0 255 0 89 6
0.156362 0.872156 0.165996 0 255 0 89 6
0.331324 0.949469 0.117533 0 255 0 89 6
0.309768 0.876915 0.183996 0 255 0 89 6
0.314814 0.881414 0.174972 0 255 0 89 6
0.218804 0.824123 0.177038 0 255 0 89 6
0.233082 0.819045 0.143996 0 255 0 89 6
0.146298 0.829311 0.115158 0 255 0 89 6
0.122039 0.801754 0.119354 0 255 0 89 6
0.313122 0.806121 0.112401 0 255 0 89 6
0.186907 0.832949 0.171996 0 255 0 89 6
0.188505 0.816252 0.118945 0 255 0 89 6
0.092429 0.883700 0.115074 0 255 0 89 6
0.121065 0.883748 0.165005 0 255 0 89 6
0.106709 0.864307 0.115217 0 255 0 89 6
0.177538 0.899327 0.203996 0 255 0 89 6
0.315107 0.873174 0.115058 0 255 0 89 6
0.233052 0.835409 -0.136004 0 255 0 89 6
0.227149 0.930718 -0.129825 0 255 0 89 6
0.152150 0.876081 0.151996 0 255 0 89 6
0.257372 0.899757 0.203034 0 255 0 89 6
0.159803 0.940944 0.116954 0 255 0 89 6
0.167266 0.865748 0.187996 0 255 0 89 6
0.307206 0.836004 0.118975 0 255 0 89 6
0.231668 0.807687 0.153996 0 255 0 89 6
0.269422 0.792917 0.115102 0 255 0 89 6
0.280134 0.915367 0.143996 0 255 0 89 6
0.221422 0.846058 -0.137003 0 255 0 89 6
0.260744 0.833611 0.137996 0 255 0 89 6
0.232746 0.876367 0.015996 0 255 0 89 6
0.198410 0.824369 0.128440 0 255 0 89 6
0.284779 0.797832 0.106419 0 255 0 89 6
0.269696 0.880781 -0.131164 0 255 0 89 6
0.150188 0.805994 0.103996 0 255 0 89 6
0.326806 0.851262 0.115996 0 255 0 89 6
0.201594 0.925927 -0.131636 0 255 0 89 6
0.295506 0.790582 0.109996 0 255 0 89 6
0.284174 0.910419 0.115239 0 255 0 89 6
0.225873 0.857380 -0.131083 0 255 0 89 6
0.225194 0.883043 -0.086004 0 255 0 89 6
0.303369 0.875669 0.115116 0 255 0 89 6
0.321835 0.799015 0.117996 0 255 0 89 6
0.253882 0.854480 0.115996 0 255 0 89 6
0.184817 0.779660 0.105996 0 255 0 89 6
0.311345 0.853527 0.095996 0 255 0 89 6
0.274345 0.941133 0.115132 0 255 0 89 6
0.233849 0.885283 -0.066004 0 255 0 89 6
0.174382 0.865240 0.115996 0 255 0 89 6
0.239619 0.941288 0.201996 0 255 0 89 6
0.273510 0.792910 0.105996 0 255 0 89 6
0.178554 0.836769 0.115017 0 255 0 89 6
0.216139 0.830824 0.124965 0 255 0 89 6
0.222235 0.859505 0.211996 0 255 0 89 6
0.156712 0.863903 0.155996 0 255 0 89 6
0.146667 0.859904 0.115249 0 255 0 89 6
0.130234 0.878787 0.149996 0 255 0 89 6
0.237104 0.924512 -0.136004 0 255 0 89 6
0.268889 0.823701 0.147996 0 255 0 89 6
0.271671 0.784261 0.115225 0 255 0 89 6
0.233380 0.876232 0.225996 0 255 0 89 6
0.157526 0.882132 0.175012 0 255 0 89 6
0.260576 0.905210 -0.130645 0 255 0 89 6
0.101284 0.934980 0.118808 0 255 0 89 6
0.173289 0.840858 0.165996 0 255 0 89 6
0.320956 0.968029 0.119196 0 255 0 89 6
0.245124 0.957568 0.117440 0 255 0 89 6
0.247180 0.851806 -0.136004 0 255 0 89 6
0.178197 0.921667 0.203996 0 255 0 89 6
0.160408 0.828358 0.115132 0 255 0 89 6
0.285721 0.869598 0.079996 0 255 0 89 6
0.252184 0.827252 0.115191 0 255 0 89 6
0.165956 0.767883 0.118705 0 255 0 89 6
0.159794 0.777372 0.115004 0 255 0 89 6
0.234067 0.886310 0.227936 0 255 0 89 6
0.220353 0.985324 0.119076 0 255 0 89 6
0.216699 0.862316 0.207996 0 255 0 89 6
0.235668 0.810316 0.141996 0 255 0 89 6
0.125601 0.885849 0.191996 0 255 0 89 6
0.264293 0.830812 0.149996 0 255 0 89 6
0.274309 0.921721 0.185996 0 255 0 89 6
0.151411 0.862985 0.146729 0 255 0 89 6
0.202568 0.843933 -0.136914 0 255 0 89 6
0.232725 0.937712 0.208891 0 255 0 89 6
0.214107 0.792408 0.098571 0 255 0 89 6
0.157970 0.951557 0.115046 0 255 0 89 6
0.126886 0.911137 0.119303 0 255 0 89 6
0.095047 0.905636 0.115079 0 255 0 89 6
0.217244 0.922601 0.205034 0 255 0 89 6
0.273463 0.845221 0.165996 0 255 0 89 6
0.145665 0.874430 0.118689 0 255 0 89 6
0.253176 0.860779 -0.136004 0 255 0 89 6
0.119524 0.886119 0.115164 0 255 0 89 6
0.261115 0.917365 0.115032 0 255 0 89 6
0.191511 0.772675 0.110717 0 255 0 89 6
0.222508 0.822309 0.199996 0 255 0 89 6
0.234114 0.857674 -0.130752 0 255 0 89 6
0.275537 0.812065 0.098928 0 255 0 89 6
0.160333 0.789525 0.119304 0 255 0 89 6
0.238292 0.781133 0.103209 0 255 0 89 6
0.114998 0.835966 0.119099 0 255 0 89 6
0.187565 0.883925 -0.136004 0 255 0 89 6
0.113920 0.811658 0.115073 0 255 0 89 6
0.235750 0.846132 -0.136004 0 255 0 89 6
0.307016 0.950547 0.119597 0 255 0 89 6
0.223889 0.790329 0.115272 0 255 0 89 6
0.110546 0.824644 0.119065 0 255 0 89 6
0.285599 0.869222 0.185996 0 255 0 89 6
0.227243 0.873447 0.209021 0 255 0 89 6
0.248517 0.848479 0.208792 0 255 0 89 6
0.296989 0.932230 0.119338 0 255 0 89 6
0.258421 0.856596 -0.131210 0 255 0 89 6
0.304030 0.898020 0.118711 0 255 0 89 6
0.198627 0.777296 0.119149 0 255 0 89 6
0.160142 0.855963 0.153996 0 255 0 89 6
0.215600 0.818671 0.129158 0 255 0 89 6
0.209589 0.905826 -0.130607 0 255 0 89 6
0.343033 0.879506 0.118779 0 255 0 89 6
0.181512 0.821827 0.118848 0 255 0 89 6
0.307771 0.896379 0.161996 0 255 0 89 6
0.229909 0.866746 0.213146 0 255 0 89 6
0.246050 0.904210 -0.131208 0 255 0 89 6
0.271387 0.956075 0.118332 0 255 0 89 6
0.222055 0.800942 0.115032 0 255 0 89 6
0.219874 0.881147 0.019996 0 255 0 89 6
0.309503 0.798712 0.119144 0 255 0 89 6
0.341275 0.928952 0.119183 0 255 0 89 6
0.219910 0.915900 -0.136969 0 255 0 89 6
0.276793 0.981507 0.118850 0 255 0 89 6
0.301270 0.961991 0.115139 0 255 0 89 6
0.224550 0.812680 0.115026 0 255 0 89 6
0.270627 0.841734 0.139996 0 255 0 89 6
0.225703 0.875820 0.232133 0 255 0 89 6
0.339366 0.900732 0.119082 0 255 0 89 6
0.251938 0.806858 0.115032 0 255 0 89 6
0.120035 0.830806 0.119207 0 255 0 89 6
0.247515 0.863005 -0.131174 0 255 0 89 6
0.207968 0.821239 0.161996 0 255 0 89 6
0.316694 0.842165 0.115119 0 255 0 89 6
0.194478 0.921306 -0.136988 0 255 0 89 6
0.171560 0.842345 0.138995 0 255 0 89 6
0.155834 0.806839 0.115203 0 255 0 89 6
0.240871 0.995276 0.115064 0 255 0 89 6
0.263260 0.802407 0.115055 0 255 0 89 6
0.247884 0.893596 -0.136974 0 255 0 89 6
0.284264 0.867461 0.143996 0 255 0 89 6
0.284273 0.867459 0.155996 0 255 0 89 6
0.171588 0.909813 0.203062 0 255 0 89 6
0.206282 0.794070 0.115072 0 255 0 89 6
0.224503 0.841315 0.208762 0 255 0 89 6
0.268294 0.840186 0.167996 0 255 0 89 6
0.307376 0.817566 0.115130 0 255 0 89 6
0.183912 0.890837 -0.136992 0 255 0 89 6
0.313214 0.887888 0.187996 0 255 0 89 6
0.244897 0.841069 -0.130799 0 255 0 89 6
0.216461 0.841958 0.115996 0 255 0 89 6
0.174688 0.808964 0.115196 0 255 0 89 6
0.183666 0.870441 -0.136935 0 255 0 89 6
0.262239 0.913037 0.201033 0 255 0 89 6
0.334178 0.828226 0.119108 0 255 0 89 6
0.157117 0.876085 0.183996 0 255 0 89 6
0.283702 0.773526 0.119367 0 255 0 89 6
0.279402 0.839869 0.115042 0 255 0 89 6
0.252354 0.808814 0.089424 0 255 0 89 6
0.338752 0.849746 0.119068 0 255 0 89 6
0.233065 0.900836 -0.136962 0 255 0 89 6
0.203570 0.829407 0.130955 0 255 0 89 6
0.213625 0.915191 0.210455 0 255 0 89 6
0.227118 0.872857 -0.130004 0 255 0 89 6
0.216943 0.767269 0.118463 0 255 0 89 6
0.149606 0.941067 0.119159 0 255 0 89 6
0.156741 0.849584 0.145140 0 255 0 89 6
0.159236 0.861321 0.163048 0 255 0 89 6
0.265233 0.806077 0.095996 0 255 0 89 6
0.174168 0.782495 0.109996 0 255 0 89 6
0.181228 0.993640 0.119247 0 255 0 89 6
0.307036 0.883068 0.179996 0 255 0 89 6
0.265887 0.987915 0.119092 0 255 0 89 6
0.230281 1.012793 0.115996 0 255 0 89 6
0.292217 0.861681 0.086958 0 255 0 89 6
0.126426 0.876474 0.167996 0 255 0 89 6
0.172439 0.788763 0.105996 0 255 0 89 6
0.282709 0.951623 0.118453 0 255 0 89 6
0.183884 0.823368 0.087287 0 255 0 89 6
0.159605 0.891913 0.181030 0 255 0 89 6
0.163517 0.891082 0.119484 0 255 0 89 6
0.185679 1.004962 0.118457 0 255 0 89 6
0.209193 0.807765 0.118890 0 255 0 89 6
0.160701 0.820117 0.098859 0 255 0 89 6
0.317923 0.944139 0.119043 0 255 0 89 6
0.231903 0.885746 0.053996 0 255 0 89 6
0.118963 0.876016 0.163996 0 255 0 89 6
0.256293 0.827344 0.151996 0 255 0 89 6
0.289968 0.870338 0.115129 0 255 0 89 6
0.267078 0.858846 0.115166 0 255 0 89 6
0.217925 0.848846 0.210914 0 255 0 89 6
0.206017 0.869781 -0.130970 0 255 0 89 6
0.328876 0.909096 0.118934 0 255 0 89 6
0.331300 0.879955 0.193996 0 255 0 89 6
0.153586 0.878880 0.165996 0 255 0 89 6
0.299245 0.875506 0.151996 0 255 0 89 6
0.226437 0.883842 0.227996 0 255 0 89 6
0.220026 0.881115 -0.016004 0 255 0 89 6
0.258790 0.887188 0.205124 0 255 0 89 6
0.247024 0.822215 0.083096 0 255 0 89 6
0.210128 0.917979 -0.131087 0 255 0 89 6
0.218927 0.834321 0.199063 0 255 0 89 6
0.196714 0.830863 0.179996 0 255 0 89 6
0.279520 0.845978 0.081996 0 255 0 89 6
0.243329 0.775973 0.118894 0 255 0 89 6
0.210932 0.964836 0.115996 0 255 0 89 6
0.203787 0.782333 0.118848 0 255 0 89 6
0.288182 0.852315 0.085310 0 255 0 89 6
0.279751 0.966565 0.118874 0 255 0 89 6
0.197692 0.878711 -0.136004 0 255 0 89 6
0.205526 0.828990 0.180999 0 255 0 89 6
0.263950 0.892226 -0.136991 0 255 0 89 6
0.310287 0.831260 0.101141 0 255 0 89 6
0.138081 0.978276 0.115996 0 255 0 89 6
0.258849 0.942383 0.163996 0 255 0 89 6
0.189114 0.915308 -0.136004 0 255 0 89 6
0.248810 0.840238 0.207792 0 255 0 89 6
0.182759 0.827697 0.133318 0 255 0 89 6
0.278665 0.894120 0.181996 0 255 0 89 6
0.277162 0.875104 0.121996 0 255 0 89 6
0.151458 0.834350 0.115061 0 255 0 89 6
0.139027 0.872057 0.149996 0 255 0 89 6
0.242704 0.984663 0.119267 0 255 0 89 6
0.234095 0.953778 0.118504 0 255 0 89 6
0.221123 0.873509 -0.072004 0 255 0 89 6
0.280152 0.886738 -0.134004 0 255 0 89 6
0.131868 0.886475 0.161996 0 255 0 89 6
0.297065 0.971064 0.118893 0 255 0 89 6
0.175082 0.858912 0.123996 0 255 0 89 6
0.256344 0.837204 0.121996 0 255 0 89 6
0.184498 0.874354 0.205017 0 255 0 89 6
0.226412 0.869534 -0.136960 0 255 0 89 6
0.212651 0.997185 0.119540 0 255 0 89 6
0.225068 0.920932 0.207996 0 255 0 89 6
0.221917 0.807105 0.151996 0 255 0 89 6
0.213691 0.790451 0.119315 0 255 0 89 6
0.238830 0.793287 0.115272 0 255 0 89 6
0.174838 0.900944 -0.134004 0 255 0 89 6
0.236146 0.896091 0.209490 0 255 0 89 6
0.212841 0.882643 0.211078 0 255 0 89 6
0.258544 0.866794 -0.137001 0 255 0 89 6
0.341909 0.883833 0.202390 0 255 0 89 6
0.230154 0.887142 -0.081061 0 255 0 89 6
0.252785 0.823035 0.131996 0 255 0 89 6
0.263629 0.832999 0.188791 0 255 0 89 6
0.285567 0.820775 0.093996 0 255 0 89 6
0.178506 0.865405 -0.134670 0 255 0 89 6
0.313689 0.885743 0.155187 0 255 0 89 6
0.316477 0.889240 0.196939 0 255 0 89 6
0.153395 0.930037 0.119144 0 255 0 89 6
0.264290 0.855350 -0.134783 0 255 0 89 6
0.161467 0.900675 0.199996 0 255 0 89 6
0.148401 0.879982 0.157996 0 255 0 89 6
0.246024 0.947154 0.163996 0 255 0 89 6
0.233376 0.883058 -0.112004 0 255 0 89 6
0.209740 0.983490 0.115188 0 255 0 89 6
0.112947 0.893652 0.115168 0 255 0 89 6
0.225158 0.911735 0.209996 0 255 0 89 6
0.292878 0.884033 0.119132 0 255 0 89 6
0.102135 0.842789 0.119366 0 255 0 89 6
0.321977 0.857400 0.101107 0 255 0 89 6
0.266690 0.924358 0.191918 0 255 0 89 6
0.175313 0.850383 0.203996 0 255 0 89 6
0.213530 0.972462 0.115040 0 255 0 89 6
0.236590 0.965516 0.118504 0 255 0 89 6
0.239395 0.824800 0.173996 0 255 0 89 6
0.242034 0.798740 0.118542 0 255 0 89 6
0.251061 0.927784 0.203996 0 255 0 89 6
0.213169 0.813054 0.135996 0 255 0 89 6
0.169141 0.869440 0.119147 0 255 0 89 6
0.250624 0.925729 0.120803 0 255 0 89 6
0.219692 0.962974 0.115064 0 255 0 89 6
0.301951 0.888237 0.171608 0 255 0 89 6
0.295538 0.873244 0.085996 0 255 0 89 6
0.259574 0.919736 -0.130644 0 255 0 89 6
0.197924 0.831707 0.121996 0 255 0 89 6
0.184422 0.835522 0.132958 0 255 0 89 6
0.279477 0.878702 0.128750 0 255 0 89 6
0.272183 0.812778 0.091996 0 255 0 89 6
0.277502 0.975222 0.115272 0 255 0 89 6
0.277287 0.764666 0.117996 0 255 0 89 6
0.170804 0.877264 0.205556 0 255 0 89 6
0.161580 0.795394 0.115159 0 255 0 89 6
0.095693 0.874829 0.115996 0 255 0 89 6
0.302367 0.890193 0.119031 0 255 0 89 6
0.219504 0.877137 -0.056004 0 255 0 89 6
0.239964 0.952530 0.115088 0 255 0 89 6
0.252382 0.876283 0.210320 0 255 0 89 6
0.231661 0.826897 0.205996 0 255 0 89 6
0.239718 0.932136 0.208427 0 255 0 89 6
0.229781 0.904624 0.207996 0 255 0 89 6
0.213333 0.819153 0.189996 0 255 0 89 6
0.236458 0.791746 0.097664 0 255 0 89 6
0.111189 0.943099 0.117384 0 255 0 89 6
0.272975 0.925066 0.118500 0 255 0 89 6
0.228399 0.873201 -0.046004 0 255 0 89 6
0.135733 0.798843 0.113012 0 255 0 89 6
0.135175 0.882793 0.115144 0 255 0 89 6
0.251551 0.872370 -0.131255 0 255 0 89 6
0.192713 1.005513 0.115996 0 255 0 89 6
0.138256 0.878049 0.191532 0 255 0 89 6
0.195281 0.857749 0.205046 0 255 0 89 6
0.113022 0.932486 0.117468 0 255 0 89 6
0.269513 0.903312 0.207996 0 255 0 89 6
0.164226 0.884798 0.115002 0 255 0 89 6
0.275981 0.881490 -0.137000 0 255 0 89 6
0.351397 0.889996 0.119160 0 255 0 89 6
0.232842 0.878392 -0.118004 0 255 0 89 6
0.267421 0.828103 0.171996 0 255 0 89 6
0.217774 0.771181 0.108852 0 255 0 89 6
0.190953 0.830044 0.081996 0 255 0 89 6
0.252731 1.002979 0.115208 0 255 0 89 6
0.281903 0.803536 0.103996 0 255 0 89 6
0.250417 0.934375 0.191996 0 255 0 89 6
0.214334 0.908906 -0.136897 0 255 0 89 6
0.126074 0.811120 0.113672 0 255 0 89 6
0.233963 0.780009 0.118882 0 255 0 89 6
0.142431 0.807643 0.115996 0 255 0 89 6
0.212472 0.852051 0.205000 0 255 0 89 6
0.161580 0.795394 0.107014 0 255 0 89 6
0.299613 0.882601 0.143996 0 255 0 89 6
0.153273 0.919841 0.118909 0 255 0 89 6
0.188288 0.863326 0.205051 0 255 0 89 6
0.223755 0.828176 0.127996 0 255 0 89 6
0.183326 0.907319 -0.131473 0 255 0 89 6
0.298449 0.837866 0.095996 0 255 0 89 6
0.162458 0.852458 0.147996 0 255 0 89 6
0.135147 0.815325 0.115155 0 255 0 89 6
0.223233 0.883439 -0.074004 0 255 0 89 6
0.275155 0.829510 0.089996 0 255 0 89 6
0.320845 0.880933 0.205996 0 255 0 89 6
0.266458 0.855929 0.123996 0 255 0 89 6
0.200790 0.989482 0.118340 0 255 0 89 6
0.227952 0.886402 -0.010004 0 255 0 89 6
0.281065 0.847694 0.115010 0 255 0 89 6
0.250454 0.944167 0.118888 0 255 0 89 6
0.206235 0.822707 0.127491 0 255 0 89 6
0.212511 0.871473 0.223996 0 255 0 89 6
0.256394 0.832491 0.171996 0 255 0 89 6
0.322429 0.887975 0.177996 0 255 0 89 6
0.139555 0.836068 0.115996 0 255 0 89 6
0.233330 0.825126 0.177035 0 255 0 89 6
0.258379 0.837161 0.177996 0 255 0 89 6
0.307990 0.868552 0.093058 0 255 0 89 6
0.190584 0.826033 0.128845 0 255 0 89 6
0.213323 0.759860 0.114387 0 255 0 89 6
0.291464 0.848520 0.089996 0 255 0 89 6
0.230321 0.820589 0.137996 0 255 0 89 6
0.233659 0.836292 0.199996 0 255 0 89 6
0.183099 0.790820 0.102913 0 255 0 89 6
0.185754 0.832168 0.163996 0 255 0 89 6
0.278473 0.845119 0.133996 0 255 0 89 6
0.327488 0.868496 0.103996 0 255 0 89 6
0.220373 0.889221 -0.096925 0 255 0 89 6
0.195482 0.824992 0.115996 0 255 0 89 6
0.273854 0.900343 -0.130525 0 255 0 89 6
0.270357 0.903131 0.193024 0 255 0 89 6
0.283390 0.877871 0.165004 0 255 0 89 6
0.238272 0.877236 0.213163 0 255 0 89 6
0.227533 0.884430 -0.028004 0 255 0 89 6
0.135033 0.968700 0.115017 0 255 0 89 6
0.159871 0.873929 0.197996 0 255 0 89 6
0.239436 0.892330 -0.136004 0 255 0 89 6
0.251257 0.866299 0.205996 0 255 0 89 6
0.275659 0.865201 0.181996 0 255 0 89 6
0.214381 0.832172 0.191996 0 255 0 89 6
0.267506 0.903738 0.121996 0 255 0 89 6
0.241259 0.929764 -0.136923 0 255 0 89 6
0.176085 0.844395 0.177996 0 255 0 89 6
0.308615 0.842636 0.097996 0 255 0 89 6
0.286465 0.856770 0.171996 0 255 0 89 6
0.225826 0.886016 -0.136962 0 255 0 89 6
0.257883 0.844442 0.124729 0 255 0 89 6
0.259487 0.842372 -0.134004 0 255 0 89 6
0.253403 0.765653 0.119375 0 255 0 89 6
0.336285 0.905476 0.115088 0 255 0 89 6
0.109695 0.916835 0.115146 0 255 0 89 6
0.269843 0.910331 -0.136004 0 255 0 89 6
0.265925 0.934745 0.157996 0 255 0 89 6
0.266920 0.891594 0.117996 0 255 0 89 6
0.122340 0.957086 0.118686 0 255 0 89 6
0.171049 0.897660 0.203301 0 255 0 89 6
0.255974 0.816224 0.115137 0 255 0 89 6
0.205356 0.847430 0.205117 0 255 0 89 6
0.285625 0.888386 0.183996 0 255 0 89 6
0.200237 0.890684 0.211996 0 255 0 89 6
0.315617 0.817859 0.115053 0 255 0 89 6
0.259942 0.950329 0.118780 0 255 0 89 6
0.275899 0.929204 0.163996 0 255 0 89 6
0.165568 0.833395 0.147615 0 255 0 89 6
0.182301 0.844778 0.201996 0 255 0 89 6
0.236685 0.908245 -0.136871 0 255 0 89 6
0.338998 0.870140 0.115119 0 255 0 89 6
0.135004 0.901232 0.115104 0 255 0 89 6
0.250936 0.821383 0.181803 0 255 0 89 6
0.188875 0.827610 0.189996 0 255 0 89 6
0.213569 0.780254 0.115194 0 255 0 89 6
0.199634 0.820509 0.185996 0 255 0 89 6
0.152318 0.905731 0.115050 0 255 0 89 6
0.288248 0.893196 0.177996 0 255 0 89 6
0.122435 0.899815 0.115133 0 255 0 89 6
0.226752 0.832658 0.207698 0 255 0 89 6
0.246712 0.926560 -0.134706 0 255 0 89 6
0.200469 0.930255 0.203335 0 255 0 89 6
0.276519 0.893643 -0.136941 0 255 0 89 6
0.204477 0.872153 0.209194 0 255 0 89 6
0.150675 0.871321 0.139996 0 255 0 89 6
0.171000 0.849330 0.191996 0 255 0 89 6
0.172946 0.868630 0.201996 0 255 0 89 6
0.221810 0.780547 0.115138 0 255 0 89 6
0.230844 0.976961 0.115088 0 255 0 89 6
0.204571 0.814882 0.136303 0 255 0 89 6
0.278183 0.901469 0.193570 0 255 0 89 6
0.277616 0.821846 0.091604 0 255 0 89 6
0.123471 0.923928 0.117996 0 255 0 89 6
0.252411 0.934134 0.199996 0 255 0 89 6
0.205526 0.939404 0.205996 0 255 0 89 6
0.348318 0.900874 0.117996 0 255 0 89 6
0.159219 0.842924 0.153996 0 255 0 89 6
0.252184 0.827252 0.192634 0 255 0 89 6
0.275531 0.883630 0.189996 0 255 0 89 6
0.273873 0.804240 0.118790 0 255 0 89 6
0.320389 0.888408 0.115144 0 255 0 89 6
0.097542 0.917374 0.117461 0 255 0 89 6
0.289447 0.909297 0.141996 0 255 0 89 6
0.139957 0.934150 0.115996 0 255 0 89 6
0.242582 0.974465 0.118726 0 255 0 89 6
0.311844 0.867443 0.175996 0 255 0 89 6
0.201680 0.820517 0.149996 0 255 0 89 6
0.256485 0.802913 0.094298 0 255 0 89 6
0.286697 0.989625 0.115239 0 255 0 89 6
0.198021 0.841779 0.119996 0 255 0 89 6
0.154046 0.891051 0.165996 0 255 0 89 6
0.272361 0.874081 -0.130956 0 255 0 89 6
0.283513 0.910559 0.159996 0 255 0 89 6
0.318927 0.876451 0.099996 0 255 0 89 6
0.249547 0.901422 -0.136984 0 255 0 89 6
0.175384 0.855844 0.193996 0 255 0 89 6
0.257336 0.942704 0.153996 0 255 0 89 6
0.223023 0.872829 0.009996 0 255 0 89 6
0.242899 0.822049 0.151996 0 255 0 89 6
0.281326 0.882399 0.173996 0 255 0 89 6
0.247250 0.854882 0.209996 0 255 0 89 6
0.163688 0.872643 0.187002 0 255 0 89 6
0.229746 0.837122 0.117996 0 255 0 89 6
0.242897 0.822040 0.139996 0 255 0 89 6
0.227627 0.822248 0.169996 0 255 0 89 6
0.161684 0.901695 0.115100 0 255 0 89 6
0.279648 0.860264 0.166998 0 255 0 89 6
0.146770 0.966206 0.120045 0 255 0 89 6
0.228393 0.888474 0.015996 0 255 0 89 6
0.205894 0.859582 0.207034 0 255 0 89 6
0.210591 0.891300 0.227133 0 255 0 89 6
0.275414 0.801867 0.099254 0 255 0 89 6
0.281601 0.907932 0.137996 0 255 0 89 6
0.267767 0.895504 0.201996 0 255 0 89 6
0.270857 0.862133 0.187996 0 255 0 89 6
0.223869 0.886433 -0.114980 0 255 0 89 6
0.115857 0.907347 0.119446 0 255 0 89 6
0.183156 0.925756 0.201481 0 255 0 89 6
0.142726 0.793267 0.115013 0 255 0 89 6
0.272998 0.871901 0.193996 0 255 0 89 6
0.194865 0.855793 -0.136975 0 255 0 89 6
0.238433 0.839515 -0.138004 0 255 0 89 6
0.286887 0.875082 0.183208 0 255 0 89 6
0.282558 0.873958 0.134978 0 255 0 89 6
0.310837 0.886350 0.161996 0 255 0 89 6
0.310347 0.880319 0.149996 0 255 0 89 6
0.207577 0.771304 0.115011 0 255 0 89 6
0.257041 0.820086 0.169996 0 255 0 89 6
0.251380 0.890809 -0.131001 0 255 0 89 6
0.200051 0.812853 0.143996 0 255 0 89 6
0.302843 0.843066 0.093996 0 255 0 89 6
0.180561 0.832253 0.185996 0 255 0 89 6
0.291215 0.876206 0.136339 0 255 0 89 6
0.145748 0.874821 0.197996 0 255 0 89 6
0.131678 0.885581 0.120001 0 255 0 89 6
0.212207 0.927761 -0.136927 0 255 0 89 6
0.280464 0.854484 0.185996 0 255 0 89 6
0.227015 0.872371 0.015996 0 255 0 89 6
0.237265 0.814780 0.175996 0 255 0 89 6
0.232394 0.884621 -0.094004 0 255 0 89 6
0.200013 0.812676 0.165996 0 255 0 89 6
0.335545 0.892371 0.109996 0 255 0 89 6
0.224871 0.871907 -0.059445 0 255 0 89 6
0.308306 0.879657 0.171996 0 255 0 89 6
0.272159 0.859811 0.205996 0 255 0 89 6
0.260808 0.925543 0.195996 0 255 0 89 6
0.308532 0.821409 0.103996 0 255 0 89 6
0.305821 0.867965 0.151996 0 255 0 89 6
0.335258 0.895471 0.205996 0 255 0 89 6
0.178746 0.828055 0.173996 0 255 0 89 6
0.281216 0.925360 0.150377 0 255 0 89 6
0.234463 0.984370 0.115208 0 255 0 89 6
0.177608 0.834925 0.083996 0 255 0 89 6
0.220855 0.891490 0.231996 0 255 0 89 6
0.229408 0.872988 -0.116004 0 255 0 89 6
0.325059 0.881520 0.101996 0 255 0 89 6
0.218709 0.881396 0.010988 0 255 0 89 6
0.275669 0.922450 0.175996 0 255 0 89 6
0.186427 0.816092 0.151996 0 255 0 89 6
0.277937 0.881073 0.202234 0 255 0 89 6
0.192176 0.876812 0.207996 0 255 0 89 6
0.286359 0.846569 0.155996 0 255 0 89 6
0.277306 0.906962 0.185996 0 255 0 89 6
0.347116 0.860236 0.115002 0 255 0 89 6
0.163244 0.803219 0.115133 0 255 0 89 6
0.271482 0.898804 0.115025 0 255 0 89 6
0.250754 0.813244 0.157996 0 255 0 89 6
0.216951 0.930841 0.207790 0 255 0 89 6
0.351152 0.869602 0.116597 0 255 0 89 6
0.335180 0.813701 0.118335 0 255 0 89 6
0.225627 0.836987 -0.130813 0 255 0 89 6
0.207728 0.848969 -0.137002 0 255 0 89 6
0.316728 0.794225 0.117996 0 255 0 89 6
0.231523 0.882761 -0.124004 0 255 0 89 6
0.234235 0.786085 0.101996 0 255 0 89 6
0.209561 0.838356 -0.134664 0 255 0 89 6
0.189998 0.842515 0.117627 0 255 0 89 6
0.168666 0.847970 0.135996 0 255 0 89 6
0.255879 0.873495 -0.136940 0 255 0 89 6
0.177380 0.879344 -0.132004 0 255 0 89 6
0.206856 0.825629 0.171996 0 255 0 89 6
0.250038 0.942211 0.176500 0 255 0 89 6
0.221015 1.007676 0.115040 0 255 0 89 6
0.168384 0.904360 0.204997 0 255 0 89 6
0.177211 0.840071 0.171996 0 255 0 89 6
0.193249 0.819333 0.135906 0 255 0 89 6
0.217264 0.826496 0.119004 0 255 0 89 6
0.284105 0.914523 0.171996 0 255 0 89 6
0.244311 0.857552 -0.136989 0 255 0 89 6
0.220442 0.874893 -0.080004 0 255 0 89 6
0.220760 0.823708 0.082741 0 255 0 89 6
0.188072 0.818388 0.169996 0 255 0 89 6
0.268803 0.915730 0.197996 0 255 0 89 6
0.238150 0.867040 0.207065 0 255 0 89 6
0.229565 0.872953 -0.070004 0 255 0 89 6
0.240418 0.762279 0.113399 0 255 0 89 6
0.271308 0.869128 -0.136004 0 255 0 89 6
0.289552 0.868382 0.170866 0 255 0 89 6
0.235743 0.816434 0.081996 0 255 0 89 6
0.218027 0.881541 0.041996 0 255 0 89 6
0.232850 0.882479 0.011996 0 255 0 89 6
0.129211 0.941313 0.115062 0 255 0 89 6
0.192172 0.795025 0.097585 0 255 0 89 6
0.250430 0.828619 0.171996 0 255 0 89 6
0.118872 0.815715 0.115996 0 255 0 89 6
0.251182 0.841778 -0.136454 0 255 0 89 6
0.228047 0.809892 0.139904 0 255 0 89 6
0.222301 0.835649 0.119996 0 255 0 89 6
0.346898 0.907310 0.115183 0 255 0 89 6
0.324302 0.887577 0.204836 0 255 0 89 6
0.175408 0.884465 0.203996 0 255 0 89 6
0.101993 0.928696 0.120133 0 255 0 89 6
0.224768 0.765606 0.110736 0 255 0 89 6
0.220373 0.889221 -0.048992 0 255 0 89 6
0.172451 0.836916 0.153996 0 255 0 89 6
0.276144 0.834161 0.141996 0 255 0 89 6
0.244896 0.875829 0.211996 0 255 0 89 6
0.146232 0.954051 0.115112 0 255 0 89 6
0.317021 0.891802 0.165996 0 255 0 89 6
0.265774 0.924552 0.177996 0 255 0 89 6
0.287079 0.862773 0.175996 0 255 0 89 6
0.244973 0.879901 -0.136984 0 255 0 89 6
0.282020 0.861804 0.140955 0 255 0 89 6
0.278772 0.917701 0.159996 0 255 0 89 6
0.175671 0.842447 0.133996 0 255 0 89 6
0.256814 0.816045 0.145996 0 255 0 89 6
0.184498 0.874354 -0.131350 0 255 0 89 6
0.267983 0.848431 0.129996 0 255 0 89 6
0.161375 0.867001 0.175996 0 255 0 89 6
0.281583 0.784199 0.109996 0 255 0 89 6
0.195962 0.783997 0.106905 0 255 0 89 6
0.328300 0.841743 0.109996 0 255 0 89 6
0.246391 0.915430 -0.136004 0 255 0 89 6
0.274599 0.863381 0.121996 0 255 0 89 6
0.265953 0.863174 0.208608 0 255 0 89 6
0.287705 0.850373 0.143996 0 255 0 89 6
0.133927 0.876925 0.197897 0 255 0 89 6
0.277644 0.889315 0.124097 0 255 0 89 6
0.248478 0.754431 0.117996 0 255 0 89 6
0.322884 0.900146 0.102198 0 255 0 89 6
0.133634 0.885166 0.195177 0 255 0 89 6
0.238074 0.828207 0.115239 0 255 0 89 6
0.276871 0.914536 0.193996 0 255 0 89 6
0.212330 0.937958 0.200388 0 255 0 89 6
0.213597 0.847723 -0.131066 0 255 0 89 6
0.269398 0.833817 0.133996 0 255 0 89 6
0.269623 0.884886 0.117996 0 255 0 89 6
0.188751 0.836646 0.207227 0 255 0 89 6
0.176843 0.857580 0.117450 0 255 0 89 6
0.261379 0.841656 0.205669 0 255 0 89 6
0.213324 0.804842 0.089996 0 255 0 89 6
0.210488 0.932215 -0.132004 0 255 0 89 6
0.167378 0.870767 0.191996 0 255 0 89 6
0.225410 0.884060 -0.102978 0 255 0 89 6
0.222793 0.881369 0.059996 0 255 0 89 6
0.114420 0.876982 0.171996 0 255 0 89 6
0.165691 0.843593 0.179205 0 255 0 89 6
0.136604 0.949965 0.119996 0 255 0 89 6
0.168823 0.848707 0.197996 0 255 0 89 6
0.220052 0.877021 -0.102004 0 255 0 89 6
0.183345 0.811215 0.117435 0 255 0 89 6
0.299976 0.984757 0.119300 0 255 0 89 6
0.264243 0.883985 0.202998 0 255 0 89 6
0.141782 0.817685 0.103996 0 255 0 89 6
0.226289 0.859338 0.207036 0 255 0 89 6
0.251059 0.831581 0.130935 0 255 0 89 6
0.197193 0.828268 0.201996 0 255 0 89 6
0.114071 0.889324 0.187082 0 255 0 89 6
0.223658 0.874209 0.217996 0 255 0 89 6
0.202643 0.882766 -0.130269 0 255 0 89 6
0.191239 0.815670 0.163996 0 255 0 89 6
0.193720 0.908121 -0.136004 0 255 0 89 6
0.200366 0.823954 0.084515 0 255 0 89 6
0.230858 0.874723 -0.098004 0 255 0 89 6
0.219223 0.874189 -0.092004 0 255 0 89 6
0.253167 0.908831 0.205070 0 255 0 89 6
0.272976 0.851459 0.195996 0 255 0 89 6
0.201954 0.792946 0.098748 0 255 0 89 6
0.243380 0.820945 0.187996 0 255 0 89 6
0.222111 0.887779 0.219996 0 255 0 89 6
0.266710 0.828255 0.083424 0 255 0 89 6
0.245381 0.929919 0.201996 0 255 0 89 6
0.155087 0.794730 0.107996 0 255 0 89 6
0.217735 0.881603 0.025996 0 255 0 89 6
0.229814 0.924017 0.205042 0 255 0 89 6
0.272783 0.933784 0.153996 0 255 0 89 6
0.161685 0.853603 0.137996 0 255 0 89 6
0.229595 0.889305 0.209996 0 255 0 89 6
0.288748 0.931938 0.119785 0 255 0 89 6
0.167228 0.850821 0.129996 0 255 0 89 6
0.227613 0.873369 0.061996 0 255 0 89 6
0.190972 0.760521 0.118686 0 255 0 89 6
0.199099 0.914188 -0.130487 0 255 0 89 6
0.247761 0.883399 -0.131557 0 255 0 89 6
0.303927 0.791718 0.113080 0 255 0 89 6
0.207605 0.838773 0.203038 0 255 0 89 6
0.234284 0.839236 -0.130317 0 255 0 89 6
0.216139 0.830824 0.207246 0 255 0 89 6
0.140206 0.781413 0.117996 0 255 0 89 6
0.321583 0.874785 0.197996 0 255 0 89 6
0.209495 0.818806 0.155996 0 255 0 89 6
0.255693 0.934875 0.177996 0 255 0 89 6
0.157478 0.910768 0.115176 0 255 0 89 6
0.238783 0.821922 0.165035 0 255 0 89 6
0.269406 0.837904 0.185996 0 255 0 89 6
0.276812 0.885403 0.119095 0 255 0 89 6
0.325842 0.885205 0.182875 0 255 0 89 6
0.269776 0.860318 -0.130004 0 255 0 89 6
0.209352 0.827752 0.121996 0 255 0 89 6
0.270410 0.922617 0.171996 0 255 0 89 6
0.174197 0.768176 0.119295 0 255 0 89 6
0.310362 0.870092 0.119416 0 255 0 89 6
0.227593 1.000144 0.115064 0 255 0 89 6
0.138624 0.908642 0.119566 0 255 0 89 6
0.239369 0.805440 0.119426 0 255 0 89 6
0.268825 0.934401 0.167996 0 255 0 89 6
0.258393 0.789129 0.119276 0 255 0 89 6
0.209882 0.897584 -0.130922 0 255 0 89 6
0.201443 0.848260 -0.130619 0 255 0 89 6
0.183685 0.774338 0.119233 0 255 0 89 6
0.264025 0.931058 0.118478 0 255 0 89 6
0.227119 0.872861 0.027996 0 255 0 89 6
0.138167 0.876024 0.155996 0 255 0 89 6
0.230296 0.801234 0.118253 0 255 0 89 6
0.259130 0.850312 0.207292 0 255 0 89 6
0.164850 0.853994 0.187996 0 255 0 89 6
0.231209 0.795909 0.097996 0 255 0 89 6
0.242596 0.936055 0.203996 0 255 0 89 6
0.217261 0.874580 0.209996 0 255 0 89 6
0.101597 0.830635 0.119221 0 255 0 89 6
0.252193 0.990825 0.118997 0 255 0 89 6
0.220618 0.909615 -0.130798 0 255 0 89 6
0.292680 0.835001 0.118810 0 255 0 89 6
0.335577 0.911761 0.119227 0 255 0 89 6
0.262778 0.925189 0.203006 0 255 0 89 6
0.285129 0.924529 0.118841 0 255 0 89 6
0.279090 0.944215 0.119240 0 255 0 89 6
0.183006 0.825599 0.177996 0 255 0 89 6
0.214645 0.814179 0.177996 0 255 0 89 6
0.140628 0.879590 0.119453 0 255 0 89 6
0.333469 0.834511 0.118658 0 255 0 89 6
0.245464 0.920691 -0.130668 0 255 0 89 6
0.151411 0.862985 0.118492 0 255 0 89 6
0.292605 0.796169 0.119020 0 255 0 89 6
0.327676 0.874590 0.119089 0 255 0 89 6
0.301639 0.829055 0.097996 0 255 0 89 6
0.306907 0.887185 0.155996 0 255 0 89 6
0.273977 0.910542 0.127231 0 255 0 89 6
0.273731 0.890147 0.208183 0 255 0 89 6
0.259867 0.911496 -0.130957 0 255 0 89 6
0.312413 0.812406 0.110936 0 255 0 89 6
0.315059 0.901809 0.118533 0 255 0 89 6
0.306299 0.793259 0.118778 0 255 0 89 6
0.154738 0.878635 0.191256 0 255 0 89 6
0.226582 0.851097 -0.131402 0 255 0 89 6
0.267664 0.842364 0.119132 0 255 0 89 6
0.130988 0.795762 0.118989 0 255 0 89 6
0.237223 0.920399 -0.131193 0 255 0 89 6
0.305646 0.934480 0.118983 0 255 0 89 6
0.246192 0.818303 0.119095 0 255 0 89 6
0.198873 0.797691 0.115031 0 255 0 89 6
0.270717 0.770152 0.114683 0 255 0 89 6
0.127199 0.806791 0.118716 0 255 0 89 6
0.234823 0.851389 -0.131004 0 255 0 89 6
0.289948 0.966443 0.119523 0 255 0 89 6
0.282304 0.867877 0.161996 0 255 0 89 6
0.196241 0.823788 0.149996 0 255 0 89 6
0.281249 0.900816 0.181996 0 255 0 89 6
0.171948 0.776833 0.119028 0 255 0 89 6
0.299970 0.896838 0.087996 0 255 0 89 6
0.233510 0.878250 0.033996 0 255 0 89 6
0.265348 0.975760 0.115010 0 255 0 89 6
0.192635 0.768346 0.118995 0 255 0 89 6
0.317384 0.931984 0.115242 0 255 0 89 6
0.244331 0.761447 0.119081 0 255 0 89 6
0.296470 0.823973 0.118859 0 255 0 89 6
0.309634 0.972482 0.118861 0 255 0 89 6
0.278012 0.919907 0.119049 0 255 0 89 6
0.241108 0.852098 0.205037 0 255 0 89 6
0.264555 0.779639 0.115253 0 255 0 89 6
0.257372 0.899757 -0.131141 0 255 0 89 6
0.148472 0.781823 0.118789 0 255 0 89 6
0.184545 0.845718 0.115153 0 255 0 89 6
0.265490 0.889853 -0.131311 0 255 0 89 6
0.341200 0.890119 0.119165 0 255 0 89 6
0.232546 0.792578 0.115096 0 255 0 89 6
0.249360 0.813968 0.141996 0 255 0 89 6
0.114364 0.881083 0.115148 0 255 0 89 6
0.212765 0.843810 0.205187 0 255 0 89 6
0.187428 0.791945 0.115018 0 255 0 89 6
0.225008 0.872551 0.003996 0 255 0 89 6
0.218785 0.920228 -0.131170 0 255 0 89 6
0.296347 0.813776 0.118268 0 255 0 89 6
0.290487 0.978596 0.115140 0 255 0 89 6
0.215430 0.837110 -0.136668 0 255 0 89 6
0.162525 0.857553 0.167996 0 255 0 89 6
0.276595 0.932477 0.115090 0 255 0 89 6
0.220399 0.883080 -0.124004 0 255 0 89 6
0.253337 0.890393 0.205034 0 255 0 89 6
0.134683 0.842005 0.115015 0 255 0 89 6
0.282857 0.839135 0.151996 0 255 0 89 6
0.158943 0.869563 0.115000 0 255 0 89 6
0.308945 0.882662 0.115056 0 255 0 89 6
0.258449 0.924066 0.115239 0 255 0 89 6
0.197606 0.887926 -0.130685 0 255 0 89 6
0.099130 0.886365 0.115131 0 255 0 89 6
0.320975 0.871926 0.118785 0 255 0 89 6
0.323225 0.863270 0.115171 0 255 0 89 6
0.253195 0.976300 0.118511 0 255 0 89 6
0.247515 0.863005 0.211059 0 255 0 89 6
0.263024 0.945585 0.115239 0 255 0 89 6
0.263821 0.857493 0.201996 0 255 0 89 6
0.263146 0.955781 0.118674 0 255 0 89 6
0.305769 0.944678 0.115238 0 255 0 89 6
0.108202 0.890572 0.119316 0 255 0 89 6
0.323669 0.932693 0.118975 0 255 0 89 6
0.111331 0.857192 0.115143 0 255 0 89 6
0.198438 0.891839 -0.136942 0 255 0 89 6
0.232223 0.876478 -0.038004 0 255 0 89 6
0.225585 0.817546 0.149996 0 255 0 89 6
0.124146 0.879004 0.115067 0 255 0 89 6
0.290062 0.813066 0.115177 0 255 0 89 6
0.152073 0.885335 0.115177 0 255 0 89 6
0.307669 0.809325 0.115078 0 255 0 89 6
0.277909 0.813606 0.115238 0 255 0 89 6
0.279423 0.854177 0.161996 0 255 0 89 6
0.222962 0.843687 -0.130976 0 255 0 89 6
0.264016 0.767486 0.118605 0 255 0 89 6
0.240813 0.908429 0.207996 0 255 0 89 6
0.130062 0.849121 0.115110 0 255 0 89 6
0.236732 0.879609 -0.136956 0 255 0 89 6
0.208389 0.871321 -0.136985 0 255 0 89 6
0.188826 0.827381 0.155996 0 255 0 89 6
0.276274 0.873249 -0.136937 0 255 0 89 6
0.233528 0.874156 0.209018 0 255 0 89 6
0.228491 0.879315 0.211096 0 255 0 89 6
0.305325 0.875253 0.158983 0 255 0 89 6
0.248394 0.838282 0.115184 0 255 0 89 6
0.209098 0.865036 0.207018 0 255 0 89 6
0.251456 0.929641 0.115140 0 255 0 89 6
0.209397 0.808727 0.147996 0 255 0 89 6
0.252901 0.835279 0.183996 0 255 0 89 6
0.275775 0.875400 0.185996 0 255 0 89 6
0.221687 0.770350 0.115074 0 255 0 89 6
0.245682 0.873618 -0.136880 0 255 0 89 6
0.223208 0.864081 -0.136961 0 255 0 89 6
0.203059 0.884722 0.209030 0 255 0 89 6
0.258374 0.885232 -0.136938 0 255 0 89 6
0.226875 0.842855 -0.136949 0 255 0 89 6
0.289382 0.886819 0.167097 0 255 0 89 6
0.232696 0.870244 -0.136978 0 255 0 89 6
0.211763 0.858335 -0.136985 0 255 0 89 6
0.159236 0.861321 0.136948 0 255 0 89 6
0.153202 0.861793 0.169996 0 255 0 89 6
0.225304 0.933156 0.207996 0 255 0 89 6
0.218558 0.803730 0.119514 0 255 0 89 6
0.145888 0.971673 0.115996 0 255 0 89 6
0.308547 0.784595 0.117996 0 255 0 89 6
0.173973 0.834457 0.143996 0 255 0 89 6
0.153470 0.856413 0.153996 0 255 0 89 6
0.262088 0.835371 0.194767 0 255 0 89 6
0.242431 0.896800 -0.131004 0 255 0 89 6
0.128918 0.949553 0.119475 0 255 0 89 6
0.287253 0.915284 0.155996 0 255 0 89 6
0.285610 0.901935 0.141996 0 255 0 89 6
0.278598 0.903425 0.115004 0 255 0 89 6
0.250993 0.956321 0.119360 0 255 0 89 6
0.227091 0.872729 -0.110004 0 255 0 89 6
0.136866 0.958087 0.115062 0 255 0 89 6
0.258421 0.856596 0.205623 0 255 0 89 6
0.120811 0.940270 0.115996 0 255 0 89 6
0.228614 0.841417 0.203996 0 255 0 89 6
0.148793 0.841050 0.117507 0 255 0 89 6
0.219030 0.940623 0.205047 0 255 0 89 6
0.227735 0.914237 -0.134874 0 255 0 89 6
0.236656 0.840776 0.208637 0 255 0 89 6
0.166400 0.837307 0.119415 0 255 0 89 6
0.289551 0.872472 0.143996 0 255 0 89 6
0.304692 0.920370 0.115139 0 255 0 89 6
0.331945 0.879817 0.107996 0 255 0 89 6
0.239492 0.815638 0.134593 0 255 0 89 6
0.234091 0.880171 -0.010004 0 255 0 89 6
0.164526 0.838111 0.161996 0 255 0 89 6
0.234483 0.888266 -0.131267 0 255 0 89 6
0.179853 0.833263 0.161996 0 255 0 89 6
0.200077 0.803358 0.093996 0 255 0 89 6
0.297129 0.817456 0.099996 0 255 0 89 6
0.301997 0.811499 0.107996 0 255 0 89 6
0.250152 0.788836 0.099212 0 255 0 89 6
0.294004 0.802752 0.103996 0 255 0 89 6
0.240446 0.829748 0.206978 0 255 0 89 6
0.157450 0.843299 0.115017 0 255 0 89 6
0.220713 0.852344 -0.136970 0 255 0 89 6
0.297777 0.878901 0.171996 0 255 0 89 6
0.267409 0.864910 0.199996 0 255 0 89 6
0.298064 0.811367 0.101996 0 255 0 89 6
0.313226 0.912423 0.119451 0 255 0 89 6
0.179829 0.910107 0.209773 0 255 0 89 6
0.296838 0.854565 0.115063 0 255 0 89 6
0.279815 0.856139 0.129996 0 255 0 89 6
0.195669 0.792238 0.115044 0 255 0 89 6
0.235437 0.902376 0.209384 0 255 0 89 6
0.190953 0.856625 -0.130915 0 255 0 89 6
0.174730 0.835536 0.181996 0 255 0 89 6
0.288673 0.893105 0.167277 0 255 0 89 6
0.252902 0.984540 0.115010 0 255 0 89 6
0.275347 0.926608 0.145225 0 255 0 89 6
0.159443 0.855144 0.177996 0 255 0 89 6
0.165065 0.845769 0.147996 0 255 0 89 6
0.117862 0.830204 0.111996 0 255 0 89 6
0.214353 0.812802 0.115116 0 255 0 89 6
0.179678 0.832440 0.119371 0 255 0 89 6
0.317063 0.872757 0.194226 0 255 0 89 6
0.240841 0.802745 0.089996 0 255 0 89 6
0.227754 0.818132 0.119447 0 255 0 89 6
0.265295 0.840839 0.197996 0 255 0 89 6
0.312563 0.870828 0.181996 0 255 0 89 6
0.279045 0.895905 0.187996 0 255 0 89 6
0.236392 0.916486 0.207198 0 255 0 89 6
0.238130 0.809231 0.153996 0 255 0 89 6
0.220337 0.883094 -0.068004 0 255 0 89 6
0.147055 0.794392 0.119328 0 255 0 89 6
0.261058 0.782428 0.106266 0 255 0 89 6
0.290138 0.851900 0.115068 0 255 0 89 6
0.232877 0.878384 -0.086004 0 255 0 89 6
0.185030 0.838377 0.181996 0 255 0 89 6
0.265885 0.872472 -0.136004 0 255 0 89 6
0.176059 0.825031 0.140888 0 255 0 89 6
0.307820 0.886991 0.148084 0 255 0 89 6
0.287104 0.828009 0.115092 0 255 0 89 6
0.134957 0.929868 0.115088 0 255 0 89 6
0.186058 0.775878 0.112981 0 255 0 89 6
0.165323 0.813001 0.119346 0 255 0 89 6
0.288250 0.910355 0.163996 0 255 0 89 6
0.296810 0.787097 0.118968 0 255 0 89 6
0.213731 0.776129 0.107996 0 255 0 89 6
0.259748 0.848135 0.195996 0 255 0 89 6
0.100547 0.908556 0.115996 0 255 0 89 6
0.283636 0.898264 0.134909 0 255 0 89 6
0.232753 1.005181 0.119105 0 255 0 89 6
0.260132 0.835787 0.115088 0 255 0 89 6
0.224843 0.804439 0.090482 0 255 0 89 6
0.308486 0.864357 0.161996 0 255 0 89 6
0.280441 0.921436 0.137996 0 255 0 89 6
0.198773 0.840650 0.199996 0 255 0 89 6
0.158272 0.895263 0.195996 0 255 0 89 6
0.201764 0.907489 0.207020 0 255 0 89 6
0.146572 0.917176 0.115026 0 255 0 89 6
0.331050 0.861606 0.115021 0 255 0 89 6
0.147990 0.904605 0.119368 0 255 0 89 6
0.234099 0.799885 0.091996 0 255 0 89 6
0.275027 0.842844 0.155996 0 255 0 89 6
0.165781 0.857885 0.195996 0 255 0 89 6
0.227760 0.832444 0.195996 0 255 0 89 6
0.151685 0.950848 0.115195 0 255 0 89 6
0.280117 0.876522 0.177996 0 255 0 89 6
0.341155 0.836967 0.115996 0 255 0 89 6
0.230768 0.938128 0.203046 0 255 0 89 6
0.176692 0.779914 0.115053 0 255 0 89 6
0.140259 0.848998 0.115026 0 255 0 89 6
0.169897 0.834519 0.115159 0 255 0 89 6
0.096880 0.895022 0.119301 0 255 0 89 6
0.252042 0.913158 -0.136994 0 255 0 89 6
0.293151 0.866076 0.147996 0 255 0 89 6
0.152195 0.895534 0.119638 0 255 0 89 6
0.246834 0.936758 0.119360 0 255 0 89 6
0.196655 0.825734 0.163996 0 255 0 89 6
0.270259 0.878617 0.121996 0 255 0 89 6
0.296998 0.884175 0.085996 0 255 0 89 6
0.232798 0.876356 -0.074004 0 255 0 89 6
0.115335 0.919725 0.115996 0 255 0 89 6
0.233651 0.884354 -0.105672 0 255 0 89 6
0.218960 0.824859 0.129996 0 255 0 89 6
0.162018 0.807569 0.099996 0 255 0 89 6
0.093601 0.850737 0.115023 0 255 0 89 6
0.174091 0.844632 0.127996 0 255 0 89 6
0.291073 0.962113 0.115073 0 255 0 89 6
0.147328 0.882255 0.150367 0 255 0 89 6
0.168526 0.818454 0.119280 0 255 0 89 6
0.288064 0.794044 0.109996 0 255 0 89 6
0.263364 0.908708 0.120988 0 255 0 89 6
0.263687 0.919849 -0.136004 0 255 0 89 6
0.286508 0.834270 0.087996 0 255 0 89 6
0.223678 0.808575 0.163996 0 255 0 89 6
0.315152 0.887476 0.175996 0 255 0 89 6
0.245678 0.887930 -0.136004 0 255 0 89 6
0.199811 0.859820 -0.136004 0 255 0 89 6
0.232961 0.876322 -0.130004 0 255 0 89 6
0.104658 0.921995 0.115014 0 255 0 89 6
0.218832 0.891593 -0.136921 0 255 0 89 6
0.219212 0.874137 0.031996 0 255 0 89 6
0.205168 0.880185 -0.136004 0 255 0 89 6
0.331260 0.857471 0.109996 0 255 0 89 6
0.292536 0.872803 0.155996 0 255 0 89 6
0.193473 0.887722 -0.136004 0 255 0 89 6
0.118958 0.806498 0.115229 0 255 0 89 6
0.155161 0.894903 0.175996 0 255 0 89 6
0.286446 0.864953 0.131996 0 255 0 89 6
0.275940 0.856963 0.175996 0 255 0 89 6
0.211593 0.876774 0.209060 0 255 0 89 6
0.232707 0.876376 0.055996 0 255 0 89 6
0.233190 0.886496 0.039996 0 255 0 89 6
0.105707 0.878834 0.119064 0 255 0 89 6
0.168867 0.781577 0.115043 0 255 0 89 6
0.219299 0.879226 0.227996 0 255 0 89 6
0.230617 0.860462 0.212615 0 255 0 89 6
0.191437 0.849284 0.115996 0 255 0 89 6
0.212104 0.821459 0.136947 0 255 0 89 6
0.264753 0.828670 0.115163 0 255 0 89 6
0.229187 0.926196 -0.136004 0 255 0 89 6
0.230079 0.848309 -0.136922 0 255 0 89 6
0.340510 0.859596 0.111996 0 255 0 89 6
0.272607 0.894475 0.191016 0 255 0 89 6
0.234320 0.810543 0.165996 0 255 0 89 6
0.274393 0.912498 0.115032 0 255 0 89 6
0.244368 0.992488 0.119267 0 255 0 89 6
0.233698 0.994756 0.115996 0 255 0 89 6
0.151429 0.877294 0.137996 0 255 0 89 6
0.101625 0.898104 0.115180 0 255 0 89 6
0.201098 0.837017 0.115996 0 255 0 89 6
0.139824 0.943146 0.117360 0 255 0 89 6
0.111592 0.925758 0.115996 0 255 0 89 6
0.269743 0.852146 0.183023 0 255 0 89 6
0.154048 0.870604 0.153996 0 255 0 89 6
0.232601 0.884577 -0.136004 0 255 0 89 6
0.213011 0.864204 0.212818 0 255 0 89 6
0.224441 0.884266 0.005996 0 255 0 89 6
0.128748 0.967992 0.115157 0 255 0 89 6
0.145788 0.884626 0.117453 0 255 0 89 6
0.213190 1.009338 0.116920 0 255 0 89 6
0.201122 0.789034 0.115320 0 255 0 89 6
0.280992 0.841576 0.085996 0 255 0 89 6
0.119332 0.890251 0.177996 0 255 0 89 6
0.242818 0.831287 0.128964 0 255 0 89 6
0.245483 0.824588 0.193329 0 255 0 89 6
0.270678 0.962359 0.115067 0 255 0 89 6
0.109941 0.937230 0.115129 0 255 0 89 6
0.239057 0.909786 -0.130651 0 255 0 89 6
0.216999 0.902205 0.209181 0 255 0 89 6
0.252214 0.846632 0.203996 0 255 0 89 6
0.242629 0.945831 0.117440 0 255 0 89 6
0.231579 0.826509 0.129996 0 255 0 89 6
0.157941 0.884089 0.195054 0 255 0 89 6
0.271202 0.843657 0.079996 0 255 0 89 6
0.342372 0.857154 0.118805 0 255 0 89 6
0.310795 0.837286 0.099996 0 255 0 89 6
0.189797 0.920256 0.207996 0 255 0 89 6
0.214674 0.872030 0.230918 0 255 0 89 6
0.253016 0.831164 0.198631 0 255 0 89 6
0.218423 0.881455 -0.090004 0 255 0 89 6
0.333324 0.887703 0.115996 0 255 0 89 6
0.152073 0.885335 0.198861 0 255 0 89 6
0.236098 0.924726 0.203026 0 255 0 89 6
0.121651 0.867266 0.118955 0 255 0 89 6
0.114254 0.885196 0.193996 0 255 0 89 6
0.308699 0.862267 0.119237 0 255 0 89 6
0.255835 0.840788 0.115996 0 255 0 89 6
0.230305 0.964807 0.115208 0 255 0 89 6
0.228642 0.956982 0.115208 0 255 0 89 6
0.277105 0.877162 0.206856 0 255 0 89 6
0.266199 0.835469 0.139996 0 255 0 89 6
0.170708 0.815945 0.093996 0 255 0 89 6
0.206129 0.822211 0.195996 0 255 0 89 6
0.209759 0.839285 0.117996 0 255 0 89 6
0.120136 0.888998 0.183996 0 255 0 89 6
0.260391 0.935921 0.171996 0 255 0 89 6
0.138133 0.867852 0.117688 0 255 0 89 6
0.200489 0.834151 0.126957 0 255 0 89 6
0.281604 0.859848 0.119255 0 255 0 89 6
0.194374 0.815004 0.115001 0 255 0 89 6
0.172500 0.837146 0.133996 0 255 0 89 6
0.259546 0.852269 0.118756 0 255 0 89 6
0.124146 0.879004 0.155121 0 255 0 89 6
0.284344 0.891981 0.189186 0 255 0 89 6
0.199127 0.981658 0.115048 0 255 0 89 6
0.272143 0.921154 0.132486 0 255 0 89 6
0.216555 0.832780 0.115077 0 255 0 89 6
0.121896 0.887661 0.196829 0 255 0 89 6
0.127643 0.876215 0.197510 0 255 0 89 6
0.277125 0.781058 0.112752 0 255 0 89 6
0.287981 0.846225 0.115996 0 255 0 89 6
0.196973 0.933043 0.208832 0 255 0 89 6
0.240098 0.880939 0.207996 0 255 0 89 6
0.277398 0.868921 0.204243 0 255 0 89 6
0.167354 0.889895 0.201996 0 255 0 89 6
0.269185 0.936096 0.119113 0 255 0 89 6
0.162535 0.809504 0.115024 0 255 0 89 6
0.138580 0.884115 0.143996 0 255 0 89 6
0.256282 0.923486 -0.136004 0 255 0 89 6
0.262306 0.788297 0.103071 0 255 0 89 6
0.152413 0.848460 0.119222 0 255 0 89 6
0.296819 0.950669 0.115032 0 255 0 89 6
0.226636 0.820415 0.081996 0 255 0 89 6
0.270235 0.892935 -0.136906 0 255 0 89 6
0.222103 0.753069 0.117996 0 255 0 89 6
0.233018 0.929471 -0.131395 0 255 0 89 6
0.200054 0.928298 -0.136991 0 255 0 89 6
0.206659 0.988235 0.117568 0 255 0 89 6
0.290582 0.921325 0.115032 0 255 0 89 6
0.219588 0.856673 -0.131104 0 255 0 89 6
0.244264 0.886187 0.207115 0 255 0 89 6
0.178580 0.759938 0.117996 0 255 0 89 6
0.283812 0.894137 0.173996 0 255 0 89 6
0.323593 0.893861 0.119143 0 255 0 89 6
0.155324 0.876466 0.177996 0 255 0 89 6
0.191955 0.842099 0.197064 0 255 0 89 6
0.244415 0.963852 0.119469 0 255 0 89 6
0.117200 0.855944 0.118621 0 255 0 89 6
0.312366 0.841041 0.119200 0 255 0 89 6
0.288391 0.850226 0.149996 0 255 0 89 6
0.191832 0.831902 0.125240 0 255 0 89 6
0.190367 0.873106 -0.130611 0 255 0 89 6
0.193214 0.915440 -0.130004 0 255 0 89 6
0.109913 0.869761 0.119165 0 255 0 89 6
0.321514 0.884079 0.119197 0 255 0 89 6
0.263043 0.849481 -0.135433 0 255 0 89 6
0.250917 0.917488 -0.131195 0 255 0 89 6
0.274563 0.894060 -0.131088 0 255 0 89 6
0.273410 0.830920 0.115102 0 255 0 89 6
0.238145 0.818921 0.153996 0 255 0 89 6
0.323954 0.811997 0.113996 0 255 0 89 6
0.188042 0.842931 0.124904 0 255 0 89 6
0.176221 0.859756 0.199996 0 255 0 89 6
0.226427 0.777521 0.105996 0 255 0 89 6
0.170390 0.860996 0.189996 0 255 0 89 6
0.344990 0.879090 0.113070 0 255 0 89 6
0.240125 0.770519 0.118623 0 255 0 89 6
0.131971 0.877341 0.189628 0 255 0 89 6
0.229758 0.789081 0.119265 0 255 0 89 6
0.316524 0.860604 0.119423 0 255 0 89 6
0.310485 0.880290 0.162966 0 255 0 89 6
0.264318 0.922818 0.185038 0 255 0 89 6
0.167742 0.785906 0.119359 0 255 0 89 6
0.304822 0.882505 0.167996 0 255 0 89 6
0.094140 0.862891 0.119338 0 255 0 89 6
0.118986 0.873967 0.115144 0 255 0 89 6
0.300505 0.833339 0.115083 0 255 0 89 6
0.202596 0.911401 -0.136961 0 255 0 89 6
0.185916 0.861784 -0.130842 0 255 0 89 6
0.197380 0.771427 0.112889 0 255 0 89 6
0.182361 0.845062 0.189996 0 255 0 89 6
0.223807 0.937562 0.199996 0 255 0 89 6
0.325377 0.879169 0.183996 0 255 0 89 6
0.283948 0.793920 0.115045 0 255 0 89 6
0.264924 0.810232 0.119099 0 255 0 89 6
0.223283 0.902915 -0.130857 0 255 0 89 6
0.239615 0.825835 0.132972 0 255 0 89 6
0.229851 0.808760 0.161996 0 255 0 89 6
0.293191 0.779687 0.119365 0 255 0 89 6
0.125072 0.825645 0.119525 0 255 0 89 6
0.277476 0.907764 0.199996 0 255 0 89 6
0.219125 0.883352 0.213104 0 255 0 89 6
0.180141 0.805761 0.098709 0 255 0 89 6
0.175350 0.831316 0.115062 0 255 0 89 6
0.270924 0.982754 0.119196 0 255 0 89 6
0.245566 0.916581 0.203996 0 255 0 89 6
0.125697 0.794842 0.115996 0 255 0 89 6
0.289278 0.780519 0.113319 0 255 0 89 6
0.198145 0.900080 -0.130982 0 255 0 89 6
0.133729 0.827895 0.119305 0 255 0 89 6
0.183836 0.852004 0.203020 0 255 0 89 6
0.156029 0.807757 0.103996 0 255 0 89 6
0.200366 0.823954 0.119332 0 255 0 89 6
0.310750 0.804581 0.118907 0 255 0 89 6
0.298043 0.893157 0.167996 0 255 0 89 6
0.281849 0.880243 0.119119 0 255 0 89 6
0.160947 0.840512 0.119033 0 255 0 89 6
0.164768 0.848870 0.159996 0 255 0 89 6
0.248573 0.983416 0.119469 0 255 0 89 6
0.277398 0.868921 0.119118 0 255 0 89 6
0.230683 0.874761 -0.104004 0 255 0 89 6
0.344451 0.866936 0.114814 0 255 0 89 6
0.328602 0.821233 0.118957 0 255 0 89 6
0.193174 0.780500 0.118944 0 255 0 89 6
0.157913 0.816620 0.115122 0 255 0 89 6
0.168016 0.873769 0.115035 0 255 0 89 6
0.167606 0.833364 0.159996 0 255 0 89 6
0.253658 0.949620 0.118416 0 255 0 89 6
0.260037 0.893058 0.205189 0 255 0 89 6
0.280417 0.868279 0.173996 0 255 0 89 6
0.127151 0.835427 0.115059 0 255 0 89 6
0.178752 0.885798 -0.131007 0 255 0 89 6
0.311487 0.865764 0.115105 0 255 0 89 6
0.220134 0.820761 0.163996 0 255 0 89 6
0.278625 0.850257 0.143996 0 255 0 89 6
0.223434 0.980581 0.115064 0 255 0 89 6
0.216999 0.902205 -0.136969 0 255 0 89 6
0.322147 0.838962 0.115187 0 255 0 89 6
0.270282 0.864299 0.115119 0 255 0 89 6
0.203617 0.800772 0.119210 0 255 0 89 6
0.163053 0.879278 0.199996 0 255 0 89 6
0.217339 0.865329 -0.136943 0 255 0 89 6
0.265462 0.822386 0.115152 0 255 0 89 6
0.212132 0.888927 -0.130914 0 255 0 89 6
0.226515 0.975836 0.119105 0 255 0 89 6
0.115612 0.886951 0.167028 0 255 0 89 6
0.230400 0.907536 -0.136944 0 255 0 89 6
0.306667 0.823851 0.115246 0 255 0 89 6
0.217859 0.973587 0.119076 0 255 0 89 6
0.256298 0.827365 0.157996 0 255 0 89 6
0.257146 0.783260 0.119293 0 255 0 89 6
0.328120 0.944016 0.115082 0 255 0 89 6
0.205110 0.827034 0.115085 0 255 0 89 6
0.266076 0.873372 0.115032 0 255 0 89 6
0.157989 0.855453 0.119084 0 255 0 89 6
0.200683 0.835063 0.191996 0 255 0 89 6
0.245559 0.863420 -0.136965 0 255 0 89 6
0.220148 0.888162 -0.040004 0 255 0 89 6
0.219022 0.777050 0.119130 0 255 0 89 6
