ply
format ascii 1.0
element vertex 1083
property float x
property float y
property float z
property uchar red
property uchar green
property uchar blue
property uchar semantic_label
property uchar instance_label
end_header
-0.843059 -0.796625 -1.371197 46 26 15 2 3
-0.852180 -0.791428 -1.364168 32 18 11 2 3
-0.841134 -0.805334 -1.363540 33 18 11 2 3
-0.852367 -0.806085 -1.366240 31 17 11 2 3
-0.891731 -1.031874 -0.950126 255 255 255 7 2
-0.932793 -0.686280 -0.958014 254 255 224 7 2
-0.910082 -0.712897 -0.958728 255 255 226 7 2
-1.135617 -1.329021 -0.939354 250 254 254 7 2
-1.126523 -1.345467 -0.935384 212 219 225 7 2
-0.951418 -0.545905 -0.963016 254 255 191 7 2
-0.932543 -0.536530 -0.964037 255 255 190 7 2
-0.859343 -0.915471 -1.383564 50 44 37 2 3
-0.871522 -0.898223 -1.385347 45 40 38 2 3
-0.876748 -0.926689 -1.381057 46 37 38 2 3
-0.870502 -0.922218 -1.384959 41 36 35 2 3
-0.853659 -0.905499 -1.385769 33 32 36 2 3
-0.887723 -0.910588 -1.380075 46 43 42 2 3
-1.079652 -0.796608 -1.370437 58 43 24 2 3
-1.100770 -0.772129 -1.370329 22 19 19 2 3
-1.089446 -0.786274 -1.369912 31 31 26 2 3
-0.729668 -0.913405 -0.960904 255 255 202 7 2
-0.945314 -0.813281 -1.381337 59 52 46 2 3
-0.927589 -0.818755 -1.385718 59 55 48 2 3
-0.929894 -0.829735 -1.384066 44 35 34 2 3
-1.114380 -0.707940 -1.371321 38 29 26 2 3
-1.068230 -0.747684 -1.374901 46 38 30 2 3
-1.092566 -0.725231 -1.373264 58 48 40 2 3
-0.499919 -1.027146 -0.987017 230 228 160 7 2
-0.476305 -1.013343 -0.986956 247 246 173 7 2
-0.489785 -1.014708 -0.977800 254 253 182 7 2
-0.477816 -1.001752 -0.969174 254 253 178 7 2
-0.697654 -0.838285 -1.387904 43 29 20 2 3
-0.717153 -0.826050 -1.388857 42 28 21 2 3
-0.969168 -0.975405 -0.949636 255 255 255 7 2
-0.920293 -0.972030 -0.951282 255 255 255 7 2
-0.927780 -0.989770 -0.949928 255 255 255 7 2
-1.012918 -0.879905 -0.950715 255 255 255 7 2
-0.666980 -0.619080 -0.971652 255 251 179 7 2
-0.669343 -0.607411 -0.972790 254 243 171 7 2
-0.674187 -0.581290 -0.976972 253 249 176 7 2
-0.853263 -0.565411 -1.281301 63 45 41 7 2
-0.863262 -0.552718 -1.283656 68 48 28 7 2
-0.864315 -0.570866 -1.288390 66 42 25 7 2
-0.935918 -1.134780 -0.945026 255 255 255 7 2
-0.921918 -1.095780 -0.946666 255 255 255 7 2
-1.000165 -1.089794 -1.348762 50 42 25 2 3
-1.004535 -1.077203 -1.348124 45 40 30 2 3
-0.981404 -1.076593 -1.352403 49 37 26 2 3
-0.526058 -0.938280 -0.966189 254 254 191 7 2
-0.790302 -0.742713 -1.231406 55 49 31 7 2
-0.783455 -0.752431 -1.237105 55 34 18 7 2
-0.776314 -0.765018 -1.226344 55 39 28 7 2
-0.772901 -0.758981 -1.219531 48 34 22 7 2
-0.779042 -0.763977 -1.240490 60 38 30 7 2
-0.611671 -0.520251 -1.399937 85 59 30 2 3
-0.619571 -0.547905 -1.394069 77 53 27 2 3
-0.605469 -0.540944 -1.398690 66 43 21 2 3
-1.037573 -0.699433 -0.953503 254 255 249 7 2
-0.591730 -0.881530 -0.966110 254 253 188 7 2
-0.941466 -0.563885 -1.380126 58 49 42 2 3
-0.593168 -0.795655 -1.392725 48 26 16 2 3
-0.574035 -0.842716 -1.391708 54 30 14 2 3
-1.047119 -0.873286 -1.367197 59 45 32 2 3
-1.063072 -0.890793 -1.363793 48 34 24 2 3
-0.589391 -0.932570 -1.089965 84 53 28 7 2
-0.591851 -0.939828 -1.106816 77 50 33 7 2
-0.603784 -0.925220 -1.098383 99 63 26 7 2
-0.535743 -0.882399 -1.018365 81 53 37 7 2
-0.545565 -0.871438 -1.007714 103 67 30 7 2
-1.016668 -0.521405 -0.961604 255 255 211 7 2
-1.015168 -0.539155 -0.960699 255 254 211 7 2
-0.985836 -0.528998 -0.962438 255 255 200 7 2
-0.873855 -1.179342 -0.945592 255 255 255 7 2
-0.919168 -1.184405 -0.943429 255 255 255 7 2
-0.889944 -1.204618 -0.943648 255 255 255 7 2
-0.905043 -1.162905 -0.944890 255 255 255 7 2
-0.823035 -0.573895 -1.221639 97 59 34 7 2
-0.838007 -0.542527 -1.237881 99 63 26 7 2
-0.818765 -0.576993 -1.240964 95 60 32 7 2
-0.830616 -0.559364 -1.222679 96 61 27 7 2
-0.917036 -0.800066 -1.392339 40 31 35 2 3
-0.638485 -0.877480 -1.112325 81 49 25 7 2
-0.652522 -0.874846 -1.099243 66 42 27 7 2
-0.584918 -1.015155 -0.961523 255 254 200 7 2
-0.613668 -0.990779 -0.961591 255 254 198 7 2
-1.129546 -0.505509 -1.374753 37 28 40 2 3
-0.969746 -0.580920 -0.961120 255 255 204 7 2
-0.756168 -0.804405 -0.963223 255 254 204 7 2
-0.826014 -0.663457 -0.964330 254 254 192 7 2
-0.816730 -0.640842 -0.965437 255 255 199 7 2
-0.535105 -0.858308 -1.394560 68 39 17 2 3
-0.552818 -0.842716 -1.392035 55 27 18 2 3
-0.913131 -1.044514 -0.949404 255 255 255 7 2
-0.899168 -1.063405 -0.948605 255 255 255 7 2
-0.698495 -0.776504 -1.387997 56 43 26 2 3
-0.715973 -0.800427 -1.388481 37 25 18 2 3
-1.008961 -0.755756 -1.377059 54 43 48 2 3
-1.025884 -0.762826 -1.375869 48 48 44 2 3
-0.895168 -0.619405 -0.963203 254 254 215 7 2
-0.629444 -0.885304 -1.377707 72 46 22 7 2
-0.627546 -0.889543 -1.349856 92 57 20 7 2
-0.615752 -0.899816 -1.116079 104 71 39 7 2
-0.848600 -1.191326 -1.354656 80 59 43 2 3
-0.822728 -1.168932 -1.360908 79 64 56 2 3
-0.843313 -1.187908 -1.357719 71 54 51 2 3
-0.836903 -1.177319 -1.358518 80 62 63 2 3
-0.530632 -0.814713 -0.982715 236 203 117 7 2
-0.553100 -0.775326 -0.982765 213 175 93 7 2
-0.551611 -0.773292 -0.989292 192 148 75 7 2
-0.556370 -0.797067 -0.970795 254 246 176 7 2
-0.556273 -0.781422 -0.974980 253 237 158 7 2
-0.603191 -0.932405 -1.338852 99 63 26 7 2
-0.944704 -0.591347 -1.371143 56 32 24 2 3
-0.938475 -0.607902 -1.375730 54 29 24 2 3
-1.035355 -0.840717 -0.950794 255 255 255 7 2
-0.878341 -0.944146 -1.376339 38 26 23 2 3
-0.907578 -0.970364 -1.372657 46 34 25 2 3
-0.705961 -0.521220 -1.382065 85 72 50 2 3
-0.699987 -0.548725 -1.386529 75 63 47 2 3
-0.793463 -0.685823 -1.287541 76 51 43 7 2
-0.851793 -0.786280 -0.959252 254 255 228 7 2
-0.537884 -0.640235 -1.398556 99 72 33 2 3
-0.750668 -0.759905 -0.964236 254 255 201 7 2
-0.749340 -0.702124 -0.966225 255 255 200 7 2
-0.783895 -0.677528 -0.964694 255 255 195 7 2
-1.080249 -0.634927 -1.376808 41 41 50 2 3
-1.069350 -0.618282 -1.375688 23 26 46 2 3
-1.072923 -0.649242 -1.376050 44 36 34 2 3
-1.051872 -0.645300 -1.377258 33 28 41 2 3
-1.065003 -0.641776 -1.375868 38 32 37 2 3
-0.999345 -0.953040 -1.361448 37 30 38 2 3
-0.992860 -0.945896 -1.364228 31 22 21 2 3
-0.984623 -0.935637 -1.364577 29 19 18 2 3
-0.694210 -0.663139 -0.969680 254 254 191 7 2
-0.716043 -0.642155 -0.969023 254 254 192 7 2
-0.729293 -0.619154 -0.969888 255 253 198 7 2
-0.680341 -0.826089 -1.214140 99 65 27 7 2
-0.675833 -0.828355 -1.247091 101 64 30 7 2
-0.675842 -0.829691 -1.222245 102 65 32 7 2
-0.688468 -0.809244 -1.218791 103 66 26 7 2
-0.863755 -0.522590 -1.212181 45 40 51 7 2
-0.873393 -0.534574 -1.210140 45 44 58 7 2
-0.862086 -0.544705 -1.208522 41 39 54 7 2
-1.034390 -1.299793 -0.961587 244 250 251 7 2
-0.624883 -0.511067 -1.398389 87 61 28 2 3
-0.634824 -0.517044 -1.395706 70 45 28 2 3
-0.653918 -0.515655 -1.390549 52 29 18 2 3
-0.661647 -0.499572 -1.392402 92 69 38 2 3
-0.974690 -1.249573 -0.938985 255 255 255 7 2
-0.998668 -1.235905 -0.938718 255 255 255 7 2
-0.536962 -0.819387 -1.011790 180 136 61 7 2
-0.533093 -0.840910 -1.012618 111 73 24 7 2
-0.552344 -0.847760 -1.013403 115 78 39 7 2
-0.532917 -0.856248 -1.016488 120 79 33 7 2
-0.550233 -0.825543 -1.016602 118 76 30 7 2
-0.551097 -0.811738 -1.013382 131 92 39 7 2
-0.716774 -0.491633 -0.989083 197 161 84 7 2
-0.739168 -0.501905 -0.974464 254 252 173 7 2
-0.623689 -0.893504 -1.313817 104 67 25 7 2
-0.685994 -0.888849 -1.208998 56 37 20 7 2
-0.695991 -0.874596 -1.209216 54 32 18 7 2
-0.683501 -0.896769 -1.206161 55 35 18 7 2
-0.675259 -0.881087 -1.204136 55 33 17 7 2
-0.681860 -0.903642 -1.198197 56 38 24 7 2
-0.675730 -0.903114 -1.203269 56 44 34 7 2
-0.670095 -0.889754 -1.198675 59 35 15 7 2
-0.678390 -0.900984 -1.188558 64 46 37 7 2
-0.841585 -0.583111 -1.208223 43 42 52 7 2
-0.827473 -0.579373 -1.215145 46 43 55 7 2
-0.837702 -0.558130 -1.215313 44 44 53 7 2
-0.851238 -0.565829 -1.208976 43 44 53 7 2
-0.831168 -0.976405 -0.954323 255 255 255 7 2
-0.711792 -1.048302 -0.956451 255 255 214 7 2
-0.704884 -1.077444 -0.955265 255 255 217 7 2
-0.726217 -1.056200 -0.954981 254 255 227 7 2
-0.603227 -0.712163 -1.015924 67 42 22 7 2
-0.624598 -0.695281 -1.021439 74 50 28 7 2
-0.589340 -0.720342 -1.007026 115 75 33 7 2
-0.611618 -0.687820 -1.011753 111 76 36 7 2
-0.613285 -0.694657 -1.016323 85 61 30 7 2
-0.631332 -0.680821 -1.021172 97 64 26 7 2
-0.599075 -0.697429 -1.001829 140 101 50 7 2
-0.676229 -0.809316 -1.389920 44 31 23 2 3
-0.695101 -0.820913 -1.389655 33 21 21 2 3
-0.895886 -0.729162 -1.365657 35 20 6 7 2
-0.888325 -0.729410 -1.369095 36 21 9 7 2
-0.905005 -0.718666 -1.369450 36 22 13 7 2
-0.889266 -0.742935 -1.367392 38 22 10 7 2
-1.095373 -0.533718 -0.957488 255 254 213 7 2
-1.110168 -0.542905 -0.956119 255 254 213 7 2
-0.998042 -0.642465 -1.391477 62 50 58 2 3
-1.006262 -0.631676 -1.385505 54 48 59 2 3
-0.915824 -0.597139 -0.962907 255 255 196 7 2
-0.769291 -0.891472 -1.376985 59 41 18 2 3
-0.762204 -0.879202 -1.380959 46 28 14 2 3
-0.772377 -0.866070 -1.381936 47 31 14 2 3
-0.751213 -0.906476 -1.377959 56 34 20 2 3
-0.793685 -0.759600 -1.386289 67 55 30 2 3
-0.820221 -0.776068 -1.380563 49 40 20 2 3
-0.822726 -0.739669 -1.386683 47 29 18 2 3
-0.809437 -0.745355 -1.386482 41 28 20 2 3
-0.804521 -0.739741 -1.388832 37 23 17 2 3
-0.801573 -0.784426 -1.383598 44 29 24 2 3
-0.802130 -0.762929 -1.383785 38 27 14 2 3
-0.608806 -0.911968 -1.214349 104 68 26 7 2
-0.600588 -0.927131 -1.240870 99 66 31 7 2
-0.601649 -0.927874 -1.228775 107 68 29 7 2
-0.595887 -0.936050 -1.224074 107 68 29 7 2
-0.709373 -0.786107 -1.210943 72 48 17 7 2
-0.726817 -0.795936 -1.206274 62 39 15 7 2
-0.714667 -0.796659 -1.206293 59 38 18 7 2
-0.669936 -0.984046 -0.960274 255 255 212 7 2
-0.796543 -0.767905 -0.962007 254 254 218 7 2
-0.772168 -0.785655 -0.962686 255 255 209 7 2
-0.784918 -0.741905 -0.963500 255 255 202 7 2
-0.706386 -0.837433 -1.279196 86 55 25 7 2
-0.693707 -0.856993 -1.279204 82 54 24 7 2
-0.698055 -0.846166 -1.280953 82 54 24 7 2
-1.085094 -0.678796 -1.374999 60 47 36 2 3
-1.069168 -0.816405 -0.949933 255 255 255 7 2
-0.897418 -0.828905 -0.956680 255 255 254 7 2
-0.875168 -0.856405 -0.957065 255 255 254 7 2
-0.960418 -1.072905 -0.946153 255 255 255 7 2
-0.990168 -1.025405 -0.946739 255 255 255 7 2
-0.960418 -1.043155 -0.947272 255 255 255 7 2
-1.088722 -0.755034 -1.371284 49 44 33 2 3
-1.091361 -0.770338 -1.370704 32 30 22 2 3
-0.908047 -0.809231 -1.388991 40 32 33 2 3
-0.897985 -0.834933 -1.381387 45 37 35 2 3
-0.911259 -0.837360 -1.383551 42 34 32 2 3
-0.914565 -0.829397 -1.385148 56 47 44 2 3
-0.905374 -0.821715 -1.384129 58 54 48 2 3
-0.915526 -0.809337 -1.383224 59 56 49 2 3
-0.610424 -0.903972 -1.226109 92 58 27 7 2
-0.626158 -0.886386 -1.248107 103 66 30 7 2
-0.625436 -0.888405 -1.216852 112 74 27 7 2
-0.831356 -1.025688 -1.375779 63 43 30 2 3
-0.833899 -1.010833 -1.369262 75 57 29 2 3
-0.846218 -1.035755 -1.365419 61 42 21 2 3
-0.827342 -1.010830 -1.367024 63 46 26 2 3
-0.837352 -1.027829 -1.365282 65 45 31 2 3
-0.957364 -0.883220 -1.373385 47 41 33 2 3
-0.960199 -0.858787 -1.374860 50 41 40 2 3
-0.944220 -0.863746 -1.375377 52 42 34 2 3
-1.015293 -0.920030 -0.949591 255 255 255 7 2
-1.018168 -0.898155 -0.950301 255 255 255 7 2
-1.043099 -0.929155 -0.948313 255 255 255 7 2
-1.061168 -0.898405 -0.948353 255 255 255 7 2
-0.705234 -1.125271 -0.952898 255 255 205 7 2
-0.970043 -0.614155 -0.959629 254 255 215 7 2
-0.696633 -0.808564 -1.209343 72 46 22 7 2
-0.669914 -0.853460 -1.208068 69 43 22 7 2
-0.681132 -0.853816 -1.203997 63 40 19 7 2
-0.651512 -0.602920 -0.994437 169 129 63 7 2
-0.666451 -0.579902 -0.998319 141 102 47 7 2
-0.649977 -0.614392 -1.006532 155 117 55 7 2
-0.955668 -0.821530 -0.954385 255 255 255 7 2
-1.089493 -0.720896 -0.950428 255 255 248 7 2
-1.107918 -0.689780 -0.951656 255 255 247 7 2
-0.718386 -0.762951 -0.965425 255 255 201 7 2
-0.894475 -0.708473 -1.372415 60 39 20 7 2
-0.891338 -0.680260 -1.378327 53 46 30 2 3
-0.889577 -0.691053 -1.371269 55 43 31 2 3
-0.893957 -0.679705 -1.369044 53 46 29 2 3
-0.902828 -0.702135 -1.372924 50 36 22 7 2
-0.893120 -0.694184 -1.370648 53 43 34 7 2
-0.999793 -0.712967 -0.954662 255 255 253 7 2
-0.589506 -0.818501 -1.392957 55 33 18 2 3
-0.610196 -0.810710 -1.391436 57 38 18 2 3
-0.604667 -0.832155 -1.390770 50 29 17 2 3
-0.598408 -0.937103 -1.379165 81 52 24 7 2
-0.592985 -0.958344 -1.384984 72 47 26 2 3
-0.634050 -0.884616 -1.347094 59 41 28 7 2
-0.636484 -0.883458 -1.370622 67 47 25 7 2
-0.798521 -0.966996 -1.372876 45 35 28 2 3
-0.788664 -0.968385 -1.371944 27 22 23 2 3
-1.117198 -0.868512 -1.358477 46 35 25 2 3
-1.135365 -0.887358 -1.357691 41 30 18 2 3
-0.481013 -0.968378 -1.015895 102 76 42 7 2
-0.462160 -0.951934 -1.011400 61 34 26 7 2
-0.484505 -0.946809 -1.015578 108 81 46 7 2
-0.479548 -0.933653 -1.014596 65 39 23 7 2
-0.498042 -0.936812 -1.018981 120 89 46 7 2
-0.503010 -0.948639 -1.016001 104 74 39 7 2
-0.500492 -0.940740 -1.019698 101 76 37 7 2
-0.976847 -1.207350 -0.940899 255 255 255 7 2
-0.508203 -0.929893 -1.018538 115 86 46 7 2
-0.795153 -0.558981 -1.394484 42 23 16 2 3
-0.795820 -0.536262 -1.395245 45 25 19 2 3
-0.774220 -0.533469 -1.396820 42 23 15 2 3
-0.639680 -1.024683 -1.381803 61 41 30 2 3
-0.723937 -0.665655 -0.968117 254 254 191 7 2
-0.535790 -0.805546 -1.394971 96 69 33 2 3
-0.520862 -0.788262 -1.395831 70 38 18 2 3
-0.905846 -0.997797 -1.366122 66 47 27 2 3
-0.894539 -0.993412 -1.368315 49 40 23 2 3
-1.061418 -0.528905 -0.958934 254 254 204 7 2
-1.083043 -0.499905 -0.959000 254 254 200 7 2
-1.069793 -0.479404 -0.959916 255 255 204 7 2
-0.859940 -0.969862 -1.373356 48 35 28 2 3
-0.887372 -0.960727 -1.373857 41 33 28 2 3
-0.862998 -0.948360 -1.378274 37 28 27 2 3
-0.531506 -0.520278 -1.391950 86 54 25 2 3
-0.554106 -0.547890 -1.398633 87 57 25 2 3
-0.621280 -0.895146 -1.141412 110 68 31 7 2
-0.629233 -0.884256 -1.145921 106 66 18 7 2
-0.566770 -0.747146 -0.987060 196 155 76 7 2
-0.574654 -0.756115 -0.972683 253 238 164 7 2
-0.585168 -0.760405 -0.969669 254 250 186 7 2
-0.597293 -0.770197 -0.968935 254 252 186 7 2
-0.573793 -0.766030 -0.971184 254 247 176 7 2
-0.572343 -0.747851 -0.977705 242 217 130 7 2
-0.920926 -1.233341 -0.967507 255 255 255 7 2
-0.935085 -1.251272 -0.965630 250 253 255 7 2
-0.444391 -0.991028 -0.983638 235 212 130 7 2
-0.448189 -0.981940 -0.968944 246 236 156 7 2
-0.439792 -0.986978 -0.990000 185 153 90 7 2
-0.460237 -0.998199 -0.978278 253 252 171 7 2
-0.457693 -0.980737 -0.964780 252 251 170 7 2
-0.473792 -0.992622 -0.964272 254 253 177 7 2
-1.063049 -1.090427 -0.941945 255 255 255 7 2
-1.033507 -0.913991 -1.361925 56 43 33 2 3
-0.881466 -0.613898 -1.387591 66 43 26 2 3
-0.857349 -0.606601 -1.391006 65 43 26 2 3
-0.862539 -0.591314 -1.391324 61 40 28 2 3
-0.961168 -0.566405 -0.962198 255 255 200 7 2
-0.982668 -0.552155 -0.961623 254 255 199 7 2
-1.029793 -0.563405 -0.959439 255 255 203 7 2
-0.827828 -0.914766 -1.376276 41 28 21 2 3
-0.816509 -1.200562 -0.960347 255 254 230 7 2
-0.977925 -0.967733 -1.363255 32 21 22 2 3
-0.966448 -0.959905 -1.365918 36 23 22 2 3
-0.951947 -0.986497 -1.357543 43 34 31 2 3
-0.985608 -0.998367 -1.351802 34 24 23 2 3
-0.970281 -0.991312 -1.352961 46 33 30 2 3
-0.960572 -0.999200 -1.353416 48 37 30 2 3
-1.144201 -0.551075 -0.954434 255 255 217 7 2
-1.142918 -0.530405 -0.954909 254 255 212 7 2
-0.828634 -0.627119 -1.391082 72 55 26 2 3
-0.798344 -0.646989 -1.393904 50 35 25 2 3
-0.801557 -0.612818 -1.392638 71 53 24 2 3
-0.814121 -0.614758 -1.393170 71 53 24 2 3
-0.839761 -0.713249 -0.961691 255 253 211 7 2
-0.731090 -0.752476 -1.211051 66 43 17 7 2
-0.748087 -0.742821 -1.207589 66 43 17 7 2
-0.744091 -0.729369 -1.212792 64 40 19 7 2
-0.905664 -0.531315 -1.229905 52 50 58 7 2
-0.906512 -0.526714 -1.237529 49 49 58 7 2
-0.894156 -0.549548 -1.229894 46 43 57 7 2
-0.895874 -0.545800 -1.237477 39 38 49 7 2
-0.910223 -0.525160 -1.240762 54 50 65 7 2
-0.891416 -0.541148 -1.220903 43 43 56 7 2
-0.905229 -0.524268 -1.224213 45 49 57 7 2
-0.874885 -0.877160 -1.383183 44 41 38 2 3
-0.868715 -0.878006 -1.388590 31 28 29 2 3
-0.878986 -0.906929 -1.385615 41 38 38 2 3
-0.859234 -0.894303 -1.386827 39 34 37 2 3
-1.118891 -0.635186 -0.952287 255 255 241 7 2
-1.142480 -0.614936 -0.952053 253 255 233 7 2
-0.624168 -0.875405 -0.965281 254 252 196 7 2
-0.611168 -0.856905 -0.966128 251 244 189 7 2
-0.774260 -1.168560 -0.953246 254 254 212 7 2
-0.772815 -1.160815 -0.948915 254 254 212 7 2
-0.788692 -0.608172 -1.393667 39 23 18 2 3
-0.873764 -0.632174 -1.388816 66 47 21 2 3
-0.883846 -0.640660 -1.388145 61 50 44 2 3
-0.859758 -0.509782 -1.257086 84 55 27 7 2
-0.877261 -0.494586 -1.272093 86 59 31 7 2
-0.870931 -0.498987 -1.266658 82 57 28 7 2
-0.855784 -0.528770 -1.270409 86 55 30 7 2
-0.929105 -0.657249 -0.959774 254 255 220 7 2
-1.061168 -0.868155 -0.949049 255 255 255 7 2
-0.749767 -0.699080 -1.246590 98 64 27 7 2
-0.801668 -0.585404 -0.968409 255 254 187 7 2
-0.777049 -0.676555 -1.394711 47 31 25 2 3
-0.813476 -0.673594 -1.392988 57 38 27 2 3
-0.805618 -0.658268 -1.392810 49 33 22 2 3
-0.566168 -0.790405 -0.969907 254 253 184 7 2
-0.773154 -0.840324 -1.381669 35 20 12 2 3
-0.770550 -0.831876 -1.383162 36 19 13 2 3
-0.782953 -0.850230 -1.381905 42 27 16 2 3
-0.885793 -0.801404 -0.957827 254 255 236 7 2
-0.865362 -0.786860 -0.959023 255 255 242 7 2
-0.607335 -0.750390 -0.969557 255 252 183 7 2
-0.594896 -0.724740 -0.972512 255 252 183 7 2
-1.016599 -1.275285 -0.936053 255 255 255 7 2
-0.996314 -1.269792 -0.936877 255 255 255 7 2
-0.997977 -1.282694 -0.934871 255 255 255 7 2
-0.985263 -1.280393 -0.938298 252 253 246 7 2
-0.603830 -0.931469 -1.360307 97 60 26 7 2
-0.624565 -0.893268 -1.363734 94 61 26 7 2
-0.605123 -0.923375 -1.375153 82 50 23 7 2
-0.611384 -0.915710 -1.362661 91 57 23 7 2
-1.053850 -0.912294 -1.360034 35 31 26 2 3
-1.061033 -0.926411 -1.355764 39 32 21 2 3
-1.076351 -0.906349 -1.359387 40 32 24 2 3
-0.718257 -1.074786 -1.371557 62 35 23 2 3
-0.706113 -1.095334 -1.374894 54 29 20 2 3
-0.596989 -0.940177 -1.273492 103 67 35 7 2
-0.594163 -0.938087 -1.245884 103 66 31 7 2
-0.599072 -0.933488 -1.148172 109 70 23 7 2
-0.607013 -0.919958 -1.140881 105 70 34 7 2
-0.596894 -0.935486 -1.114661 104 68 40 7 2
-0.604223 -0.920537 -1.116046 101 70 48 7 2
-1.017160 -0.869184 -1.366504 57 41 19 2 3
-1.039252 -0.856241 -1.367600 58 42 21 2 3
-1.017023 -0.844750 -1.369671 40 32 26 2 3
-1.028852 -0.848872 -1.366822 45 36 26 2 3
-0.816221 -0.582736 -1.251188 93 59 26 7 2
-0.981793 -0.908780 -0.951115 255 255 255 7 2
-1.031256 -1.120408 -1.339748 46 29 19 2 3
-1.036652 -1.113975 -1.341181 46 29 19 2 3
-1.043108 -1.108783 -1.339606 46 35 21 2 3
-1.019969 -1.107510 -1.345254 51 40 24 2 3
-1.047688 -1.106202 -1.342125 42 43 23 2 3
-0.884193 -1.042928 -1.368226 69 49 21 2 3
-0.868381 -0.994626 -1.371065 50 31 19 2 3
-0.857089 -1.015987 -1.371447 51 33 17 2 3
-0.961509 -0.949505 -1.368418 29 17 19 2 3
-0.952312 -0.962390 -1.367042 74 51 32 2 3
-0.632974 -0.603817 -1.384179 67 41 28 2 3
-0.640640 -0.586692 -1.384174 63 41 24 2 3
-0.650243 -0.590586 -1.384312 79 57 33 2 3
-0.633652 -0.629355 -1.386016 73 50 26 2 3
-1.057769 -0.574883 -1.380645 38 29 41 2 3
-1.058780 -0.556977 -1.382015 39 31 47 2 3
-1.067262 -0.547551 -1.383017 39 31 47 2 3
-1.045678 -0.545594 -1.382931 47 49 57 2 3
-0.705168 -1.002217 -0.958538 254 255 218 7 2
-0.723633 -0.976900 -0.959292 254 255 217 7 2
-0.717168 -0.947404 -0.960447 254 254 218 7 2
-0.851950 -0.636514 -1.390223 35 32 27 2 3
-1.102538 -0.544918 -1.376853 34 28 39 2 3
-1.021275 -0.778936 -0.952046 255 255 255 7 2
-1.036168 -0.800530 -0.951035 255 255 255 7 2
-1.008418 -0.830030 -0.952051 255 255 255 7 2
-1.108129 -0.954151 -0.945201 255 255 255 7 2
-1.138480 -0.970873 -0.943186 255 255 255 7 2
-0.627320 -0.882585 -1.114411 103 64 27 7 2
-0.614919 -0.907889 -1.099106 106 65 30 7 2
-0.631646 -0.878196 -1.101174 103 68 29 7 2
-0.617012 -0.894913 -1.084582 109 71 35 7 2
-0.853037 -1.202671 -0.944484 255 255 255 7 2
-0.857940 -1.185214 -0.946007 255 255 255 7 2
-0.835928 -1.176332 -0.947441 255 255 255 7 2
-0.553251 -1.028496 -0.961620 254 254 184 7 2
-0.524095 -1.005411 -0.964355 255 254 188 7 2
-1.039293 -1.011780 -0.945976 255 255 255 7 2
-0.787668 -0.693155 -0.964719 254 254 203 7 2
-0.887044 -0.881546 -1.385179 44 35 31 2 3
-0.894284 -0.894079 -1.380765 45 36 38 2 3
-0.907537 -0.870656 -1.380847 51 42 38 2 3
-0.906046 -0.901057 -1.377011 47 38 34 2 3
-0.810577 -0.651002 -1.209870 42 35 35 7 2
-0.794261 -0.659238 -1.209824 58 36 26 7 2
-0.789745 -0.678895 -1.208261 48 32 23 7 2
-0.801535 -0.669054 -1.209665 49 32 31 7 2
-0.815996 -0.683169 -1.221215 34 26 42 7 2
-1.027003 -0.585865 -1.383060 35 31 47 2 3
-1.036221 -0.575993 -1.386054 37 33 47 2 3
-1.040414 -0.564230 -1.389707 21 23 26 2 3
-1.088957 -1.250983 -0.935042 255 255 255 7 2
-1.123168 -1.227905 -0.934266 255 255 255 7 2
-1.090900 -1.226998 -0.935966 255 255 255 7 2
-1.012762 -0.748030 -0.953143 255 255 253 7 2
-0.921612 -0.636207 -1.375789 61 39 21 2 3
-0.924765 -0.629482 -1.368675 54 32 23 2 3
-0.561318 -0.777886 -1.013646 106 65 31 7 2
-0.551774 -0.798326 -1.014334 120 79 34 7 2
-0.555843 -0.778574 -1.008105 170 126 62 7 2
-0.543264 -0.804160 -1.007771 137 95 46 7 2
-0.550143 -0.778495 -0.997357 171 126 59 7 2
-1.156543 -0.567029 -0.952649 255 254 212 7 2
-0.974668 -0.704405 -0.955504 255 255 247 7 2
-1.016168 -0.692655 -0.954732 255 255 227 7 2
-0.932458 -0.689507 -1.380111 38 30 13 7 2
-0.946637 -0.710761 -1.380843 50 39 16 2 3
-0.600981 -0.952370 -1.112903 62 37 27 7 2
-0.746168 -0.939655 -0.959539 254 255 222 7 2
-0.691439 -1.055072 -0.956743 254 254 217 7 2
-0.684168 -1.043405 -0.957651 255 255 206 7 2
-0.875418 -1.022780 -0.951252 255 255 255 7 2
-0.861375 -1.006224 -0.952032 255 255 255 7 2
-0.765607 -0.676206 -1.394562 52 40 29 2 3
-0.604834 -0.957046 -1.177960 63 41 27 7 2
-0.608711 -0.960814 -1.176707 66 42 28 7 2
-0.658290 -0.708114 -1.393697 71 47 19 2 3
-1.076546 -0.772919 -0.949851 255 255 255 7 2
-0.871883 -0.658761 -0.962280 255 254 211 7 2
-0.846668 -0.662905 -0.962808 254 255 206 7 2
-0.863168 -0.679280 -0.961558 255 255 201 7 2
-0.987855 -1.174530 -0.941609 255 255 255 7 2
-0.976150 -0.761166 -1.380038 33 30 42 2 3
-0.953850 -0.776326 -1.383985 44 38 51 2 3
-0.962501 -0.758606 -1.384274 44 38 48 2 3
-0.974990 -0.737064 -1.383930 30 27 41 2 3
-1.047012 -0.524498 -0.960006 254 255 213 7 2
-0.791454 -0.696644 -1.288392 92 60 28 7 2
-1.023104 -1.068122 -1.347844 48 42 25 2 3
-1.016384 -1.087164 -1.348360 38 34 26 2 3
-0.698707 -0.710499 -1.391656 44 24 22 2 3
-0.684720 -0.701399 -1.393353 47 27 20 2 3
-0.712675 -0.679024 -1.394341 77 60 26 2 3
-1.117168 -1.023905 -0.942476 255 255 255 7 2
-1.129081 -1.010872 -0.941623 255 255 255 7 2
-1.139418 -1.024155 -0.941154 255 255 255 7 2
-0.592925 -0.940763 -1.184959 68 43 24 7 2
-0.594027 -0.945869 -1.155131 69 45 29 7 2
-0.774623 -0.658975 -1.248751 101 63 30 7 2
-0.768038 -0.671340 -1.241169 101 63 30 7 2
-0.770663 -0.670393 -1.225282 102 65 26 7 2
-0.772319 -0.678298 -1.216962 74 45 24 7 2
-0.907606 -0.547965 -1.389558 73 51 25 2 3
-0.640261 -0.759624 -0.968151 254 253 189 7 2
-0.617168 -0.742404 -0.969123 254 253 189 7 2
-0.951318 -1.238181 -0.940027 255 255 255 7 2
-0.519735 -0.749581 -1.396055 66 37 16 2 3
-0.530581 -0.763878 -1.396270 67 38 23 2 3
-0.745668 -1.014655 -0.956995 255 255 243 7 2
-0.730949 -1.001303 -0.958065 254 255 222 7 2
-1.155730 -0.758530 -0.946968 255 255 255 7 2
-1.105168 -0.730155 -0.949893 255 255 255 7 2
-1.130168 -0.718405 -0.949619 255 255 255 7 2
-0.717591 -1.063615 -1.373710 65 51 45 2 3
-0.741716 -1.089923 -1.368094 75 61 51 2 3
-0.731504 -1.078837 -1.368583 79 65 51 2 3
-0.803790 -0.615856 -1.265818 84 54 25 7 2
-0.808912 -0.627110 -1.279320 48 36 26 7 2
-0.804057 -0.644891 -1.281755 83 58 35 7 2
-0.799439 -0.633683 -1.274357 70 51 35 7 2
-0.795995 -0.619161 -1.253143 92 62 25 7 2
-0.937168 -0.942405 -0.951434 255 255 255 7 2
-0.940983 -0.976981 -0.950636 255 255 255 7 2
-0.762259 -1.153992 -0.949286 254 254 215 7 2
-0.783565 -1.149336 -0.949646 255 255 248 7 2
-1.099168 -0.660405 -0.952347 255 255 240 7 2
-0.518743 -0.874583 -1.022105 82 57 34 7 2
-0.508848 -0.903095 -1.016654 79 60 35 7 2
-0.521143 -0.903296 -1.018626 80 58 35 7 2
-0.516303 -0.883763 -1.018498 66 40 22 7 2
-0.504870 -0.875619 -1.013458 67 39 23 7 2
-0.527490 -0.896997 -1.020051 78 56 31 7 2
-0.628965 -0.884022 -1.198485 105 65 27 7 2
-0.642426 -0.875717 -1.231550 89 55 26 7 2
-0.655096 -0.877532 -1.204856 69 44 19 7 2
-0.634401 -0.879554 -1.191941 95 60 25 7 2
-0.644008 -0.876605 -1.204942 66 39 20 7 2
-0.754819 -0.694902 -1.392667 50 34 22 2 3
-0.743733 -0.680949 -1.394765 48 32 22 2 3
-0.727231 -0.702627 -1.392110 70 54 28 2 3
-0.748367 -0.718391 -1.391443 49 30 18 2 3
-1.027998 -1.006454 -1.346260 37 27 22 2 3
-1.007374 -1.151859 -0.941098 255 255 255 7 2
-0.649043 -0.707717 -0.969893 255 255 190 7 2
-0.691530 -0.551812 -1.012079 137 98 45 7 2
-0.759351 -0.499552 -1.394381 44 25 14 2 3
-0.772031 -0.512372 -1.397011 46 27 16 2 3
-0.955762 -0.726655 -0.956054 255 255 245 7 2
-0.806554 -0.864439 -1.370825 35 20 12 2 3
-0.788296 -0.875151 -1.371349 49 32 23 2 3
-0.798866 -0.853232 -1.373476 50 39 32 2 3
-0.811409 -0.847334 -1.369005 56 40 32 2 3
-0.814593 -0.858199 -1.361597 38 23 12 2 3
-0.810625 -0.870269 -1.364084 34 19 12 2 3
-0.797044 -1.173173 -0.946761 255 255 242 7 2
-0.814066 -1.189635 -0.949088 255 254 226 7 2
-0.809467 -1.177794 -0.946477 253 255 240 7 2
-0.733657 -0.809733 -1.388437 46 29 22 2 3
-0.652510 -0.643470 -1.022264 91 64 32 7 2
-0.619395 -0.663262 -1.002367 132 94 45 7 2
-0.664935 -0.621926 -1.021441 117 86 41 7 2
-0.623067 -0.663286 -1.008210 136 98 46 7 2
-0.648455 -0.630831 -1.016161 106 71 34 7 2
-0.638048 -0.630831 -1.003059 162 123 61 7 2
-0.992031 -0.826754 -1.374816 49 45 43 2 3
-1.010559 -0.811790 -1.372175 46 39 37 2 3
-0.760891 -0.683486 -1.249382 101 65 31 7 2
-0.776352 -0.686452 -1.278053 89 59 30 7 2
-0.771395 -0.684379 -1.271844 96 63 24 7 2
-0.762868 -0.708290 -1.276766 80 52 24 7 2
-0.753633 -0.702230 -1.261939 71 46 24 7 2
-0.511407 -0.673601 -1.399035 77 45 23 2 3
-0.591922 -0.939608 -1.150557 70 49 29 7 2
-0.590708 -0.940292 -1.133634 83 57 32 7 2
-0.640297 -1.003935 -1.381937 87 70 38 2 3
-0.639982 -0.996859 -1.378574 90 69 42 2 3
-0.569943 -0.886461 -1.390457 94 72 33 2 3
-0.546686 -0.872262 -1.392852 74 45 22 2 3
-0.763251 -0.682108 -1.223430 99 63 26 7 2
-0.689812 -0.802573 -1.238850 103 68 27 7 2
-1.086072 -0.970160 -0.945213 255 255 255 7 2
-0.675668 -0.796780 -0.965975 255 254 197 7 2
-0.985814 -0.711183 -1.383524 34 37 51 2 3
-1.012748 -0.712968 -1.379140 21 29 46 2 3
-1.004570 -0.736472 -1.376824 34 41 50 2 3
-0.991264 -0.741831 -1.380897 26 35 50 2 3
-0.721168 -1.073405 -0.954632 254 255 215 7 2
-0.733764 -1.071572 -0.954643 254 255 225 7 2
-0.745168 -1.048405 -0.954910 254 255 223 7 2
-0.696121 -0.823720 -1.274356 61 37 22 7 2
-0.714981 -0.826987 -1.279114 74 49 26 7 2
-0.597075 -0.935724 -1.262802 100 65 27 7 2
-0.603276 -0.926545 -1.258946 95 62 26 7 2
-0.606370 -0.914856 -1.246578 92 62 24 7 2
-0.823601 -0.601511 -1.278499 60 35 16 7 2
-0.832173 -0.587011 -1.279074 72 51 32 7 2
-0.848621 -0.594641 -1.288973 54 37 24 7 2
-0.842670 -0.605021 -1.287377 62 45 30 7 2
-0.831067 -0.781408 -1.378950 51 44 23 2 3
-0.840600 -0.768783 -1.377983 44 28 20 2 3
-0.826081 -0.762691 -1.381916 42 28 21 2 3
-0.842472 -0.747372 -1.382855 32 17 13 2 3
-0.851862 -0.752838 -1.378045 41 27 22 2 3
-0.599858 -0.952217 -1.089070 72 42 25 7 2
-0.443106 -0.958498 -0.986288 139 105 50 7 2
-0.460619 -0.971326 -0.967123 255 248 173 7 2
-0.448539 -0.958557 -0.977602 206 172 93 7 2
-0.446307 -0.973325 -0.970233 251 235 149 7 2
-0.462718 -0.943748 -0.972087 253 245 166 7 2
-1.116780 -1.124559 -0.938166 255 255 255 7 2
-1.079404 -1.114668 -0.940103 255 255 255 7 2
-1.018945 -1.124214 -1.343752 68 45 19 2 3
-0.989506 -1.127251 -1.347211 60 42 20 2 3
-1.007361 -1.111469 -1.347146 68 46 20 2 3
-0.991068 -1.109090 -1.349145 67 48 22 2 3
-0.612418 -0.881390 -1.387864 51 37 19 2 3
-0.609119 -0.910270 -1.381297 60 35 22 7 2
-0.616010 -0.888580 -1.385414 58 35 20 2 3
-0.630545 -0.879272 -1.383742 52 34 20 2 3
-0.621614 -0.892648 -1.379136 59 35 21 7 2
-0.691888 -1.071250 -1.375938 56 29 19 2 3
-0.864168 -0.954404 -0.953934 255 255 255 7 2
-0.861015 -0.971712 -0.953883 255 255 255 7 2
-1.027668 -1.237405 -0.937598 255 255 255 7 2
-0.742635 -0.827414 -0.963301 254 254 200 7 2
-0.771155 -0.813331 -0.961740 255 255 207 7 2
-0.723418 -0.798592 -0.964139 253 253 199 7 2
-1.050603 -0.893502 -0.948579 255 255 255 7 2
-1.076597 -0.871679 -0.948707 255 255 255 7 2
-0.882946 -0.780075 -0.957978 254 255 238 7 2
-0.859918 -0.766655 -0.959823 254 255 232 7 2
-1.062612 -1.102562 -1.342087 33 29 22 2 3
-0.857397 -0.621952 -1.244783 45 43 53 7 2
-0.956182 -0.522627 -0.963664 255 254 195 7 2
-0.968654 -0.507530 -0.963999 254 254 196 7 2
-1.050412 -0.896941 -1.363229 26 26 28 2 3
-1.023944 -0.893218 -1.366366 21 21 27 2 3
-1.026977 -0.878411 -1.367804 59 48 32 2 3
-0.829315 -0.573468 -1.392492 59 45 29 2 3
-0.822695 -0.560462 -1.394067 67 49 29 2 3
-0.846184 -0.578654 -1.392587 38 36 26 2 3
-1.075195 -0.690087 -0.952998 255 255 248 7 2
-1.057168 -0.702405 -0.952877 255 255 250 7 2
-1.048326 -0.688676 -0.954280 255 255 247 7 2
-0.537136 -0.874874 -0.967945 254 253 182 7 2
-1.003698 -1.029169 -0.946160 255 255 255 7 2
-0.684182 -0.818994 -0.965325 255 254 201 7 2
-0.831168 -0.522405 -0.969415 255 255 182 7 2
-0.851066 -0.489693 -0.970294 253 254 177 7 2
-0.852161 -1.203601 -1.350931 68 42 33 2 3
-0.824056 -1.196764 -1.361888 76 63 49 2 3
-0.850117 -1.213631 -1.354542 75 51 33 2 3
-0.837550 -1.197560 -1.357529 83 70 56 2 3
-1.093918 -0.634405 -0.953227 254 255 244 7 2
-1.119918 -0.601405 -0.953090 254 255 244 7 2
-0.771904 -0.580296 -1.394330 46 27 14 2 3
-0.771209 -0.560426 -1.395744 50 30 22 2 3
-0.753390 -0.570770 -1.395823 48 27 15 2 3
-1.060980 -0.507927 -1.379218 48 43 52 2 3
-1.074445 -0.504541 -1.387433 45 39 39 2 3
-1.076252 -0.494272 -1.381037 51 47 55 2 3
-0.573168 -0.825405 -0.968012 254 250 185 7 2
-0.593574 -0.842655 -0.967139 254 253 187 7 2
-0.597793 -0.803123 -0.968214 253 252 186 7 2
-0.661163 -0.931751 -0.962232 255 255 202 7 2
-0.638043 -0.956049 -0.962383 255 254 204 7 2
-0.642792 -0.919092 -0.963221 255 255 202 7 2
-0.772997 -0.651273 -0.966498 255 255 198 7 2
-0.617031 -0.907481 -1.340929 97 62 24 7 2
-0.628845 -1.080439 -0.958095 254 255 193 7 2
-0.879168 -0.488405 -0.969373 254 255 181 7 2
-0.863418 -0.494905 -0.969322 255 255 179 7 2
-0.834668 -0.624404 -0.965181 255 255 195 7 2
-0.809339 -0.607659 -0.967323 254 255 189 7 2
-0.789351 -0.833742 -1.382158 31 19 13 2 3
-0.765075 -0.824170 -1.382721 49 31 21 2 3
-1.054328 -0.806327 -1.366410 50 39 26 2 3
-1.063762 -0.796697 -1.367903 41 34 26 2 3
-1.046900 -0.780740 -1.370992 40 35 29 2 3
-0.598342 -0.911769 -1.387272 53 30 23 2 3
-0.778505 -0.668882 -1.271118 68 40 22 7 2
-0.794282 -0.648901 -1.274762 69 41 24 7 2
-0.767095 -0.677695 -1.258527 97 63 27 7 2
-1.108043 -0.787030 -0.948079 255 255 255 7 2
-1.060793 -0.715905 -1.375445 64 52 37 2 3
-1.036193 -0.690943 -1.377593 98 71 51 2 3
-1.073681 -0.693095 -1.374385 33 35 34 2 3
-0.806186 -1.131886 -0.950090 255 255 252 7 2
-0.881752 -0.705100 -1.368816 45 26 22 2 3
-0.816168 -0.727405 -0.962652 255 255 214 7 2
-0.795168 -0.718405 -0.964062 254 254 200 7 2
-0.884800 -0.575048 -1.240594 47 47 58 7 2
-0.842418 -0.565967 -0.967414 254 255 186 7 2
-1.036114 -0.730994 -1.378603 74 56 49 2 3
-0.563364 -0.814295 -1.393763 53 28 8 2 3
-0.540427 -0.826790 -1.393881 60 36 21 2 3
-0.591609 -0.905240 -0.965209 255 255 193 7 2
-0.767293 -0.505530 -0.973150 254 253 175 7 2
-1.024804 -0.829041 -1.368530 44 44 40 2 3
-1.032022 -0.816957 -1.368917 47 44 39 2 3
-0.748105 -0.658405 -0.967169 255 254 197 7 2
-0.950536 -1.018951 -0.948401 255 255 255 7 2
-0.933168 -1.025905 -0.948563 255 255 255 7 2
-0.692089 -0.873765 -1.386749 34 25 20 2 3
-0.676376 -0.864200 -1.386696 35 25 23 2 3
-0.682120 -0.843440 -1.387996 39 28 25 2 3
-0.658734 -0.872346 -1.387236 41 29 25 2 3
-0.956401 -0.500728 -1.385242 41 28 38 2 3
-0.971509 -0.511510 -1.379302 42 27 39 2 3
-0.874918 -1.083155 -0.949194 255 255 255 7 2
-0.661830 -0.757845 -1.392067 49 31 23 2 3
-0.812293 -0.832405 -0.959771 254 255 228 7 2
-0.702885 -0.881018 -1.218015 53 41 28 7 2
-0.810807 -1.007490 -1.381487 61 45 34 2 3
-0.679779 -0.889579 -1.092951 47 34 24 7 2
-0.682029 -0.894238 -1.104779 59 43 20 7 2
-0.672613 -0.886919 -1.118553 70 49 27 7 2
-0.693995 -0.904077 -1.119454 63 43 20 7 2
-0.667161 -0.882283 -1.101914 62 45 27 7 2
-0.688187 -0.897455 -1.113726 67 44 24 7 2
-0.662239 -0.880626 -1.088637 63 43 20 7 2
-0.675675 -0.783716 -1.389597 67 50 23 2 3
-0.651743 -0.793117 -1.390440 68 50 23 2 3
-0.636728 -0.790443 -1.390582 60 42 20 2 3
-0.567230 -0.908499 -0.965827 254 254 187 7 2
-0.546043 -0.903155 -0.966937 254 254 186 7 2
-1.064418 -0.947905 -0.947088 255 255 255 7 2
-0.618395 -1.089567 -0.991139 188 179 143 7 2
-1.094355 -1.087155 -0.940887 255 255 255 7 2
-0.675624 -0.893341 -1.137096 65 44 24 7 2
-0.682400 -0.900466 -1.178056 67 45 25 7 2
-0.686761 -0.903682 -1.154543 65 45 22 7 2
-0.667396 -0.901958 -1.191577 71 51 38 7 2
-0.668277 -0.902770 -1.171680 82 55 36 7 2
-0.668265 -0.893569 -1.183857 67 50 31 7 2
-0.725908 -0.674098 -1.396233 56 37 22 2 3
-0.706617 -0.656953 -1.394622 57 35 21 2 3
-0.694757 -0.673669 -1.394702 79 59 27 2 3
-0.887974 -1.227562 -0.969269 241 247 250 7 2
-0.887045 -1.238720 -0.960799 254 254 253 7 2
-0.579296 -1.069423 -0.994828 218 209 149 7 2
-1.009293 -1.184405 -0.940346 255 255 255 7 2
-0.566918 -1.004780 -0.962698 254 254 186 7 2
-0.651770 -1.002393 -1.373628 84 68 36 2 3
-0.654596 -1.011530 -1.376681 84 69 38 2 3
-0.596044 -0.973794 -0.962931 255 255 195 7 2
-0.761777 -1.111363 -1.368647 71 54 52 2 3
-0.774078 -1.122541 -1.366668 68 45 48 2 3
-0.757795 -1.098178 -1.368396 66 47 47 2 3
-1.002668 -0.997905 -0.947521 255 255 255 7 2
-0.698320 -0.947710 -0.960857 254 255 210 7 2
-0.698168 -0.632905 -0.970008 254 251 183 7 2
-0.833228 -1.210677 -0.963889 254 254 245 7 2
-0.862606 -1.224884 -0.964990 255 255 254 7 2
-0.841197 -1.208081 -0.969960 254 255 255 7 2
-0.822573 -1.203089 -0.969455 254 254 254 7 2
-0.468515 -0.923654 -1.001882 139 108 55 7 2
-0.852086 -0.734905 -0.960567 254 255 222 7 2
-0.881918 -0.706405 -0.959828 255 255 238 7 2
-0.877168 -0.738904 -0.959462 254 255 223 7 2
-0.710948 -0.875071 -1.233831 51 41 36 7 2
-0.698093 -0.901508 -1.232616 54 44 36 7 2
-0.638743 -0.989451 -1.368659 75 54 27 7 2
-0.631573 -0.977832 -1.351178 56 30 18 7 2
-0.549618 -0.583122 -1.402530 76 49 22 2 3
-0.542566 -0.606155 -1.401831 86 63 30 2 3
-0.558058 -0.616926 -1.398216 77 54 28 2 3
-0.688036 -0.904593 -1.172831 63 42 21 7 2
-0.677482 -0.904364 -1.177851 66 44 27 7 2
-0.687799 -0.907467 -1.187791 59 40 22 7 2
-0.462478 -1.006465 -0.992605 252 250 173 7 2
-0.465782 -0.999125 -1.009830 91 72 56 7 2
-0.897418 -0.850154 -0.955883 255 255 254 7 2
-0.824764 -0.647095 -1.214314 34 28 36 7 2
-0.802388 -0.649313 -1.209220 51 37 40 7 2
-0.815535 -0.625130 -1.208949 49 37 37 7 2
-0.791070 -0.979948 -1.374811 29 25 20 2 3
-0.784393 -0.645705 -1.221487 95 59 24 7 2
-0.788317 -0.632594 -1.246892 91 59 34 7 2
-0.790636 -0.632010 -1.224325 98 60 29 7 2
-0.798312 -0.628596 -1.215563 55 42 46 7 2
-0.653843 -0.818201 -0.966120 255 254 195 7 2
-0.969543 -0.808467 -0.954206 255 255 251 7 2
-0.663072 -0.524398 -1.384021 44 32 35 2 3
-0.737989 -0.866969 -1.381773 40 26 19 2 3
-0.735605 -0.843563 -1.386426 48 30 21 2 3
-0.755681 -0.851074 -1.382113 56 35 21 2 3
-0.748265 -0.855113 -1.381416 45 27 17 2 3
-0.758145 -0.867772 -1.379910 43 24 18 2 3
-0.748829 -0.517353 -1.027375 52 42 40 7 2
-1.008404 -1.056374 -1.350700 48 33 18 2 3
-1.021694 -1.022426 -1.346072 44 28 19 2 3
-1.035254 -1.058987 -1.345244 52 39 23 2 3
-1.025009 -1.042381 -1.345498 53 41 21 2 3
-0.838590 -1.015780 -0.953248 255 255 255 7 2
-0.911932 -1.252622 -0.956167 254 253 250 7 2
-0.891306 -1.231700 -0.944965 254 253 246 7 2
-0.900400 -1.229413 -0.940209 255 255 255 7 2
-0.781105 -0.627780 -1.394590 49 31 22 2 3
-0.764253 -0.663017 -1.395143 45 24 21 2 3
-0.695353 -0.526461 -0.996420 171 132 63 7 2
-0.715999 -0.498398 -1.007451 121 85 34 7 2
-0.732085 -0.839513 -1.232766 60 41 30 7 2
-0.839905 -0.542792 -1.393085 56 41 22 2 3
-0.822148 -0.541235 -1.393265 59 40 26 2 3
-0.851190 -0.524426 -1.394404 47 39 27 2 3
-0.845025 -0.553558 -1.392509 39 37 28 2 3
-0.990667 -0.730815 -1.381795 26 27 44 2 3
-0.949630 -0.721566 -1.390873 23 20 21 2 3
-0.961682 -0.729055 -1.382463 44 37 47 2 3
-0.971868 -0.713957 -1.382621 26 28 44 2 3
-0.962674 -0.717952 -1.386993 43 38 48 2 3
-0.954679 -0.737266 -1.381221 38 33 41 2 3
-0.900954 -0.664130 -1.377530 42 35 23 2 3
-0.893501 -0.683717 -0.959901 254 255 221 7 2
-0.689975 -1.036669 -1.376477 70 55 41 2 3
-0.704573 -1.053232 -1.375658 63 48 46 2 3
-0.700449 -1.062131 -1.373299 78 62 29 2 3
-0.696871 -0.893779 -1.385115 59 42 27 2 3
-0.718655 -0.887945 -1.383351 58 45 24 2 3
-0.714569 -0.908809 -1.380533 66 54 27 2 3
-0.700060 -0.906708 -1.379764 65 53 27 7 2
-0.922359 -0.789024 -1.385643 58 53 50 2 3
-0.925187 -0.797131 -1.384708 43 29 29 2 3
-0.937006 -0.804343 -1.384906 48 40 42 2 3
-0.944687 -0.790921 -1.383097 49 44 49 2 3
-0.515581 -0.910647 -1.020464 79 59 32 7 2
-0.514950 -0.927057 -1.013181 104 74 39 7 2
-0.760487 -0.535954 -0.971786 254 254 182 7 2
-0.784586 -0.531394 -0.971816 254 253 184 7 2
-0.625717 -0.888405 -1.274852 100 64 29 7 2
-0.620330 -0.895825 -1.269602 106 67 32 7 2
-0.846512 -0.528034 -1.247344 101 64 27 7 2
-0.839736 -0.543917 -1.221719 97 62 28 7 2
-0.851108 -0.530110 -1.216445 87 57 35 7 2
-0.699080 -0.838126 -1.203980 55 32 18 7 2
-0.700437 -0.822292 -1.204778 56 36 14 7 2
-0.716782 -0.828091 -1.208289 54 33 18 7 2
-0.717587 -0.811632 -1.206151 57 33 22 7 2
-0.918397 -0.881760 -1.377498 56 48 40 2 3
-1.041668 -0.729280 -0.952616 255 255 255 7 2
-0.960168 -1.174405 -0.942649 255 255 255 7 2
-0.960918 -1.158499 -0.942944 255 255 255 7 2
-0.643872 -0.883511 -1.312074 64 45 24 7 2
-0.646521 -0.885212 -1.357123 62 45 24 7 2
-0.637168 -0.882801 -1.319352 64 45 23 7 2
-0.572599 -0.723228 -1.394710 88 65 28 2 3
-0.681631 -1.098648 -0.955848 255 255 204 7 2
-1.080789 -1.048730 -1.341067 33 25 13 2 3
-1.083395 -1.032729 -1.341345 44 30 20 2 3
-1.045839 -1.288859 -0.934087 255 255 255 7 2
-1.073292 -1.301409 -0.933167 255 255 255 7 2
-1.049418 -1.257155 -0.935865 255 255 255 7 2
-0.610526 -0.959965 -1.248096 93 58 25 7 2
-0.602401 -0.953012 -1.236712 96 65 30 7 2
-0.608144 -0.960220 -1.216465 81 55 26 7 2
-0.609138 -0.959666 -1.236862 97 63 27 7 2
-0.596884 -0.946299 -1.228734 80 52 24 7 2
-0.635002 -0.871473 -1.091050 69 44 25 7 2
-0.636381 -0.873142 -1.065343 101 67 31 7 2
-1.134668 -0.781530 -0.947172 255 255 255 7 2
-1.124668 -0.749404 -0.948226 255 255 255 7 2
-0.783480 -0.615543 -0.968019 255 255 194 7 2
-0.750628 -0.628692 -0.968479 255 254 194 7 2
-0.642168 -0.795405 -0.966977 254 254 194 7 2
-0.961992 -0.553617 -1.371112 45 39 35 2 3
-0.973219 -0.536028 -1.371234 47 41 33 2 3
-0.977952 -0.525388 -1.371456 56 40 23 2 3
-0.853611 -1.211679 -0.948179 255 252 234 7 2
-0.835813 -1.206494 -0.953525 255 254 244 7 2
-0.841016 -1.199960 -0.945414 255 255 252 7 2
-0.829902 -1.191238 -0.945108 254 254 246 7 2
-0.525382 -0.854107 -1.013887 85 56 23 7 2
-0.505485 -0.860625 -1.006305 132 107 59 7 2
-0.510283 -0.863715 -1.013992 121 92 52 7 2
-0.521340 -0.844341 -1.012216 142 111 56 7 2
-0.723145 -0.816485 -1.283722 51 34 29 7 2
-0.713476 -0.826426 -1.284398 72 49 24 7 2
-0.703680 -0.831191 -1.281583 67 42 16 7 2
-0.975168 -0.857405 -1.373305 45 31 23 2 3
-0.992426 -0.839342 -1.373443 45 34 29 2 3
-1.009139 -0.858918 -1.369319 61 52 37 2 3
-0.668681 -1.062892 -1.379961 97 79 47 2 3
-0.652221 -1.059922 -1.380420 110 94 60 2 3
-0.656086 -1.039722 -1.381745 88 70 40 2 3
-0.873418 -0.927155 -0.955021 255 255 255 7 2
-0.734116 -1.106609 -0.952935 255 255 207 7 2
-0.619603 -0.896784 -1.199537 114 73 31 7 2
-0.618811 -0.896994 -1.185964 104 66 27 7 2
-0.911574 -0.920749 -0.953583 255 255 255 7 2
-0.875918 -0.880905 -0.956173 255 255 254 7 2
-0.811897 -0.694400 -1.390752 60 44 23 2 3
-0.799210 -0.689082 -1.392284 57 45 29 2 3
-0.777087 -0.690361 -1.392408 58 39 31 2 3
-0.771011 -0.953242 -1.363062 69 49 21 2 3
-0.763602 -0.962569 -1.365179 60 40 14 2 3
-0.772065 -0.950569 -1.364852 75 56 27 2 3
-0.760842 -0.951791 -1.368746 74 50 21 2 3
-0.777946 -0.943704 -1.368605 50 26 13 2 3
-0.696793 -0.867530 -0.962961 255 255 207 7 2
-0.723168 -0.893405 -0.961651 255 254 207 7 2
-0.945082 -1.077567 -0.946560 255 255 255 7 2
-1.091488 -0.871214 -1.362116 43 32 25 2 3
-1.090772 -0.900850 -1.356875 44 32 26 2 3
-1.075698 -0.887655 -1.360410 46 34 24 2 3
-0.867465 -1.220325 -1.346748 75 47 29 2 3
-0.801681 -1.145896 -1.364304 74 52 47 2 3
-0.814135 -1.157057 -1.360882 79 69 59 2 3
-0.576168 -0.962405 -0.963686 255 254 188 7 2
-0.561168 -0.932405 -0.965455 255 254 189 7 2
-0.629081 -0.660675 -1.013225 140 103 48 7 2
-0.609763 -0.679096 -1.000996 161 124 59 7 2
-0.890668 -0.652280 -0.961628 254 254 213 7 2
-0.717043 -0.541342 -0.973561 254 252 174 7 2
-0.700340 -0.518286 -0.991466 200 162 80 7 2
-0.707628 -0.523299 -0.977842 248 228 141 7 2
-0.657870 -0.887015 -1.378168 39 31 20 7 2
-0.683158 -0.896959 -1.382849 39 31 20 7 2
-0.674116 -0.887098 -1.386258 45 36 27 2 3
-0.495362 -0.987312 -0.965702 254 254 180 7 2
-0.969560 -0.820182 -1.378107 37 28 25 2 3
-1.024105 -0.592530 -0.957927 254 255 214 7 2
-1.121043 -0.907655 -0.945251 255 255 255 7 2
-0.992806 -0.665371 -1.390809 50 46 57 2 3
-1.000955 -0.655571 -1.386615 62 55 61 2 3
-0.980835 -0.689426 -1.388581 37 35 46 2 3
-0.988721 -0.673551 -1.387236 44 40 56 2 3
-1.006289 -0.668645 -1.384094 36 36 48 2 3
-1.093435 -0.958385 -1.354254 44 31 19 2 3
-1.103037 -0.942208 -1.351685 41 30 15 2 3
-0.740148 -0.933793 -1.375510 51 29 17 2 3
-0.736166 -0.921477 -1.378760 49 29 14 2 3
-0.758370 -0.923930 -1.371115 51 31 15 2 3
-0.949552 -1.030408 -1.358764 72 57 35 2 3
-0.973673 -1.008790 -1.352389 39 26 26 2 3
-0.987032 -1.033166 -1.354332 51 35 24 2 3
-0.971525 -1.024720 -1.355717 53 40 32 2 3
-0.701350 -0.917852 -1.345445 55 34 19 7 2
-0.694738 -0.913190 -1.337054 64 42 25 7 2
-0.812581 -0.611280 -1.215675 54 42 50 7 2
-0.863657 -0.585051 -1.219215 46 47 56 7 2
-0.860934 -0.563191 -1.210324 33 36 55 7 2
-0.618337 -0.896949 -1.131417 107 66 22 7 2
-0.823890 -0.792303 -1.377534 54 45 26 2 3
-0.750668 -0.844405 -0.961960 255 254 209 7 2
-0.722418 -0.827655 -0.963574 254 255 207 7 2
-0.792674 -0.780428 -1.383609 72 49 30 2 3
-0.806660 -0.805585 -1.381896 56 42 18 2 3
-0.791953 -0.813462 -1.381326 38 28 16 2 3
-0.808812 -0.793833 -1.382049 50 33 21 2 3
-0.782552 -0.810400 -1.383546 44 32 20 2 3
-0.910089 -1.064712 -1.363698 57 37 24 2 3
-0.939335 -1.095920 -1.356769 62 43 27 2 3
-0.915188 -1.081048 -1.360011 65 45 30 2 3
-0.963168 -1.192405 -0.941328 255 255 255 7 2
-1.027102 -1.139405 -0.941115 255 255 255 7 2
-0.998614 -1.132974 -0.942582 255 255 255 7 2
-1.038168 -1.110405 -0.942114 255 255 255 7 2
-1.048980 -1.102580 -0.941442 255 255 255 7 2
-0.842712 -0.819246 -1.365290 33 17 9 2 3
-0.831398 -0.817873 -1.371825 56 38 19 2 3
-0.843458 -0.830444 -1.367500 56 41 18 2 3
-0.833567 -0.827153 -1.367757 45 27 11 2 3
-0.836942 -0.813870 -1.368485 40 21 13 2 3
-1.037948 -0.796915 -1.369417 48 39 34 2 3
-1.050660 -0.597007 -1.379641 37 37 50 2 3
-1.070992 -0.597268 -1.376512 30 27 44 2 3
-1.069318 -0.586071 -1.379493 44 33 42 2 3
-0.740902 -0.970170 -0.959013 255 255 231 7 2
-0.649388 -0.871986 -1.254511 91 59 27 7 2
-0.653463 -0.875559 -1.268932 78 53 29 7 2
-0.648610 -0.878630 -1.272906 81 55 25 7 2
-0.644634 -0.876652 -1.261871 85 56 31 7 2
-0.634254 -0.879463 -1.272395 80 56 28 7 2
-0.579425 -0.497845 -1.394177 101 75 26 2 3
-0.589004 -0.507480 -1.398189 89 65 32 2 3
-0.886388 -0.544052 -1.391686 65 48 29 2 3
-0.879668 -0.532155 -1.392242 51 40 27 2 3
-0.858187 -0.539717 -1.393431 43 37 28 2 3
-0.851052 -0.611026 -0.965642 253 254 191 7 2
-0.885512 -0.603467 -0.963786 255 255 194 7 2
-0.874945 -0.581655 -0.965352 255 254 192 7 2
-0.857816 -0.590788 -0.966351 254 255 191 7 2
-0.543555 -1.053129 -0.984194 248 247 180 7 2
-0.553473 -1.037689 -0.961075 254 254 188 7 2
-0.538804 -1.043518 -0.974666 247 241 166 7 2
-0.560875 -1.060339 -0.993667 226 220 160 7 2
-0.758246 -0.724013 -1.209175 60 41 23 7 2
-0.792030 -0.714230 -1.215079 52 38 32 7 2
-0.773560 -0.739242 -1.213111 51 44 28 7 2
-0.767938 -0.729508 -1.209625 56 43 28 7 2
-0.880169 -1.229167 -0.949529 253 251 237 7 2
-0.886363 -1.237708 -0.956912 254 254 247 7 2
-0.858855 -1.223432 -0.959404 255 253 249 7 2
-0.885859 -0.527915 -1.212538 51 50 63 7 2
-0.663668 -0.877405 -0.963823 255 255 207 7 2
-0.822668 -1.056905 -0.952456 255 255 255 7 2
-0.851168 -1.041905 -0.951907 255 255 255 7 2
-0.825293 -1.029155 -0.953584 255 255 255 7 2
-0.598281 -0.952198 -1.139968 75 49 25 7 2
-0.602947 -0.955198 -1.121038 77 55 41 7 2
-0.606590 -0.959723 -1.133210 80 54 33 7 2
-0.602915 -0.956340 -1.160553 80 52 33 7 2
-1.074375 -1.338189 -0.948612 251 247 230 7 2
-1.075641 -1.326398 -0.956810 251 253 254 7 2
-1.065034 -1.329440 -0.952829 250 252 253 7 2
-1.064372 -1.317749 -0.958674 252 254 255 7 2
-1.052416 -1.321461 -0.938085 251 245 226 7 2
-1.058658 -1.331202 -0.947620 254 251 236 7 2
-1.062376 -0.946854 -1.357589 42 32 23 2 3
-1.042742 -0.936554 -1.358740 47 32 25 2 3
-1.073623 -0.960482 -1.355324 39 28 19 2 3
-1.051168 -1.170405 -0.939277 255 255 255 7 2
-1.083595 -1.324845 -0.930219 255 255 252 7 2
-1.061633 -1.315986 -0.930978 255 254 255 7 2
-1.086400 -1.332189 -0.931231 254 252 240 7 2
-1.108615 -1.332366 -0.928311 255 255 255 7 2
-1.099345 -1.316876 -0.931526 255 255 255 7 2
-1.113315 -1.307813 -0.930599 255 255 255 7 2
-1.141662 -1.268097 -0.932270 254 255 254 7 2
-1.133335 -1.247025 -0.932778 254 254 254 7 2
-1.139077 -1.286000 -0.933031 254 254 253 7 2
-1.127957 -1.282959 -0.931419 255 255 254 7 2
-1.120418 -1.258905 -0.933395 255 255 255 7 2
-1.121433 -1.313654 -0.932082 250 255 255 7 2
-0.997853 -0.012764 -1.003297 151 137 86 7 2
-1.011250 0.010625 -1.005464 141 126 80 7 2
-0.999565 0.001664 -0.993895 135 100 61 7 2
-0.833622 -0.200954 -1.390505 74 52 43 2 3
-0.818590 -0.158617 -1.398912 114 95 56 2 3
-0.801760 -0.178043 -1.401041 112 88 47 2 3
-0.777099 -0.190423 -1.402732 116 93 55 2 3
-0.867723 -0.308121 -1.026726 111 96 56 7 2
-1.071093 -0.189563 -1.369546 61 41 32 7 2
-1.049217 -0.176375 -1.343670 60 46 30 7 2
-1.046843 -0.166899 -1.369557 59 40 27 7 2
-1.057722 -0.180417 -1.370921 55 39 29 7 2
-1.047992 -0.173331 -1.383520 54 41 29 2 3
-0.565583 -0.462946 -1.388188 101 70 24 2 3
-0.544358 -0.443192 -1.391351 92 59 25 2 3
-0.605411 -0.376469 -1.395905 86 53 24 2 3
-1.038099 -0.106215 -1.390442 78 49 37 2 3
-1.051207 -0.131080 -1.387950 43 28 32 2 3
-1.073669 -0.105968 -1.379050 82 59 40 7 2
-1.062969 -0.112330 -1.385239 78 58 43 2 3
-1.061895 -0.120110 -1.378751 84 57 35 7 2
-1.000822 -0.316452 -1.391120 56 46 35 2 3
-0.988178 -0.299058 -1.391217 39 28 24 2 3
-0.720351 -0.301858 -1.403694 107 85 50 2 3
-0.727168 -0.281405 -1.403689 108 84 52 2 3
-0.873683 -0.485147 -1.393827 37 22 19 2 3
-0.872317 -0.472763 -1.393139 43 22 20 2 3
-0.854558 -0.499934 -1.394121 50 32 19 2 3
-0.749109 -0.490481 -1.022197 55 49 44 7 2
-0.856841 -0.152148 -1.393028 93 66 45 2 3
-0.875823 -0.151958 -1.396105 73 49 38 2 3
-0.924397 -0.420668 -1.278315 73 52 41 7 2
-0.943580 -0.410112 -1.283216 69 51 44 7 2
-0.941832 -0.423461 -1.286196 64 47 38 7 2
-1.104671 -0.284655 -0.960977 255 254 197 7 2
-0.801318 -0.402712 -1.023191 49 37 32 7 2
-0.791001 -0.392653 -1.022240 74 60 54 7 2
-0.909168 -0.486405 -0.967790 254 255 180 7 2
-0.956098 -0.480905 -0.965544 255 255 192 7 2
-0.951168 -0.453405 -0.965928 255 255 192 7 2
-0.986105 -0.485592 -0.964025 254 254 183 7 2
-1.045887 -0.035405 -0.966550 255 255 185 7 2
-0.847863 -0.473869 -1.395164 60 44 25 2 3
-0.840365 -0.441748 -1.395574 65 47 31 2 3
-1.044728 -0.160077 -1.348937 94 59 31 7 2
-1.051772 -0.142655 -1.334727 98 60 34 7 2
-0.953675 -0.082313 -0.991444 170 133 91 7 2
-0.956477 -0.084205 -0.978011 206 175 110 7 2
