ply
format ascii 1.0
element vertex 1091
property float x
property float y
property float z
property uchar red
property uchar green
property uchar blue
property uchar semantic_label
property uchar instance_label
end_header
-0.153895 -0.796056 -0.028985 255 0 255 77 69
-0.159174 -0.713449 -0.093528 255 0 255 77 69
-0.231433 -0.742889 -0.012528 255 0 255 77 69
-0.138805 -0.785789 -0.015528 255 0 255 77 69
-0.137152 -0.766201 -0.093528 255 0 255 77 69
-0.129335 -0.732060 -0.090528 255 0 255 77 69
-0.186003 -0.693671 -0.069528 255 0 255 77 69
-0.157590 -0.706020 -0.081528 255 0 255 77 69
-0.168515 -0.752457 -0.105528 255 0 255 77 69
-0.234482 -0.748439 -0.018528 255 0 255 77 69
-0.180108 -0.705824 0.015491 255 0 255 77 69
-0.117736 -0.706368 -0.015528 255 0 255 77 69
-0.171882 -0.794541 -0.060528 255 0 255 77 69
-0.143923 -0.727140 0.020472 255 0 255 77 69
-0.162450 -0.744980 0.009854 255 0 255 77 69
-0.126270 -0.724543 -0.084528 255 0 255 77 69
-0.117398 -0.739372 -0.040993 255 0 255 77 69
-0.149326 -0.793096 -0.039528 255 0 255 77 69
-0.120216 -0.718347 0.005247 255 0 255 77 69
-0.174539 -0.755186 0.068472 255 0 255 77 69
-0.120791 -0.784344 -0.003445 255 0 255 77 69
-0.171004 -0.693903 -0.007890 255 0 255 77 69
-0.177933 -0.800392 -0.042528 255 0 255 77 69
-0.182960 -0.688795 -0.030528 255 0 255 77 69
-0.201042 -0.698104 -0.021528 255 0 255 77 69
-0.162580 -0.759979 -0.106437 255 0 255 77 69
-0.202465 -0.693628 -0.027528 255 0 255 77 69
-0.136545 -0.706204 -0.045528 255 0 255 77 69
-0.126530 -0.754293 -0.068059 255 0 255 77 69
-0.159737 -0.778004 -0.086166 255 0 255 77 69
-0.152938 -0.686388 -0.024528 255 0 255 77 69
-0.142389 -0.709153 -0.087528 255 0 255 77 69
-0.107205 -0.772462 -0.024528 255 0 255 77 69
-0.177474 -0.747849 0.001383 255 0 255 77 69
-0.185429 -0.804782 -0.003528 255 0 255 77 69
-0.168135 -0.708928 0.010158 255 0 255 77 69
-0.153162 -0.712059 -0.089216 255 0 255 77 69
-0.147066 -0.701141 -0.084528 255 0 255 77 69
-0.143925 -0.684974 -0.021528 255 0 255 77 69
-0.129726 -0.776849 -0.033528 255 0 255 77 69
-0.158962 -0.689048 -0.069528 255 0 255 77 69
-0.153303 -0.728229 -0.099528 255 0 255 77 69
-0.144764 -0.781135 -0.085755 255 0 255 77 69
-0.162953 -0.802779 -0.000528 255 0 255 77 69
-0.111758 -0.780549 -0.024528 255 0 255 77 69
-0.165515 -0.752548 0.065472 255 0 255 77 69
-0.105896 -0.754473 -0.051528 255 0 255 77 69
-0.129267 -0.724282 0.014472 255 0 255 77 69
-0.132738 -0.778240 -0.082211 255 0 255 77 69
-0.135119 -0.706217 0.008472 255 0 255 77 69
-0.117137 -0.709373 -0.053315 255 0 255 77 69
-0.182936 -0.686009 -0.039528 255 0 255 77 69
-0.129774 -0.782309 0.005472 255 0 255 77 69
-0.152936 -0.686148 -0.057528 255 0 255 77 69
-0.126817 -0.787292 -0.063132 255 0 255 77 69
-0.168173 -0.713326 -0.093528 255 0 255 77 69
-0.174253 -0.722481 0.014472 255 0 255 77 69
-0.115015 -0.709392 -0.036528 255 0 255 77 69
-0.181686 -0.744811 0.002472 255 0 255 77 69
-0.178240 -0.765843 0.008472 255 0 255 77 69
-0.150278 -0.725432 0.014472 255 0 255 77 69
-0.192068 -0.701110 -0.000528 255 0 255 77 69
-0.181280 -0.690813 -0.054528 255 0 255 77 69
-0.188925 -0.684745 -0.042236 255 0 255 77 69
-0.148951 -0.760098 -0.093528 255 0 255 77 69
-0.141922 -0.799160 -0.060858 255 0 255 77 69
-0.180931 -0.800109 -0.060528 255 0 255 77 69
-0.147110 -0.706112 0.015435 255 0 255 77 69
-0.123742 -0.778754 0.005472 255 0 255 77 69
-0.144622 -0.764734 -0.090528 255 0 255 77 69
-0.141975 -0.805314 -0.045528 255 0 255 77 69
-0.156764 -0.781031 0.010665 255 0 255 77 69
-0.126320 -0.730294 0.014547 255 0 255 77 69
-0.171737 -0.777899 -0.094408 255 0 255 77 69
-0.141988 -0.806868 -0.030528 255 0 255 77 69
-0.200084 -0.732650 0.017472 255 0 255 77 69
-0.126765 -0.781292 -0.069615 255 0 255 77 69
-0.114036 -0.784403 -0.033528 255 0 255 77 69
-0.154094 -0.688050 -0.063528 255 0 255 77 69
-0.126555 -0.757293 0.013365 255 0 255 77 69
-0.161086 -0.762991 -0.099528 255 0 255 77 69
-0.150819 -0.787412 -0.084528 255 0 255 77 69
-0.119053 -0.790360 -0.036528 255 0 255 77 69
-0.129079 -0.802273 -0.027528 255 0 255 77 69
-0.114503 -0.751397 0.006229 255 0 255 77 69
-0.343071 -0.815406 0.015995 0 255 0 89 70
-0.509507 -0.807953 -0.060528 0 255 0 89 70
-0.393048 -0.697965 -0.082759 0 255 0 89 70
-0.358097 -0.818275 -0.109882 0 255 0 89 70
-0.420256 -0.721728 0.033868 0 255 0 89 70
-0.303906 -0.746745 -0.054528 0 255 0 89 70
-0.421415 -0.854495 -0.036528 0 255 0 89 70
-0.263488 -0.759098 0.035472 0 255 0 89 70
-0.471909 -0.796281 0.021076 0 255 0 89 70
-0.336207 -0.716462 0.017640 0 255 0 89 70
-0.387781 -0.782014 0.066927 0 255 0 89 70
-0.312357 -0.821674 -0.051528 0 255 0 89 70
-0.348469 -0.746357 -0.109695 0 255 0 89 70
-0.415252 -0.835777 0.030251 0 255 0 89 70
-0.386981 -0.690382 -0.015528 0 255 0 89 70
-0.358457 -0.859593 -0.027528 0 255 0 89 70
-0.342084 -0.702323 -0.051528 0 255 0 89 70
-0.300785 -0.782774 -0.007530 0 255 0 89 70
-0.336652 -0.767460 0.045654 0 255 0 89 70
-0.314621 -0.785653 -0.093528 0 255 0 89 70
-0.376422 -0.855553 -0.078528 0 255 0 89 70
-0.372351 -0.732774 0.047472 0 255 0 89 70
-0.508012 -0.807966 -0.011114 0 255 0 89 70
-0.373389 -0.851690 0.017472 0 255 0 89 70
-0.428231 -0.793662 0.044472 0 255 0 89 70
-0.435151 -0.709598 -0.007805 0 255 0 89 70
-0.445224 -0.832515 -0.005069 0 255 0 89 70
-0.307459 -0.737714 -0.009528 0 255 0 89 70
-0.421510 -0.700717 -0.048528 0 255 0 89 70
-0.388819 -0.731003 -0.111528 0 255 0 89 70
-0.376096 -0.818118 0.046278 0 255 0 89 70
-0.322261 -0.837326 -0.012528 0 255 0 89 70
-0.334695 -0.839480 -0.081528 0 255 0 89 70
-0.354145 -0.709277 -0.090528 0 255 0 89 70
-0.384079 -0.701627 0.023472 0 255 0 89 70
-0.320800 -0.728597 -0.084528 0 255 0 89 70
-0.412998 -0.757793 0.050472 0 255 0 89 70
-0.314270 -0.782656 -0.045528 0 255 0 89 70
-0.314579 -0.791653 0.026472 0 255 0 89 70
-0.354140 -0.708720 -0.015528 0 255 0 89 70
-0.404889 -0.847868 -0.003528 0 255 0 89 70
-0.276524 -0.752984 0.001951 0 255 0 89 70
-0.345796 -0.783928 -0.111528 0 255 0 89 70
-0.376409 -0.692110 -0.051528 0 255 0 89 70
-0.317319 -0.746628 0.023472 0 255 0 89 70
-0.345940 -0.800380 0.047145 0 255 0 89 70
-0.327325 -0.729986 -0.036528 0 255 0 89 70
-0.321980 -0.805095 -0.021528 0 255 0 89 70
-0.340294 -0.841031 -0.048528 0 255 0 89 70
-0.291356 -0.758855 -0.027528 0 255 0 89 70
-0.355254 -0.836301 -0.005002 0 255 0 89 70
-0.382501 -0.864470 -0.048528 0 255 0 89 70
-0.436970 -0.748583 0.032472 0 255 0 89 70
-0.335341 -0.809473 -0.090528 0 255 0 89 70
-0.369624 -0.764172 0.049032 0 255 0 89 70
-0.411073 -0.700808 0.008940 0 255 0 89 70
-0.348442 -0.743356 0.030991 0 255 0 89 70
-0.318574 -0.758618 -0.080141 0 255 0 89 70
-0.313071 -0.815668 0.008040 0 255 0 89 70
-0.442079 -0.815871 0.029472 0 255 0 89 70
-0.324175 -0.712796 -0.012528 0 255 0 89 70
-0.399938 -0.799909 0.046204 0 255 0 89 70
-0.354414 -0.836307 0.032472 0 255 0 89 70
-0.414035 -0.696468 -0.021528 0 255 0 89 70
-0.306453 -0.800724 -0.069528 0 255 0 89 70
-0.484058 -0.813379 0.002472 0 255 0 89 70
-0.363245 -0.720697 0.023472 0 255 0 89 70
-0.320077 -0.770605 0.008472 0 255 0 89 70
-0.495986 -0.805070 -0.036076 0 255 0 89 70
-0.388473 -0.861254 -0.021528 0 255 0 89 70
-0.371245 -0.791159 0.047472 0 255 0 89 70
-0.399388 -0.736911 0.040001 0 255 0 89 70
-0.334284 -0.839993 0.011472 0 255 0 89 70
-0.358285 -0.839906 -0.093528 0 255 0 89 70
-0.321716 -0.716588 -0.060528 0 255 0 89 70
-0.362611 -0.698231 0.008472 0 255 0 89 70
-0.301156 -0.773770 -0.066528 0 255 0 89 70
-0.388226 -0.833012 0.028080 0 255 0 89 70
-0.417099 -0.703756 -0.073972 0 255 0 89 70
-0.327626 -0.764538 -0.103735 0 255 0 89 70
-0.361398 -0.852831 -0.057528 0 255 0 89 70
-0.443610 -0.841529 -0.036528 0 255 0 89 70
-0.330378 -0.736002 0.002472 0 255 0 89 70
-0.361605 -0.707240 -0.066528 0 255 0 89 70
-0.315509 -0.751136 -0.030528 0 255 0 89 70
-0.362986 -0.690952 -0.030528 0 255 0 89 70
-0.425748 -0.841685 0.008472 0 255 0 89 70
-0.364466 -0.728216 -0.102528 0 255 0 89 70
-0.300549 -0.755775 0.006727 0 255 0 89 70
-0.450884 -0.793465 0.033704 0 255 0 89 70
-0.399007 -0.693224 -0.042528 0 255 0 89 70
-0.317214 -0.821631 -0.075528 0 255 0 89 70
-0.334137 -0.822991 -0.033528 0 255 0 89 70
-0.338246 -0.785447 0.029472 0 255 0 89 70
-0.301429 -0.800769 -0.033528 0 255 0 89 70
-0.342246 -0.720902 -0.072528 0 255 0 89 70
-0.323356 -0.794577 0.002472 0 255 0 89 70
-0.390519 -0.751989 0.056764 0 255 0 89 70
-0.376345 -0.846753 -0.006528 0 255 0 89 70
-0.328019 -0.809537 0.033818 0 255 0 89 70
-0.430365 -0.848747 -0.015528 0 255 0 89 70
-0.339285 -0.725436 -0.098659 0 255 0 89 70
-0.378154 -0.710096 -0.097314 0 255 0 89 70
-0.283445 -0.758924 0.023472 0 255 0 89 70
-0.486661 -0.811152 -0.063528 0 255 0 89 70
-0.400386 -0.851272 0.020472 0 255 0 89 70
-0.361018 -0.809249 0.031062 0 255 0 89 70
-0.340385 -0.851430 -0.014199 0 255 0 89 70
-0.418068 -0.814751 0.038954 0 255 0 89 70
-0.324404 -0.739036 -0.063528 0 255 0 89 70
-0.411780 -0.781805 0.054641 0 255 0 89 70
-0.333083 -0.702252 -0.030528 0 255 0 89 70
-0.337123 -0.821458 -0.004998 0 255 0 89 70
-0.318384 -0.767620 0.032472 0 255 0 89 70
-0.510842 -0.788456 -0.021528 0 255 0 89 70
-0.312718 -0.775175 -0.024528 0 255 0 89 70
-0.399218 -0.717344 0.029472 0 255 0 89 70
-0.312893 -0.824669 -0.027528 0 255 0 89 70
-0.390084 -0.702161 0.002472 0 255 0 89 70
-0.400604 -0.712900 -0.096528 0 255 0 89 70
-0.354756 -0.779302 0.054727 0 255 0 89 70
-0.297661 -0.768722 -0.045528 0 255 0 89 70
-0.397133 -0.822392 0.044472 0 255 0 89 70
-0.326453 -0.743548 -0.099528 0 255 0 89 70
-0.492898 -0.794989 -0.003528 0 255 0 89 70
-0.304578 -0.803741 -0.009528 0 255 0 89 70
-0.285688 -0.771724 0.005472 0 255 0 89 70
-0.320463 -0.803602 -0.042528 0 255 0 89 70
-0.400397 -0.852478 -0.036528 0 255 0 89 70
-0.315561 -0.757112 -0.009528 0 255 0 89 70
-0.364214 -0.831753 0.014472 0 255 0 89 70
-0.349268 -0.837916 -0.027528 0 255 0 89 70
-0.401320 -0.694893 -0.063528 0 255 0 89 70
-0.345246 -0.720877 -0.000528 0 255 0 89 70
-0.323579 -0.836577 -0.060528 0 255 0 89 70
-0.351577 -0.851332 -0.075528 0 255 0 89 70
-0.372681 -0.698143 -0.081528 0 255 0 89 70
-0.326604 -0.842550 -0.033528 0 255 0 89 70
-0.427422 -0.712666 0.011472 0 255 0 89 70
-0.357468 -0.746277 0.049831 0 255 0 89 70
-0.440690 -0.829555 0.014472 0 255 0 89 70
-0.361490 -0.704241 -0.045528 0 255 0 89 70
-0.378206 -0.716096 0.036108 0 255 0 89 70
-0.330339 -0.731514 0.029552 0 255 0 89 70
-0.330888 -0.794511 -0.103244 0 255 0 89 70
-0.343176 -0.827405 -0.097618 0 255 0 89 70
-0.315982 -0.805351 -0.087528 0 255 0 89 70
-0.355381 -0.850997 0.008472 0 255 0 89 70
-0.372087 -0.702516 -0.009528 0 255 0 89 70
-0.326461 -0.809550 -0.060528 0 255 0 89 70
-0.388471 -0.861037 -0.000528 0 255 0 89 70
-0.307529 -0.734713 -0.039528 0 255 0 89 70
-0.333561 -0.756963 0.026472 0 255 0 89 70
-0.317276 -0.782630 -0.072528 0 255 0 89 70
-0.357925 -0.798648 -0.114528 0 255 0 89 70
-0.290704 -0.746860 -0.012528 0 255 0 89 70
-0.314107 -0.764656 -0.054528 0 255 0 89 70
-0.331176 -0.827510 0.025624 0 255 0 89 70
-0.374667 -0.836131 -0.102528 0 255 0 89 70
-0.412542 -0.856801 -0.018528 0 255 0 89 70
-0.325753 -0.731553 -0.015528 0 255 0 89 70
-0.381033 -0.696345 -0.033528 0 255 0 89 70
-0.376371 -0.849740 -0.030528 0 255 0 89 70
-0.305059 -0.791737 0.008472 0 255 0 89 70
-0.386792 -0.842025 0.008472 0 255 0 89 70
-0.337709 -0.719449 -0.024528 0 255 0 89 70
-0.381965 -0.803066 0.057288 0 255 0 89 70
-0.346097 -0.818379 0.037727 0 255 0 89 70
-0.399664 -0.768513 0.059472 0 255 0 89 70
-0.308821 -0.743702 -0.072528 0 255 0 89 70
-0.345626 -0.764382 -0.112993 0 255 0 89 70
-0.347121 -0.722367 0.032472 0 255 0 89 70
-0.301625 -0.794767 -0.051528 0 255 0 89 70
-0.297072 -0.782806 -0.033528 0 255 0 89 70
-0.358422 -0.855586 -0.009528 0 255 0 89 70
-0.332359 -0.800499 0.017472 0 255 0 89 70
-0.285249 -0.767908 -0.012528 0 255 0 89 70
-0.366442 -0.743199 -0.113022 0 255 0 89 70
-0.366090 -0.702891 0.026472 0 255 0 89 70
-0.339095 -0.703550 -0.006528 0 255 0 89 70
-0.312395 -0.821674 -0.009528 0 255 0 89 70
-0.343413 -0.854619 -0.036528 0 255 0 89 70
-0.345088 -0.702786 -0.072528 0 255 0 89 70
-0.384061 -0.699516 -0.066528 0 255 0 89 70
-0.337746 -0.722449 -0.054528 0 255 0 89 70
-0.321522 -0.752591 0.007006 0 255 0 89 70
-0.323016 -0.713577 -0.042528 0 255 0 89 70
-0.350077 -0.761343 0.035472 0 255 0 89 70
-0.466031 -0.810218 0.011472 0 255 0 89 70
-0.511050 -0.812261 -0.042528 0 255 0 89 70
-0.373305 -0.842143 0.032562 0 255 0 89 70
-0.496785 -0.817064 -0.021528 0 255 0 89 70
-0.343018 -0.809406 -0.107324 0 255 0 89 70
-0.361018 -0.809249 0.049579 0 255 0 89 70
-0.348167 -0.711820 -0.036528 0 255 0 89 70
-0.364855 -0.737213 0.032472 0 255 0 89 70
-0.418784 -0.703741 -0.006528 0 255 0 89 70
-0.315850 -0.790236 -0.012528 0 255 0 89 70
-0.351129 -0.707493 0.017472 0 255 0 89 70
-0.370148 -0.824170 0.031270 0 255 0 89 70
-0.314341 -0.734653 0.008472 0 255 0 89 70
-0.402059 -0.699140 -0.009528 0 255 0 89 70
-0.342350 -0.732876 0.017472 0 255 0 89 70
-0.306680 -0.770722 -0.082266 0 255 0 89 70
-0.510907 -0.795940 -0.038019 0 255 0 89 70
-0.337818 -0.848453 -0.063528 0 255 0 89 70
-0.430183 -0.827835 0.029472 0 255 0 89 70
-0.317356 -0.794630 -0.057528 0 255 0 89 70
-0.345954 -0.801939 0.029472 0 255 0 89 70
-0.328150 -0.824536 -0.088535 0 255 0 89 70
-0.322197 -0.829991 0.005472 0 255 0 89 70
-0.372730 -0.776145 0.060351 0 255 0 89 70
-0.496091 -0.817070 -0.051030 0 255 0 89 70
-0.409292 -0.840450 0.011472 0 255 0 89 70
-0.338597 -0.785444 0.047472 0 255 0 89 70
-0.348030 -0.696125 -0.024528 0 255 0 89 70
-0.354835 -0.788302 0.040040 0 255 0 89 70
-0.311135 -0.728681 -0.024528 0 255 0 89 70
-0.324243 -0.720655 0.002472 0 255 0 89 70
-0.300455 -0.745055 -0.027528 0 255 0 89 70
-0.310514 -0.776688 0.020472 0 255 0 89 70
-0.375139 -0.708486 0.011472 0 255 0 89 70
-0.328163 -0.826056 -0.048528 0 255 0 89 70
-0.384362 -0.734042 0.034000 0 255 0 89 70
-0.327443 -0.743539 -0.083069 0 255 0 89 70
-0.332568 -0.815497 -0.075528 0 255 0 89 70
-0.375494 -0.749120 0.046226 0 255 0 89 70
-0.319892 -0.743605 -0.045528 0 255 0 89 70
-0.373476 -0.861601 -0.012528 0 255 0 89 70
-0.365854 -0.857209 -0.042528 0 255 0 89 70
-0.387847 -0.789575 0.050472 0 255 0 89 70
-0.326223 -0.782552 0.017472 0 255 0 89 70
-0.304032 -0.773745 0.005472 0 255 0 89 70
-0.362773 -0.845235 -0.021528 0 255 0 89 70
-0.349176 -0.827353 0.006982 0 255 0 89 70
-0.326391 -0.809552 -0.006528 0 255 0 89 70
-0.312337 -0.731420 -0.054528 0 255 0 89 70
-0.376473 -0.861344 -0.063528 0 255 0 89 70
-0.423437 -0.742343 0.038472 0 255 0 89 70
-0.314247 -0.791656 -0.030528 0 255 0 89 70
-0.495940 -0.799643 -0.018528 0 255 0 89 70
-0.330757 -0.779512 -0.098058 0 255 0 89 70
-0.303615 -0.763354 -0.018528 0 255 0 89 70
-0.352764 -0.725317 -0.090528 0 255 0 89 70
-0.486949 -0.800793 0.011472 0 255 0 89 70
-0.327215 -0.717386 -0.075528 0 255 0 89 70
-0.304553 -0.758740 -0.069528 0 255 0 89 70
-0.351599 -0.761329 0.051097 0 255 0 89 70
-0.388069 -0.815013 0.033992 0 255 0 89 70
-0.384650 -0.767041 0.055140 0 255 0 89 70
-0.358636 -0.713266 0.002472 0 255 0 89 70
-0.268321 -0.756055 0.020472 0 255 0 89 70
-0.315994 -0.806642 0.022295 0 255 0 89 70
-0.324117 -0.782570 0.035472 0 255 0 89 70
-0.319929 -0.770606 -0.090528 0 255 0 89 70
-0.400305 -0.841907 0.032964 0 255 0 89 70
-0.340189 -0.828958 -0.018528 0 255 0 89 70
-0.314004 -0.773657 -0.006528 0 255 0 89 70
-0.406121 -0.820856 0.031013 0 255 0 89 70
-0.337115 -0.752455 0.041472 0 255 0 89 70
-0.369009 -0.693537 -0.066528 0 255 0 89 70
-0.337216 -0.832055 -0.066528 0 255 0 89 70
-0.396031 -0.696093 -0.027528 0 255 0 89 70
-0.398189 -0.703920 0.017472 0 255 0 89 70
-0.337700 -0.731449 -0.084528 0 255 0 89 70
-0.304020 -0.809746 -0.045813 0 255 0 89 70
-0.321209 -0.716651 -0.027528 0 255 0 89 70
-0.346306 -0.842379 0.020908 0 255 0 89 70
-0.435963 -0.802595 0.034650 0 255 0 89 70
-0.351018 -0.694722 -0.039528 0 255 0 89 70
-0.414152 -0.709781 0.020968 0 255 0 89 70
-0.310128 -0.761691 0.017472 0 255 0 89 70
-0.306614 -0.763236 -0.033528 0 255 0 89 70
-0.511025 -0.809392 -0.027528 0 255 0 89 70
-0.412538 -0.709796 -0.087528 0 255 0 89 70
-0.312708 -0.728668 -0.069528 0 255 0 89 70
-0.360010 -0.693693 -0.015528 0 255 0 89 70
-0.314603 -0.746652 -0.090528 0 255 0 89 70
-0.297523 -0.752801 -0.042245 0 255 0 89 70
-0.299719 -0.791784 -0.021528 0 255 0 89 70
-0.414944 -0.800520 0.047472 0 255 0 89 70
-0.316966 -0.752631 -0.063528 0 255 0 89 70
-0.305662 -0.812732 -0.021528 0 255 0 89 70
-0.391371 -0.849592 -0.012528 0 255 0 89 70
-0.333456 -0.744982 0.017472 0 255 0 89 70
-0.326298 -0.794551 -0.087528 0 255 0 89 70
-0.419538 -0.850740 -0.003528 0 255 0 89 70
-0.329536 -0.818525 -0.018528 0 255 0 89 70
-0.356605 -0.821288 0.023472 0 255 0 89 70
-0.308215 -0.791709 -0.081528 0 255 0 89 70
-0.340359 -0.848431 0.000814 0 255 0 89 70
-0.353836 -0.848313 -0.045528 0 255 0 89 70
-0.321954 -0.802095 -0.072528 0 255 0 89 70
-0.339180 -0.713436 -0.084963 0 255 0 89 70
-0.321443 -0.743592 -0.008068 0 255 0 89 70
-0.354343 -0.731970 0.041472 0 255 0 89 70
-0.377996 -0.692096 -0.000878 0 255 0 89 70
-0.414035 -0.696453 -0.036528 0 255 0 89 70
-0.357887 -0.794276 0.053147 0 255 0 89 70
-0.360114 -0.705735 -0.030528 0 255 0 89 70
-0.349669 -0.713344 -0.060528 0 255 0 89 70
-0.361332 -0.845247 0.023099 0 255 0 89 70
-0.349268 -0.837920 -0.081528 0 255 0 89 70
-0.333133 -0.707919 -0.063528 0 255 0 89 70
-0.336679 -0.770460 0.031206 0 255 0 89 70
-0.334380 -0.752479 -0.108528 0 255 0 89 70
-0.354061 -0.699549 -0.003528 0 255 0 89 70
-0.384965 -0.803039 0.042982 0 255 0 89 70
-0.390048 -0.697991 -0.053027 0 255 0 89 70
-0.388379 -0.719006 -0.102528 0 255 0 89 70
-0.387388 -0.737016 0.048181 0 255 0 89 70
-0.334592 -0.797479 0.038472 0 255 0 89 70
-0.316215 -0.832096 -0.039528 0 255 0 89 70
-0.357036 -0.696832 -0.057528 0 255 0 89 70
-0.501950 -0.800833 -0.048528 0 255 0 89 70
-0.405464 -0.745480 0.050472 0 255 0 89 70
-0.367667 -0.713187 -0.087528 0 255 0 89 70
-0.385349 -0.847036 0.026472 0 255 0 89 70
-0.295993 -0.758815 -0.006528 0 255 0 89 70
-0.491764 -0.811108 -0.009528 0 255 0 89 70
-0.370427 -0.856139 0.002472 0 255 0 89 70
-0.364223 -0.851223 -0.084528 0 255 0 89 70
-0.294708 -0.774024 -0.021528 0 255 0 89 70
-0.340494 -0.740425 -0.099528 0 255 0 89 70
-0.274687 -0.765000 0.011472 0 255 0 89 70
-0.433297 -0.840986 -0.003528 0 255 0 89 70
-0.370293 -0.840762 0.005472 0 255 0 89 70
-0.314627 -0.725651 -0.006528 0 255 0 89 70
-0.354181 -0.713304 -0.077046 0 255 0 89 70
-0.377746 -0.836104 0.017472 0 255 0 89 70
-0.347167 -0.776368 0.038472 0 255 0 89 70
-0.361132 -0.822337 0.044472 0 255 0 89 70
-0.412808 -0.733794 0.035472 0 255 0 89 70
-0.366742 -0.777720 0.047472 0 255 0 89 70
-0.336234 -0.719462 -0.041015 0 255 0 89 70
-0.361209 -0.831113 -0.105528 0 255 0 89 70
-0.300829 -0.787790 -0.063528 0 255 0 89 70
-0.351259 -0.722330 0.016007 0 255 0 89 70
-0.312549 -0.755670 -0.044070 0 255 0 89 70
-0.390166 -0.711445 -0.087528 0 255 0 89 70
-0.406416 -0.854694 0.008472 0 255 0 89 70
-0.322097 -0.818589 0.018893 0 255 0 89 70
-0.431815 -0.847632 -0.042528 0 255 0 89 70
-0.310057 -0.813951 -0.066528 0 255 0 89 70
-0.408074 -0.700834 -0.053083 0 255 0 89 70
-0.397265 -0.837451 0.017472 0 255 0 89 70
-0.391043 -0.811987 0.051498 0 255 0 89 70
-0.332417 -0.812499 0.005472 0 255 0 89 70
-0.372088 -0.702637 -0.024528 0 255 0 89 70
-0.326026 -0.767553 0.020472 0 255 0 89 70
-0.497540 -0.802058 -0.063528 0 255 0 89 70
-0.366278 -0.724480 0.038472 0 255 0 89 70
-0.315574 -0.758644 -0.096973 0 255 0 89 70
-0.325647 -0.731554 -0.051528 0 255 0 89 70
-0.337597 -0.710449 0.005472 0 255 0 89 70
-0.385421 -0.855364 0.011472 0 255 0 89 70
-0.288513 -0.751649 0.011472 0 255 0 89 70
-0.433316 -0.843171 -0.027528 0 255 0 89 70
-0.351338 -0.731331 -0.103697 0 255 0 89 70
-0.324328 -0.730360 0.017472 0 255 0 89 70
-0.497233 -0.808060 0.002472 0 255 0 89 70
-0.327470 -0.746540 0.034068 0 255 0 89 70
-0.480843 -0.788715 0.014472 0 255 0 89 70
-0.406042 -0.811856 0.045947 0 255 0 89 70
-0.314185 -0.776656 -0.060528 0 255 0 89 70
-0.350700 -0.845341 -0.060528 0 255 0 89 70
-0.376486 -0.862785 -0.027528 0 255 0 89 70
-0.331629 -0.728503 -0.069528 0 255 0 89 70
-0.300618 -0.763663 -0.057528 0 255 0 89 70
-0.399834 -0.787909 0.056055 0 255 0 89 70
-0.340175 -0.827432 -0.083062 0 255 0 89 70
-0.390284 -0.724990 0.041766 0 255 0 89 70
-0.399571 -0.757911 0.049022 0 255 0 89 70
-0.325045 -0.812562 -0.032018 0 255 0 89 70
-0.342106 -0.830414 0.032472 0 255 0 89 70
-0.357069 -0.700518 -0.078528 0 255 0 89 70
-0.325220 -0.832566 -0.075528 0 255 0 89 70
-0.375310 -0.728121 -0.110004 0 255 0 89 70
-0.318429 -0.742039 -0.021528 0 255 0 89 70
-0.276524 -0.752984 0.032907 0 255 0 89 70
-0.502092 -0.817202 -0.033528 0 255 0 89 70
-0.387667 -0.768989 0.068472 0 255 0 89 70
-0.400398 -0.852607 -0.021528 0 255 0 89 70
-0.369992 -0.806170 0.040093 0 255 0 89 70
-0.375191 -0.714489 0.023472 0 255 0 89 70
-0.336273 -0.723911 -0.009528 0 255 0 89 70
-0.403889 -0.703870 -0.078528 0 255 0 89 70
-0.382174 -0.827065 0.037978 0 255 0 89 70
-0.367398 -0.852825 -0.069528 0 255 0 89 70
-0.365996 -0.692200 -0.043104 0 255 0 89 70
-0.309470 -0.746696 0.009303 0 255 0 89 70
-0.331321 -0.844088 -0.021528 0 255 0 89 70
-0.338705 -0.836444 -0.036528 0 255 0 89 70
-0.360206 -0.716252 -0.100077 0 255 0 89 70
-0.400449 -0.858409 -0.009528 0 255 0 89 70
-0.328124 -0.821537 -0.065032 0 255 0 89 70
-0.504882 -0.792992 -0.011046 0 255 0 89 70
-0.330547 -0.755512 -0.095032 0 255 0 89 70
-0.334097 -0.818484 -0.099632 0 255 0 89 70
-0.309707 -0.803697 0.011472 0 255 0 89 70
-0.424265 -0.837331 0.020472 0 255 0 89 70
-0.372088 -0.702602 -0.057528 0 255 0 89 70
-0.371980 -0.690202 -0.018528 0 255 0 89 70
-0.378834 -0.788093 0.060095 0 255 0 89 70
-0.430571 -0.814177 0.035230 0 255 0 89 70
-0.325290 -0.840606 -0.048528 0 255 0 89 70
-0.299805 -0.779782 -0.051528 0 255 0 89 70
-0.421371 -0.849508 -0.024528 0 255 0 89 70
-0.474961 -0.802254 0.007119 0 255 0 89 70
-0.282243 -0.755934 -0.009528 0 255 0 89 70
-0.336723 -0.775537 -0.108528 0 255 0 89 70
-0.388409 -0.854012 -0.031924 0 255 0 89 70
-0.331281 -0.839510 -0.000823 0 255 0 89 70
-0.345914 -0.797381 -0.109976 0 255 0 89 70
-0.314109 -0.767657 -0.072528 0 255 0 89 70
-0.449230 -0.805479 0.029472 0 255 0 89 70
-0.392991 -0.691470 -0.003528 0 255 0 89 70
-0.357190 -0.714350 0.032472 0 255 0 89 70
-0.333102 -0.704488 -0.018168 0 255 0 89 70
-0.357678 -0.770276 0.042980 0 255 0 89 70
-0.315264 -0.723069 -0.036528 0 255 0 89 70
-0.310100 -0.818823 -0.039528 0 255 0 89 70
-0.311161 -0.770683 -0.042528 0 255 0 89 70
-0.345443 -0.743382 0.043738 0 255 0 89 70
-0.320281 -0.782603 -0.000528 0 255 0 89 70
-0.390147 -0.709341 0.032472 0 255 0 89 70
-0.316152 -0.824731 -0.063528 0 255 0 89 70
-0.293771 -0.770834 -0.033528 0 255 0 89 70
-0.333119 -0.706411 -0.042528 0 255 0 89 70
-0.387088 -0.702490 -0.009528 0 255 0 89 70
-0.360573 -0.758250 0.042989 0 255 0 89 70
-0.379372 -0.849709 -0.018528 0 255 0 89 70
-0.378546 -0.755094 0.056645 0 255 0 89 70
-0.326541 -0.812550 -0.048528 0 255 0 89 70
-0.303479 -0.747757 -0.003528 0 255 0 89 70
-0.366008 -0.693464 -0.003528 0 255 0 89 70
-0.324992 -0.806522 -0.096528 0 255 0 89 70
-0.288488 -0.748877 -0.000528 0 255 0 89 70
-0.372088 -0.702648 -0.039528 0 255 0 89 70
-0.386983 -0.690496 -0.042528 0 255 0 89 70
-0.409446 -0.858131 -0.030528 0 255 0 89 70
-0.504924 -0.797875 -0.027528 0 255 0 89 70
-0.352836 -0.731317 0.026472 0 255 0 89 70
-0.345194 -0.714883 -0.048528 0 255 0 89 70
-0.364320 -0.843829 -0.009528 0 255 0 89 70
-0.386944 -0.860024 -0.069528 0 255 0 89 70
-0.383098 -0.698052 0.011472 0 255 0 89 70
-0.346399 -0.853062 -0.024528 0 255 0 89 70
-0.369939 -0.800170 0.055338 0 255 0 89 70
-0.342364 -0.734408 0.036147 0 255 0 89 70
-0.306942 -0.806720 -0.057528 0 255 0 89 70
-0.402113 -0.705374 0.002472 0 255 0 89 70
-0.397203 -0.830350 0.035472 0 255 0 89 70
-0.382597 -0.704056 -0.078528 0 255 0 89 70
-0.384755 -0.779041 0.055092 0 255 0 89 70
-0.418147 -0.823751 0.031228 0 255 0 89 70
-0.372101 -0.704149 -0.071075 0 255 0 89 70
-0.322251 -0.836206 -0.024528 0 255 0 89 70
-0.288625 -0.764596 0.014472 0 255 0 89 70
-0.355372 -0.849880 -0.033528 0 255 0 89 70
-0.343398 -0.852965 -0.048528 0 255 0 89 70
-0.319911 -0.740605 -0.033528 0 255 0 89 70
-0.339312 -0.728435 0.006984 0 255 0 89 70
-0.346900 -0.716368 -0.096528 0 255 0 89 70
-0.362361 -0.797236 0.041472 0 255 0 89 70
-0.326016 -0.755553 0.017472 0 255 0 89 70
-0.344627 -0.830392 -0.006528 0 255 0 89 70
-0.273618 -0.763846 0.029472 0 255 0 89 70
-0.426360 -0.733676 0.031092 0 255 0 89 70
-0.414492 -0.748780 0.043108 0 255 0 89 70
-0.330717 -0.722510 -0.087528 0 255 0 89 70
-0.368736 -0.845183 -0.093528 0 255 0 89 70
-0.317201 -0.722628 -0.048528 0 255 0 89 70
-0.426989 -0.805673 0.042422 0 255 0 89 70
-0.345704 -0.773381 0.050110 0 255 0 89 70
-0.330600 -0.761512 0.036812 0 255 0 89 70
-0.366520 -0.752199 0.054189 0 255 0 89 70
-0.361853 -0.770240 0.056472 0 255 0 89 70
-0.348097 -0.703896 0.005472 0 255 0 89 70
-0.484297 -0.802173 -0.000528 0 255 0 89 70
-0.294706 -0.773826 -0.003414 0 255 0 89 70
-0.303766 -0.780552 -0.075528 0 255 0 89 70
-0.308731 -0.752704 -0.081528 0 255 0 89 70
-0.397479 -0.861914 -0.030528 0 255 0 89 70
-0.341775 -0.836418 -0.090528 0 255 0 89 70
-0.363468 -0.746225 0.039974 0 255 0 89 70
-0.372242 -0.720234 -0.099528 0 255 0 89 70
-0.363180 -0.713226 0.013049 0 255 0 89 70
-0.417847 -0.789390 0.047472 0 255 0 89 70
-0.387258 -0.722017 0.031092 0 255 0 89 70
-0.411196 -0.714812 0.032472 0 255 0 89 70
-0.308456 -0.812708 -0.003528 0 255 0 89 70
-0.330339 -0.731514 -0.094592 0 255 0 89 70
-0.350750 -0.836340 -0.015528 0 255 0 89 70
-0.349096 -0.818353 -0.101259 0 255 0 89 70
-0.314546 -0.737652 -0.081528 0 255 0 89 70
-0.390165 -0.711418 0.020472 0 255 0 89 70
-0.409312 -0.842728 0.023472 0 255 0 89 70
-0.412565 -0.700795 -0.063528 0 255 0 89 70
-0.330155 -0.710515 -0.052868 0 255 0 89 70
-0.306616 -0.763441 -0.006528 0 255 0 89 70
-0.402284 -0.724885 0.037370 0 255 0 89 70
-0.401999 -0.692302 -0.018528 0 255 0 89 70
-0.437512 -0.835582 0.005472 0 255 0 89 70
-0.384061 -0.699479 -0.021528 0 255 0 89 70
-0.398777 -0.844921 0.005472 0 255 0 89 70
-0.321496 -0.749592 -0.074061 0 255 0 89 70
-0.369112 -0.705415 0.002472 0 255 0 89 70
-0.348167 -0.711850 -0.024528 0 255 0 89 70
-0.327980 -0.805097 -0.081528 0 255 0 89 70
-0.318600 -0.761617 0.000980 0 255 0 89 70
-0.361680 -0.707239 -0.006528 0 255 0 89 70
-0.375310 -0.728121 0.030990 0 255 0 89 70
-0.363809 -0.785224 0.057729 0 255 0 89 70
-0.348167 -0.711770 -0.006528 0 255 0 89 70
-0.376475 -0.861539 -0.039528 0 255 0 89 70
-0.321447 -0.815594 -0.087528 0 255 0 89 70
-0.320329 -0.791603 -0.078528 0 255 0 89 70
-0.321914 -0.797590 0.032473 0 255 0 89 70
-0.320405 -0.800604 -0.009528 0 255 0 89 70
-0.376070 -0.815118 0.034039 0 255 0 89 70
-0.388358 -0.848012 -0.001903 0 255 0 89 70
-0.321172 -0.755595 0.032472 0 255 0 89 70
-0.337856 -0.746449 0.029472 0 255 0 89 70
-0.309534 -0.753932 -0.018528 0 255 0 89 70
-0.342192 -0.714703 -0.015528 0 255 0 89 70
-0.370448 -0.858541 -0.054528 0 255 0 89 70
-0.318757 -0.779617 -0.083118 0 255 0 89 70
-0.313033 -0.811143 -0.078528 0 255 0 89 70
-0.350476 -0.812341 0.029472 0 255 0 89 70
-0.331764 -0.776503 0.041472 0 255 0 89 70
-0.301380 -0.746767 -0.015528 0 255 0 89 70
-0.348861 -0.791354 0.031038 0 255 0 89 70
-0.302135 -0.794762 -0.003528 0 255 0 89 70
-0.348835 -0.788355 0.050847 0 255 0 89 70
-0.279628 -0.764957 -0.000823 0 255 0 89 70
-0.420125 -0.706729 0.004025 0 255 0 89 70
-0.336901 -0.795990 0.026472 0 255 0 89 70
-0.339940 -0.800433 -0.101039 0 255 0 89 70
-0.309825 -0.787383 0.017472 0 255 0 89 70
-0.357416 -0.740278 -0.107383 0 255 0 89 70
-0.355190 -0.828991 -0.096528 0 255 0 89 70
-0.315875 -0.793126 -0.042528 0 255 0 89 70
-0.276515 -0.751901 0.014472 0 255 0 89 70
-0.379575 -0.704083 -0.000528 0 255 0 89 70
-0.336140 -0.708793 -0.075528 0 255 0 89 70
-0.344756 -0.839392 -0.069528 0 255 0 89 70
-0.299891 -0.791781 -0.039528 0 255 0 89 70
-0.345259 -0.722383 -0.083168 0 255 0 89 70
-0.413890 -0.847789 -0.012528 0 255 0 89 70
-0.330163 -0.711357 -0.003528 0 255 0 89 70
-0.394533 -0.700953 -0.069528 0 255 0 89 70
-0.328671 -0.725528 -0.024528 0 255 0 89 70
-0.423216 -0.717116 0.020472 0 255 0 89 70
-0.322080 -0.737586 -0.090528 0 255 0 89 70
-0.378284 -0.725095 0.042581 0 255 0 89 70
-0.328205 -0.830878 0.014472 0 255 0 89 70
-0.367470 -0.860951 -0.021528 0 255 0 89 70
-0.318915 -0.797616 -0.094839 0 255 0 89 70
-0.340019 -0.809432 0.037222 0 255 0 89 70
-0.348057 -0.699212 -0.012528 0 255 0 89 70
-0.334097 -0.818484 0.034138 0 255 0 89 70
-0.308991 -0.737700 -0.063528 0 255 0 89 70
-0.393912 -0.796961 0.055899 0 255 0 89 70
-0.314103 -0.767657 -0.015528 0 255 0 89 70
-0.321842 -0.773590 -0.102528 0 255 0 89 70
-0.397425 -0.855807 0.002472 0 255 0 89 70
-0.329117 -0.776526 0.026472 0 255 0 89 70
-0.345187 -0.714188 0.023472 0 255 0 89 70
-0.416850 -0.847763 0.008472 0 255 0 89 70
-0.340111 -0.820018 0.005472 0 255 0 89 70
-0.311381 -0.761680 -0.087528 0 255 0 89 70
-0.319217 -0.832253 -0.051528 0 255 0 89 70
-0.303445 -0.743748 -0.043689 0 255 0 89 70
-0.364227 -0.833222 0.035585 0 255 0 89 70
-0.397043 -0.811935 0.040083 0 255 0 89 70
-0.318252 -0.721712 -0.018528 0 255 0 89 70
-0.375121 -0.706482 0.032472 0 255 0 89 70
-0.335615 -0.833472 -0.054528 0 255 0 89 70
-0.376384 -0.851117 -0.088919 0 255 0 89 70
-0.337182 -0.722454 0.026472 0 255 0 89 70
-0.352044 -0.812328 0.044240 0 255 0 89 70
-0.493012 -0.808097 -0.046113 0 255 0 89 70
-0.335045 -0.848477 -0.030528 0 255 0 89 70
-0.500426 -0.802033 -0.006528 0 255 0 89 70
-0.347781 -0.851366 -0.006528 0 255 0 89 70
-0.304032 -0.811100 -0.033528 0 255 0 89 70
-0.331288 -0.840368 -0.069528 0 255 0 89 70
-0.404994 -0.691725 -0.033528 0 255 0 89 70
-0.357141 -0.708768 -0.054528 0 255 0 89 70
-0.409199 -0.829829 0.036633 0 255 0 89 70
-0.369075 -0.701175 0.016442 0 255 0 89 70
-0.381450 -0.744182 0.053472 0 255 0 89 70
-0.355008 -0.808229 -0.108528 0 255 0 89 70
-0.386978 -0.689953 -0.027528 0 255 0 89 70
-0.334913 -0.740474 -0.090528 0 255 0 89 70
-0.499048 -0.812095 -0.060528 0 255 0 89 70
-0.339836 -0.788433 -0.104035 0 255 0 89 70
-0.437784 -0.823579 0.023472 0 255 0 89 70
-0.397003 -0.703931 -0.090528 0 255 0 89 70
-0.478041 -0.811337 0.011472 0 255 0 89 70
-0.372638 -0.765658 0.059472 0 255 0 89 70
-0.375400 -0.689119 -0.039528 0 255 0 89 70
-0.343097 -0.818406 -0.092169 0 255 0 89 70
-0.369093 -0.703212 -0.090528 0 255 0 89 70
-0.342066 -0.700230 -0.039528 0 255 0 89 70
-0.327378 -0.736012 -0.075528 0 255 0 89 70
-0.343338 -0.845921 0.011472 0 255 0 89 70
-0.372415 -0.740147 0.039989 0 255 0 89 70
-0.322943 -0.752579 -0.087528 0 255 0 89 70
-0.436290 -0.840112 -0.015528 0 255 0 89 70
-0.314942 -0.779650 0.029472 0 255 0 89 70
-0.396755 -0.778936 0.060343 0 255 0 89 70
-0.506016 -0.813984 -0.051528 0 255 0 89 70
-0.340006 -0.808010 0.023472 0 255 0 89 70
-0.355444 -0.858123 -0.042528 0 255 0 89 70
-0.401711 -0.832894 0.026472 0 255 0 89 70
-0.366094 -0.851206 -0.030528 0 255 0 89 70
-0.410425 -0.697814 -0.003528 0 255 0 89 70
-0.337254 -0.836458 0.020757 0 255 0 89 70
-0.306404 -0.739081 -0.021528 0 255 0 89 70
-0.348073 -0.701038 -0.060528 0 255 0 89 70
-0.334347 -0.847002 -0.042528 0 255 0 89 70
-0.316184 -0.828498 -0.018528 0 255 0 89 70
-0.354940 -0.800302 0.034188 0 255 0 89 70
-0.389996 -0.691991 -0.062831 0 255 0 89 70
-0.393453 -0.744426 0.044472 0 255 0 89 70
-0.383705 -0.860053 -0.012528 0 255 0 89 70
-0.355411 -0.854396 -0.066528 0 255 0 89 70
-0.378730 -0.776093 0.068645 0 255 0 89 70
-0.378012 -0.693865 -0.072528 0 255 0 89 70
-0.314279 -0.785656 -0.021528 0 255 0 89 70
-0.324810 -0.785564 -0.092153 0 255 0 89 70
-0.361254 -0.836248 0.003978 0 255 0 89 70
-0.317388 -0.803630 -0.030528 0 255 0 89 70
-0.306968 -0.803720 0.001074 0 255 0 89 70
-0.342547 -0.755408 0.031053 0 255 0 89 70
-0.376017 -0.809118 0.051079 0 255 0 89 70
-0.315901 -0.796160 -0.021528 0 255 0 89 70
-0.311119 -0.779683 -0.033528 0 255 0 89 70
-0.366140 -0.708686 -0.078528 0 255 0 89 70
-0.332020 -0.842503 -0.057528 0 255 0 89 70
-0.375782 -0.782119 0.048993 0 255 0 89 70
-0.358306 -0.842274 -0.083156 0 255 0 89 70
-0.324810 -0.785564 -0.103649 0 255 0 89 70
-0.354507 -0.750773 0.038472 0 255 0 89 70
-0.329622 -0.830524 -0.039528 0 255 0 89 70
-0.424317 -0.843225 -0.009528 0 255 0 89 70
-0.381100 -0.704069 -0.088558 0 255 0 89 70
-0.388658 -0.707004 0.011472 0 255 0 89 70
-0.363102 -0.704227 -0.017017 0 255 0 89 70
-0.433225 -0.832620 0.020817 0 255 0 89 70
-0.321260 -0.722593 -0.068670 0 255 0 89 70
-0.348520 -0.752356 0.047266 0 255 0 89 70
-0.294602 -0.761827 -0.038719 0 255 0 89 70
-0.286734 -0.758895 -0.018528 0 255 0 89 70
-0.327967 -0.803537 0.003983 0 255 0 89 70
-0.409408 -0.853829 -0.040917 0 255 0 89 70
-0.397034 -0.697931 0.008472 0 255 0 89 70
-0.408866 -0.791638 0.053472 0 255 0 89 70
-0.267498 -0.750063 0.029442 0 255 0 89 70
-0.376215 -0.831786 0.026472 0 255 0 89 70
-0.316146 -0.824230 -0.000528 0 255 0 89 70
-0.406857 -0.820850 0.041472 0 255 0 89 70
-0.411165 -0.711299 0.011472 0 255 0 89 70
-0.309418 -0.740696 0.000500 0 255 0 89 70
-0.405149 -0.709488 0.026472 0 255 0 89 70
-0.355149 -0.824301 0.036658 0 255 0 89 70
-0.363389 -0.737226 0.046824 0 255 0 89 70
-0.353203 -0.857319 -0.018528 0 255 0 89 70
-0.334014 -0.808902 -0.102528 0 255 0 89 70
-0.360041 -0.697304 -0.069528 0 255 0 89 70
-0.336627 -0.764460 -0.108087 0 255 0 89 70
-0.330208 -0.716514 0.009654 0 255 0 89 70
-0.316801 -0.746632 -0.054528 0 255 0 89 70
-0.376142 -0.689112 -0.027528 0 255 0 89 70
-0.331323 -0.844343 -0.009528 0 255 0 89 70
-0.340793 -0.737423 0.026472 0 255 0 89 70
-0.320432 -0.803603 -0.054528 0 255 0 89 70
-0.329290 -0.791525 0.020472 0 255 0 89 70
-0.323275 -0.785577 0.008472 0 255 0 89 70
-0.332325 -0.800499 -0.093528 0 255 0 89 70
-0.300237 -0.755777 -0.051528 0 255 0 89 70
-0.294654 -0.767826 0.007080 0 255 0 89 70
-0.411283 -0.724807 0.031045 0 255 0 89 70
-0.367470 -0.860986 -0.033528 0 255 0 89 70
-0.421545 -0.700716 -0.015528 0 255 0 89 70
-0.398993 -0.691585 -0.054528 0 255 0 89 70
-0.421407 -0.853545 -0.015528 0 255 0 89 70
-0.318403 -0.738934 0.017472 0 255 0 89 70
-0.391147 -0.823986 0.031120 0 255 0 89 70
-0.335418 -0.809473 0.014472 0 255 0 89 70
-0.370153 -0.824717 0.041472 0 255 0 89 70
-0.344734 -0.845392 -0.033528 0 255 0 89 70
-0.293152 -0.749839 -0.021528 0 255 0 89 70
-0.327145 -0.709471 -0.024528 0 255 0 89 70
-0.393597 -0.760963 0.060856 0 255 0 89 70
-0.345547 -0.755382 -0.107302 0 255 0 89 70
-0.327456 -0.744977 0.008472 0 255 0 89 70
-0.394454 -0.697953 -0.015528 0 255 0 89 70
-0.302264 -0.800761 -0.018528 0 255 0 89 70
-0.352418 -0.855193 -0.054528 0 255 0 89 70
-0.361737 -0.728240 0.029472 0 255 0 89 70
-0.337084 -0.816964 -0.084528 0 255 0 89 70
-0.366016 -0.694495 -0.054528 0 255 0 89 70
-0.380139 -0.692078 -0.060528 0 255 0 89 70
-0.315850 -0.790169 -0.066528 0 255 0 89 70
-0.334163 -0.826034 -0.075528 0 255 0 89 70
-0.364135 -0.851223 0.014472 0 255 0 89 70
-0.323151 -0.833580 -0.003528 0 255 0 89 70
-0.303827 -0.797748 -0.060528 0 255 0 89 70
-0.379319 -0.843699 0.002472 0 255 0 89 70
-0.340202 -0.830431 -0.029035 0 255 0 89 70
-0.411017 -0.694369 -0.045528 0 255 0 89 70
-0.309952 -0.801826 -0.078528 0 255 0 89 70
-0.384545 -0.755041 0.049005 0 255 0 89 70
-0.334858 -0.737475 0.011472 0 255 0 89 70
-0.472485 -0.805276 0.017472 0 255 0 89 70
-0.384060 -0.699412 -0.045528 0 255 0 89 70
-0.389972 -0.862998 -0.054528 0 255 0 89 70
-0.309758 -0.779695 -0.086702 0 255 0 89 70
-0.324173 -0.755569 -0.102528 0 255 0 89 70
-0.506277 -0.801981 -0.018528 0 255 0 89 70
-0.348280 -0.704356 -0.081528 0 255 0 89 70
-0.382278 -0.839064 0.034412 0 255 0 89 70
-0.303539 -0.754586 -0.060528 0 255 0 89 70
-0.349201 -0.830353 -0.089075 0 255 0 89 70
-0.355174 -0.827300 0.016065 0 255 0 89 70
-0.408414 -0.739832 0.043232 0 255 0 89 70
-0.304657 -0.791740 -0.072528 0 255 0 89 70
-0.279266 -0.749960 0.023472 0 255 0 89 70
-0.391374 -0.850002 0.017472 0 255 0 89 70
-0.302718 -0.764755 0.002472 0 255 0 89 70
-0.310870 -0.767684 -0.063528 0 255 0 89 70
-0.385121 -0.821039 0.047445 0 255 0 89 70
-0.367188 -0.828808 0.023472 0 255 0 89 70
-0.372037 -0.696842 0.008472 0 255 0 89 70
-0.346385 -0.851378 -0.066963 0 255 0 89 70
-0.366794 -0.860200 -0.063528 0 255 0 89 70
-0.376468 -0.860713 -0.003528 0 255 0 89 70
-0.367434 -0.856894 -0.006528 0 255 0 89 70
-0.341680 -0.839419 -0.060528 0 255 0 89 70
-0.360101 -0.704252 0.015816 0 255 0 89 70
-0.387017 -0.694396 -0.075528 0 255 0 89 70
-0.303496 -0.782750 0.002472 0 255 0 89 70
-0.299085 -0.782788 -0.018528 0 255 0 89 70
-0.354032 -0.696300 -0.048528 0 255 0 89 70
-0.305061 -0.761735 -0.078528 0 255 0 89 70
-0.328776 -0.731527 -0.006528 0 255 0 89 70
-0.496394 -0.808068 -0.024528 0 255 0 89 70
-0.387860 -0.791014 0.060333 0 255 0 89 70
-0.311079 -0.773683 -0.051528 0 255 0 89 70
-0.314236 -0.785656 -0.057528 0 255 0 89 70
-0.332624 -0.785495 0.038472 0 255 0 89 70
-0.415240 -0.834427 0.020472 0 255 0 89 70
-0.399192 -0.714386 0.020472 0 255 0 89 70
-0.326299 -0.794551 0.011472 0 255 0 89 70
-0.306758 -0.779722 0.012210 0 255 0 89 70
-0.315296 -0.776647 -0.096528 0 255 0 89 70
-0.324613 -0.763052 -0.093528 0 255 0 89 70
-0.489269 -0.811130 -0.054528 0 255 0 89 70
-0.323913 -0.737571 0.026472 0 255 0 89 70
-0.375927 -0.798673 0.044472 0 255 0 89 70
-0.276642 -0.766552 0.020472 0 255 0 89 70
-0.409427 -0.855851 -0.009528 0 255 0 89 70
-0.315574 -0.758644 0.025669 0 255 0 89 70
-0.351256 -0.722019 -0.102528 0 255 0 89 70
-0.502071 -0.814766 -0.042528 0 255 0 89 70
-0.363598 -0.761091 0.056472 0 255 0 89 70
-0.354756 -0.779302 0.042997 0 255 0 89 70
-0.355403 -0.853359 -0.000528 0 255 0 89 70
-0.316469 -0.725635 -0.060528 0 255 0 89 70
-0.348165 -0.711536 -0.069528 0 255 0 89 70
-0.369743 -0.743170 0.050472 0 255 0 89 70
-0.310113 -0.820320 -0.018528 0 255 0 89 70
-0.391599 -0.697978 -0.039528 0 255 0 89 70
-0.343018 -0.809406 -0.098041 0 255 0 89 70
-0.366206 -0.716200 0.033646 0 255 0 89 70
-0.509304 -0.804955 -0.036528 0 255 0 89 70
-0.306384 -0.736871 -0.030528 0 255 0 89 70
-0.321600 -0.761590 0.009988 0 255 0 89 70
-0.339194 -0.714884 -0.033528 0 255 0 89 70
-0.328084 -0.817051 -0.039528 0 255 0 89 70
-0.403370 -0.849439 -0.012528 0 255 0 89 70
-0.339245 -0.720881 -0.063528 0 255 0 89 70
-0.299228 -0.782787 -0.042528 0 255 0 89 70
-0.318522 -0.752618 -0.002002 0 255 0 89 70
-0.324727 -0.710562 -0.033528 0 255 0 89 70
-0.381061 -0.699554 -0.054528 0 255 0 89 70
-0.315574 -0.758644 -0.071083 0 255 0 89 70
-0.341097 -0.845425 -0.078528 0 255 0 89 70
-0.394330 -0.844881 0.026472 0 255 0 89 70
-0.317111 -0.767631 -0.081528 0 255 0 89 70
-0.441910 -0.796542 0.031004 0 255 0 89 70
-0.288654 -0.767879 -0.024820 0 255 0 89 70
-0.370649 -0.701160 -0.048528 0 255 0 89 70
-0.318955 -0.802286 -0.063528 0 255 0 89 70
-0.349343 -0.846628 -0.084528 0 255 0 89 70
-0.412330 -0.844803 0.001014 0 255 0 89 70
-0.328812 -0.731527 -0.060528 0 255 0 89 70
-0.306555 -0.756461 -0.000528 0 255 0 89 70
-0.489961 -0.802124 -0.008669 0 255 0 89 70
-0.339495 -0.749434 -0.101063 0 255 0 89 70
-0.345338 -0.731383 -0.095134 0 255 0 89 70
-0.362275 -0.785238 0.044472 0 255 0 89 70
-0.409056 -0.813384 0.035472 0 255 0 89 70
-0.502072 -0.814823 -0.012528 0 255 0 89 70
-0.340532 -0.701423 -0.024528 0 255 0 89 70
-0.324352 -0.733053 -0.027528 0 255 0 89 70
-0.374925 -0.692123 -0.009528 0 255 0 89 70
-0.402036 -0.696521 -0.072528 0 255 0 89 70
-0.418265 -0.837317 0.011472 0 255 0 89 70
-0.393100 -0.703964 0.025087 0 255 0 89 70
-0.369166 -0.711654 -0.096528 0 255 0 89 70
-0.323486 -0.812576 0.026472 0 255 0 89 70
-0.375107 -0.704842 0.023472 0 255 0 89 70
-0.303015 -0.800755 -0.042528 0 255 0 89 70
-0.291710 -0.774364 -0.012528 0 255 0 89 70
-0.311600 -0.752678 0.017472 0 255 0 89 70
-0.351140 -0.708635 -0.045528 0 255 0 89 70
-0.307099 -0.770718 0.014472 0 255 0 89 70
-0.307051 -0.813329 -0.012528 0 255 0 89 70
-0.391269 -0.837931 0.035472 0 255 0 89 70
-0.321445 -0.719591 -0.006528 0 255 0 89 70
-0.325495 -0.773557 0.035472 0 255 0 89 70
-0.316975 -0.749631 -0.015528 0 255 0 89 70
-0.334411 -0.725477 -0.078528 0 255 0 89 70
-0.381441 -0.743068 0.042987 0 255 0 89 70
-0.417990 -0.805752 0.040115 0 255 0 89 70
-0.326432 -0.812551 -0.069528 0 255 0 89 70
-0.347732 -0.845366 -0.051528 0 255 0 89 70
-0.411040 -0.697067 -0.012528 0 255 0 89 70
-0.325033 -0.811137 -0.015528 0 255 0 89 70
-0.382043 -0.812065 0.040105 0 255 0 89 70
-0.397402 -0.853076 0.011472 0 255 0 89 70
-0.477923 -0.797915 0.014472 0 255 0 89 70
-0.298915 -0.791790 -0.030528 0 255 0 89 70
-0.341598 -0.833419 -0.075528 0 255 0 89 70
-0.510999 -0.806448 -0.051528 0 255 0 89 70
-0.331735 -0.725501 -0.048528 0 255 0 89 70
-0.373227 -0.833144 0.036066 0 255 0 89 70
-0.351220 -0.717792 0.005472 0 255 0 89 70
-0.306467 -0.746349 -0.063528 0 255 0 89 70
-0.354701 -0.695300 -0.030528 0 255 0 89 70
-0.375677 -0.770120 0.052043 0 255 0 89 70
-0.424319 -0.843495 -0.000528 0 255 0 89 70
-0.299959 -0.791781 -0.012528 0 255 0 89 70
-0.285689 -0.771928 -0.003528 0 255 0 89 70
-0.361096 -0.818248 0.031223 0 255 0 89 70
-0.335692 -0.833471 -0.045528 0 255 0 89 70
-0.313927 -0.755658 -0.054528 0 255 0 89 70
-0.314142 -0.776657 -0.015528 0 255 0 89 70
-0.391398 -0.852713 -0.021528 0 255 0 89 70
-0.311070 -0.728681 -0.015528 0 255 0 89 70
-0.388266 -0.837552 0.017472 0 255 0 89 70
-0.357442 -0.743278 0.030973 0 255 0 89 70
-0.370345 -0.846772 -0.015528 0 255 0 89 70
-0.301960 -0.755762 -0.012528 0 255 0 89 70
-0.309562 -0.757180 -0.027528 0 255 0 89 70
-0.329579 -0.827524 -0.057528 0 255 0 89 70
-0.384191 -0.714429 0.026472 0 255 0 89 70
-0.354074 -0.845312 0.017472 0 255 0 89 70
-0.333272 -0.723958 -0.033528 0 255 0 89 70
-0.332536 -0.824497 -0.024528 0 255 0 89 70
-0.309641 -0.766242 -0.024528 0 255 0 89 70
-0.307998 -0.737709 -0.048528 0 255 0 89 70
-0.339233 -0.719436 -0.091642 0 255 0 89 70
-0.346319 -0.843901 -0.042528 0 255 0 89 70
-0.405830 -0.703854 -0.087528 0 255 0 89 70
-0.318300 -0.727195 0.005472 0 255 0 89 70
-0.382122 -0.821065 0.031112 0 255 0 89 70
-0.402039 -0.696908 -0.000528 0 255 0 89 70
-0.361374 -0.850105 -0.075528 0 255 0 89 70
-0.392178 -0.709973 -0.096528 0 255 0 89 70
-0.321403 -0.739013 -0.054528 0 255 0 89 70
-0.505049 -0.812116 -0.021528 0 255 0 89 70
-0.397466 -0.860446 -0.018528 0 255 0 89 70
-0.300701 -0.773288 -0.057528 0 255 0 89 70
-0.297508 -0.751099 -0.033528 0 255 0 89 70
-0.364259 -0.836864 -0.099528 0 255 0 89 70
-0.352321 -0.843991 -0.069528 0 255 0 89 70
-0.322722 -0.734580 -0.042528 0 255 0 89 70
-0.404083 -0.775871 0.056472 0 255 0 89 70
-0.393310 -0.727964 0.034016 0 255 0 89 70
-0.361319 -0.843777 -0.030528 0 255 0 89 70
-0.343388 -0.851762 -0.057528 0 255 0 89 70
-0.309874 -0.815696 -0.057528 0 255 0 89 70
-0.414004 -0.850788 -0.033528 0 255 0 89 70
-0.416297 -0.718763 0.026472 0 255 0 89 70
-0.312653 -0.767670 0.025785 0 255 0 89 70
-0.312901 -0.796120 -0.087528 0 255 0 89 70
-0.336312 -0.728461 -0.002024 0 255 0 89 70
-0.357217 -0.717497 -0.090528 0 255 0 89 70
-0.311601 -0.728677 -0.045528 0 255 0 89 70
-0.384206 -0.716042 -0.095113 0 255 0 89 70
-0.331085 -0.817024 -0.009528 0 255 0 89 70
-0.312505 -0.797671 0.020472 0 255 0 89 70
-0.409364 -0.848662 0.014472 0 255 0 89 70
-0.430251 -0.835646 0.013178 0 255 0 89 70
-0.343457 -0.710398 0.014472 0 255 0 89 70
-0.330263 -0.722858 0.017472 0 255 0 89 70
-0.355149 -0.824301 -0.103893 0 255 0 89 70
-0.390925 -0.798514 0.047472 0 255 0 89 70
-0.334215 -0.830484 -0.090528 0 255 0 89 70
-0.346253 -0.836379 0.027654 0 255 0 89 70
-0.311132 -0.770683 -0.033528 0 255 0 89 70
-0.315784 -0.782643 -0.007986 0 255 0 89 70
-0.364298 -0.841353 0.032472 0 255 0 89 70
-0.505012 -0.807992 -0.067984 0 255 0 89 70
-0.354746 -0.725300 0.035472 0 255 0 89 70
-0.330482 -0.747963 -0.090528 0 255 0 89 70
-0.390086 -0.702401 -0.060528 0 255 0 89 70
-0.320158 -0.749603 -0.096528 0 255 0 89 70
-0.315482 -0.748074 -0.039528 0 255 0 89 70
-0.358294 -0.840866 -0.015528 0 255 0 89 70
-0.417047 -0.697756 -0.055339 0 255 0 89 70
-0.390389 -0.736990 0.040063 0 255 0 89 70
-0.311277 -0.770682 -0.090528 0 255 0 89 70
-0.375127 -0.707122 -0.083101 0 255 0 89 70
-0.373489 -0.863142 -0.047890 0 255 0 89 70
-0.352443 -0.858080 -0.033528 0 255 0 89 70
-0.388483 -0.862483 -0.033528 0 255 0 89 70
-0.367070 -0.815196 0.048052 0 255 0 89 70
-0.313195 -0.731663 -0.000528 0 255 0 89 70
-0.414073 -0.700782 -0.029084 0 255 0 89 70
-0.381153 -0.710069 0.019111 0 255 0 89 70
-0.339887 -0.794310 0.044472 0 255 0 89 70
-0.302523 -0.767758 -0.072528 0 255 0 89 70
-0.350241 -0.839344 -0.090528 0 255 0 89 70
-0.322621 -0.824585 -0.081528 0 255 0 89 70
-0.333417 -0.740486 0.035399 0 255 0 89 70
-0.405545 -0.754858 0.054372 0 255 0 89 70
-0.379426 -0.855918 -0.069528 0 255 0 89 70
-0.426125 -0.706677 -0.003237 0 255 0 89 70
-0.342600 -0.761407 0.046789 0 255 0 89 70
-0.347658 -0.737362 -0.108528 0 255 0 89 70
-0.397110 -0.819665 0.035472 0 255 0 89 70
-0.360101 -0.704252 -0.087009 0 255 0 89 70
-0.390070 -0.700589 0.017472 0 255 0 89 70
-0.379430 -0.856401 0.005472 0 255 0 89 70
-0.392974 -0.689518 -0.048528 0 255 0 89 70
-0.357546 -0.755277 0.051866 0 255 0 89 70
-0.333792 -0.783532 -0.108528 0 255 0 89 70
-0.366035 -0.696620 -0.075528 0 255 0 89 70
-0.319124 -0.821615 0.008618 0 255 0 89 70
-0.357133 -0.707942 0.023472 0 255 0 89 70
-0.326339 -0.818552 -0.054528 0 255 0 89 70
-0.369546 -0.755173 0.046063 0 255 0 89 70
-0.369860 -0.791171 0.057937 0 255 0 89 70
-0.396085 -0.702272 -0.003528 0 255 0 89 70
-0.354113 -0.705616 -0.036528 0 255 0 89 70
-0.354113 -0.705652 -0.024528 0 255 0 89 70
-0.390703 -0.772988 0.055026 0 255 0 89 70
-0.354966 -0.803302 0.049472 0 255 0 89 70
-0.381336 -0.731068 0.048231 0 255 0 89 70
-0.378061 -0.699506 -0.015528 0 255 0 89 70
-0.349123 -0.821354 0.016003 0 255 0 89 70
-0.363086 -0.702440 -0.054528 0 255 0 89 70
-0.333443 -0.743487 -0.104253 0 255 0 89 70
-0.358683 -0.725266 -0.096528 0 255 0 89 70
-0.328091 -0.817751 -0.093528 0 255 0 89 70
-0.497826 -0.805055 -0.054528 0 255 0 89 70
-0.327189 -0.714397 -0.066528 0 255 0 89 70
-0.376344 -0.846603 0.023472 0 255 0 89 70
-0.359857 -0.854261 -0.048528 0 255 0 89 70
-0.415319 -0.843571 0.017472 0 255 0 89 70
-0.404043 -0.706869 0.011472 0 255 0 89 70
-0.462987 -0.805359 0.017589 0 255 0 89 70
-0.392987 -0.691091 -0.033528 0 255 0 89 70
-0.318836 -0.788616 0.033018 0 255 0 89 70
-0.294575 -0.758827 0.013390 0 255 0 89 70
-0.321202 -0.715935 -0.051528 0 255 0 89 70
-0.392988 -0.691140 -0.021528 0 255 0 89 70
-0.391456 -0.859336 -0.009528 0 255 0 89 70
-0.334954 -0.758474 -0.102528 0 255 0 89 70
-0.490013 -0.808123 0.006637 0 255 0 89 70
-0.395690 -0.736944 0.047472 0 255 0 89 70
-0.351626 -0.764330 0.043094 0 255 0 89 70
-0.424093 -0.817699 0.031367 0 255 0 89 70
-0.342337 -0.731409 -0.103586 0 255 0 89 70
-0.402938 -0.799882 0.053967 0 255 0 89 70
-0.321928 -0.799195 -0.081528 0 255 0 89 70
-0.368527 -0.827184 -0.105528 0 255 0 89 70
-0.318850 -0.790214 -0.003528 0 255 0 89 70
-0.273562 -0.757350 0.008472 0 255 0 89 70
-0.378848 -0.789676 0.050472 0 255 0 89 70
-0.397372 -0.849644 -0.006528 0 255 0 89 70
-0.354416 -0.740303 0.044967 0 255 0 89 70
-0.362469 -0.806236 -0.111528 0 255 0 89 70
-0.403543 -0.697873 -0.024528 0 255 0 89 70
-0.407483 -0.802843 0.044472 0 255 0 89 70
-0.352306 -0.842326 -0.034944 0 255 0 89 70
-0.370345 -0.846690 -0.024528 0 255 0 89 70
-0.372245 -0.720592 0.029472 0 255 0 89 70
-0.335540 -0.824472 -0.012528 0 255 0 89 70
-0.324429 -0.742022 -0.000528 0 255 0 89 70
-0.330627 -0.764513 0.028067 0 255 0 89 70
-0.383995 -0.691929 -0.006528 0 255 0 89 70
-0.344089 -0.773395 -0.111528 0 255 0 89 70
-0.318307 -0.728077 -0.075528 0 255 0 89 70
-0.350692 -0.830340 -0.000528 0 255 0 89 70
-0.424356 -0.847698 -0.031969 0 255 0 89 70
-0.322033 -0.811201 -0.039528 0 255 0 89 70
-0.382389 -0.851787 0.020472 0 255 0 89 70
-0.315719 -0.775153 -0.075528 0 255 0 89 70
-0.509348 -0.798954 -0.045528 0 255 0 89 70
