ply
format ascii 1.0
element vertex 1138
property float x
property float y
property float z
property uchar red
property uchar green
property uchar blue
property uchar semantic_label
property uchar instance_label
end_header
0.387439 0.987562 -0.559792 131 120 116 7 4
0.379421 0.963984 -0.559576 134 117 111 7 4
0.399128 1.120741 -0.563868 136 149 168 7 4
0.710949 0.686194 -0.587059 77 49 24 7 4
0.737616 0.684550 -0.578907 85 54 31 7 4
0.546539 0.896215 -0.501572 77 70 60 7 4
0.555907 0.913611 -0.506690 66 54 44 7 4
0.545297 0.894799 -0.508531 75 64 51 7 4
0.555237 0.914245 -0.519670 67 54 44 7 4
0.729520 0.764600 -0.639517 38 28 20 7 4
0.755071 0.760422 -0.638929 35 24 17 7 4
0.635867 0.978262 -0.576197 49 33 18 7 4
0.660800 0.996587 -0.574161 49 34 22 7 4
0.530612 0.895303 -0.461643 78 80 60 7 4
0.549877 0.897749 -0.453596 117 103 81 7 4
0.552107 0.898029 -0.484553 68 68 54 7 4
0.563469 0.924700 -0.488156 89 81 67 7 4
0.540638 0.894771 -0.488818 48 68 55 7 4
0.557227 0.905508 -0.461816 110 98 81 7 4
0.919819 0.990537 -0.564688 134 116 97 7 4
0.415696 0.993617 -0.513751 253 255 253 0 0
0.436465 1.011159 -0.504585 171 166 172 7 4
0.418225 0.996659 -0.509633 222 225 242 7 4
0.432607 1.000094 -0.506853 248 250 255 7 4
0.416502 1.004153 -0.504834 248 250 255 7 4
0.413196 1.000900 -0.519893 255 255 255 0 0
0.426386 0.982718 -0.506109 253 255 255 0 0
0.389658 0.990067 0.160717 32 22 14 38 6
0.378362 0.951842 0.170078 28 18 13 38 6
0.401044 0.955501 0.153154 27 20 12 38 6
0.384573 0.952491 0.160977 27 18 10 38 6
0.412017 0.825055 -0.638274 61 54 51 7 4
0.380307 0.827115 -0.637378 54 49 46 7 4
0.396876 0.840707 -0.634272 58 46 37 7 4
0.382350 0.843866 -0.636336 53 45 42 7 4
0.690429 0.689097 -0.625178 27 28 21 7 4
0.717816 0.685895 -0.631492 33 29 24 7 4
0.921343 0.716921 -0.566340 183 176 160 7 4
0.594210 1.070491 -0.555169 100 102 98 7 4
0.620155 1.048924 -0.562219 54 48 40 7 4
0.427161 1.075218 0.151602 34 24 16 38 6
0.435966 1.089388 0.149043 35 25 16 38 6
0.425201 1.096032 0.150205 33 24 15 38 6
0.430391 1.105593 0.146882 32 23 13 38 6
0.413515 1.083838 0.158683 33 26 16 38 6
0.443238 1.100189 0.143611 35 25 16 38 6
0.835150 0.721698 -0.634709 28 21 12 7 4
0.819001 0.652429 -0.595151 68 41 26 7 4
0.809421 0.650703 -0.619021 30 25 20 7 4
0.814928 0.647527 -0.611813 71 46 24 7 4
0.821574 0.645506 -0.619957 70 65 53 7 4
0.794791 0.651311 -0.613211 30 19 13 7 4
0.815571 0.658136 -0.629216 30 25 17 7 4
1.053934 0.606655 -0.572033 207 214 228 7 4
0.268106 0.969713 -0.557586 147 170 170 7 4
0.266398 0.960727 -0.560716 199 218 217 7 4
0.657685 0.703481 -0.586484 80 51 26 7 4
0.660601 0.712045 -0.577945 84 56 30 7 4
0.552638 1.005353 -0.532465 36 27 19 7 4
0.564018 1.003267 -0.537082 41 41 35 7 4
0.567571 1.000667 -0.553971 46 40 31 7 4
1.006414 0.606830 -0.578617 74 45 32 7 4
0.995186 0.601067 -0.590757 72 44 24 7 4
0.374193 1.125660 -0.562836 145 157 179 7 4
0.614100 0.717689 -0.629114 40 36 34 7 4
0.604088 1.131280 -0.512737 124 113 117 7 4
0.589557 1.146714 -0.525719 136 136 139 7 4
0.591005 1.158179 -0.515206 145 144 149 7 4
0.569158 1.135488 -0.520845 79 69 56 7 4
0.582744 1.156092 -0.518447 79 68 54 7 4
0.570760 1.163267 -0.511752 88 81 77 7 4
0.381328 0.780818 -0.610526 54 43 32 7 4
0.423157 0.768155 -0.608608 73 52 34 7 4
0.381892 0.785739 -0.601691 81 54 34 7 4
0.382763 0.789252 -0.626367 46 44 41 7 4
0.686383 1.134839 -0.535367 92 75 61 7 4
0.683364 1.122868 -0.550821 97 78 64 7 4
0.695678 1.137393 -0.548176 82 68 57 7 4
0.678624 1.104436 -0.551075 87 58 40 7 4
0.687371 1.102092 -0.559462 79 60 50 7 4
0.835939 1.012509 -0.562893 45 26 16 7 4
0.833959 1.033543 -0.546718 45 18 11 7 4
0.839873 1.027743 -0.551241 57 38 24 7 4
0.828083 1.018787 -0.548337 51 24 16 7 4
0.386130 0.805648 -0.577758 85 57 33 7 4
0.407341 0.789513 -0.580338 86 55 30 7 4
0.382303 0.796305 -0.580194 90 53 30 7 4
0.427588 0.714042 -0.722581 85 36 24 40 5
0.546026 1.153507 -0.493968 60 60 57 7 4
0.547474 1.161256 -0.492111 57 61 56 7 4
0.486108 0.913107 -0.490028 50 47 36 7 4
0.497683 0.905495 -0.479402 209 223 213 7 4
0.496958 0.907167 -0.462151 159 149 134 7 4
0.477396 0.911192 -0.488685 69 51 32 0 0
0.402465 0.883869 -0.519606 187 182 182 0 0
0.377519 0.915898 -0.423061 155 162 169 0 0
1.078917 0.699211 -0.648269 39 31 18 7 4
0.400776 0.905026 -0.413800 225 226 235 0 0
0.399000 0.890706 -0.414412 201 198 205 0 0
0.381803 0.895003 -0.418062 229 230 239 0 0
0.339975 0.709976 -0.709491 237 183 206 40 5
0.342209 0.738334 -0.707678 254 215 233 40 5
0.272029 0.947013 0.213739 22 15 9 38 6
0.258749 0.956160 0.228802 124 104 82 38 6
0.277993 0.954911 0.236056 97 77 55 38 6
0.274295 0.963092 0.224290 121 107 82 38 6
0.259567 0.969865 0.236931 116 98 75 38 6
0.261358 0.967331 0.243688 110 92 73 38 6
0.249831 0.950048 0.254887 97 78 61 38 6
0.265444 0.966483 0.253649 83 61 41 38 6
0.267996 0.955777 0.254901 98 76 52 38 6
0.269700 0.966404 0.263908 95 76 56 38 6
0.271274 0.985786 0.271554 83 67 48 38 6
0.281698 0.968545 0.263638 95 76 56 38 6
0.393835 1.046702 0.162441 29 20 13 38 6
0.390627 1.055945 0.169153 28 20 13 38 6
0.402360 1.068476 0.162396 31 20 13 38 6
1.118476 0.644353 -0.568194 172 162 168 7 4
0.608538 1.050132 -0.567595 45 36 27 7 4
0.622309 1.043180 -0.565409 72 61 56 7 4
0.499841 0.751644 -0.589041 84 52 29 7 4
0.492416 1.107170 -0.466422 117 126 123 0 0
0.485997 1.127227 -0.492845 168 161 161 0 0
0.491527 1.105364 -0.477561 122 116 116 0 0
0.487062 1.115992 -0.490306 159 158 158 0 0
0.503491 1.139651 -0.499953 74 79 75 0 0
0.486927 1.108722 -0.500033 112 106 106 0 0
0.274018 0.814124 -0.713153 201 140 161 40 5
0.876598 0.906128 -0.568740 164 150 138 7 4
0.861825 0.699744 -0.635441 48 30 20 7 4
0.870273 0.710169 -0.638365 51 33 22 7 4
0.381318 0.809105 -0.704816 151 116 121 40 5
0.395829 0.792270 -0.705859 106 65 66 40 5
0.422177 0.974488 -0.436365 144 134 137 0 0
0.439009 0.955320 -0.462805 124 113 112 0 0
0.411446 0.942587 -0.437503 136 127 134 0 0
0.428607 0.953578 -0.440476 190 188 192 0 0
0.434939 0.952349 -0.446127 140 131 132 0 0
0.268786 0.685878 -0.715450 211 167 177 40 5
0.528387 1.112146 -0.456646 108 116 125 0 0
0.515230 1.134996 -0.448289 166 179 190 0 0
0.501749 1.131259 -0.449704 107 112 112 0 0
0.497241 1.102891 -0.444022 187 197 208 0 0
0.524092 1.129707 -0.445056 156 170 182 0 0
0.528340 1.141181 -0.446035 152 166 178 0 0
1.018028 0.621336 -0.629030 146 94 54 7 4
1.042151 0.625034 -0.631508 139 94 56 7 4
0.646532 0.872987 -0.573507 105 84 76 7 4
0.337059 0.975790 0.185049 25 16 10 38 6
0.344106 0.977521 0.192814 27 18 13 38 6
0.313813 0.967263 0.203252 24 15 10 38 6
0.428669 0.745181 -0.717513 72 28 20 40 5
0.413725 0.725704 -0.714430 79 41 28 40 5
0.376849 0.873934 -0.435073 233 238 241 0 0
0.763073 1.125915 -0.525540 109 101 94 7 4
0.472821 1.062337 0.133668 34 27 17 38 6
0.482110 1.070327 0.131495 36 27 17 38 6
0.502944 1.064375 0.116217 147 140 121 38 6
0.491562 1.051627 0.121043 36 27 18 38 6
0.480853 1.068416 0.111731 143 133 108 38 6
0.501677 1.061455 0.110288 137 131 108 38 6
0.484001 1.060592 0.125118 34 25 16 38 6
0.473258 1.070297 0.115749 49 44 36 38 6
0.457773 0.806404 -0.637058 54 47 38 7 4
0.460423 0.787531 -0.632333 55 54 50 7 4
0.676598 0.961629 -0.575147 59 42 33 7 4
1.080427 1.046338 -0.568087 190 185 179 7 4
0.386528 0.942110 -0.527720 208 194 204 0 0
0.515757 0.897410 -0.464974 135 106 64 7 4
0.510315 0.904396 -0.451363 126 105 72 7 4
0.528839 0.899577 -0.450529 132 104 73 7 4
0.395463 0.902426 0.154150 28 18 13 38 6
0.410424 0.878483 0.143351 29 19 12 38 6
0.372821 0.897265 0.158250 30 18 13 38 6
0.445005 0.873359 0.128040 56 41 23 38 6
0.447734 0.851888 0.115869 95 84 71 38 6
0.465029 0.856281 0.114341 74 62 52 38 6
0.440621 0.856220 0.123073 48 34 20 38 6
0.447596 0.864304 0.129156 62 53 39 38 6
0.362275 0.820961 0.108130 89 80 68 38 6
0.990528 0.606470 -0.581885 70 44 24 7 4
0.981642 0.619000 -0.576863 74 47 28 7 4
0.474179 1.042208 0.128588 35 27 16 38 6
0.483212 1.032261 0.121627 93 93 83 38 6
0.494007 1.033270 0.115714 55 53 43 38 6
0.295378 0.608596 -0.722132 195 136 134 40 5
0.306872 0.629479 -0.717229 179 122 122 40 5
0.276575 0.798196 0.127853 48 36 23 38 6
0.256043 0.789149 0.131364 50 36 26 38 6
0.259026 0.812295 0.127711 48 33 24 38 6
0.249240 0.923379 0.229991 92 73 52 38 6
0.263099 0.930033 0.207483 21 14 8 38 6
0.256571 0.916860 0.215002 24 14 10 38 6
0.273343 0.920165 0.214085 23 15 9 38 6
0.257322 0.931164 0.213900 21 13 8 38 6
0.265523 0.917241 0.216034 22 12 8 38 6
0.275836 0.927456 0.217447 22 15 9 38 6
0.272793 0.939772 0.239259 95 79 52 38 6
0.264221 0.945649 0.222977 28 17 11 38 6
0.261122 0.946365 0.219809 29 18 12 38 6
0.264069 0.921691 0.228463 101 81 54 38 6
0.283122 0.925102 0.224460 107 85 55 38 6
0.279928 0.940027 0.225288 62 47 33 38 6
0.263825 0.612496 -0.723776 171 108 110 40 5
0.557690 0.939043 -0.454611 127 111 101 7 4
0.560971 0.917841 -0.459140 109 93 81 7 4
0.550712 0.930205 -0.443028 129 103 98 0 0
0.545772 0.928063 -0.441475 120 101 77 0 0
0.364706 0.866841 0.150518 30 19 13 38 6
0.486428 1.017001 -0.432769 162 164 168 0 0
1.053928 1.073267 -0.567999 188 189 178 7 4
0.654153 1.158686 -0.489918 142 141 141 7 4
0.552969 0.954470 -0.463259 127 110 94 7 4
0.548596 0.967490 -0.447428 116 95 86 0 0
0.542316 0.964583 -0.445518 67 54 55 0 0
1.220066 0.830813 -0.601447 81 67 54 5 2
1.225657 0.849736 -0.597799 68 45 24 5 2
1.212551 0.838662 -0.627725 81 64 49 5 2
1.226730 0.823606 -0.591647 144 142 136 5 2
1.218059 0.875397 -0.659822 69 48 26 5 2
1.233566 0.898561 -0.666784 71 55 41 5 2
1.211781 0.894807 -0.679862 72 53 38 5 2
0.388651 0.641559 -0.727194 88 36 27 40 5
0.251541 0.847080 0.130497 48 35 24 38 6
1.124024 1.029342 -0.567866 166 159 146 7 4
0.925880 0.652715 -0.573285 149 142 131 7 4
0.930724 0.629567 -0.580758 79 51 33 7 4
0.903863 0.647181 -0.576169 103 79 65 7 4
0.569431 1.041164 -0.571203 28 24 22 7 4
0.576031 1.075121 -0.570595 28 25 21 7 4
0.586070 1.049565 -0.562849 37 28 18 7 4
0.590116 1.065600 -0.561031 39 30 24 7 4
0.583240 1.073540 -0.567734 41 28 26 7 4
0.635719 1.079922 -0.511629 133 134 135 7 4
0.831782 0.678333 -0.574046 87 59 43 7 4
0.778550 0.693329 -0.573090 86 61 38 7 4
0.796319 0.665041 -0.580279 78 50 24 7 4
0.793346 0.673688 -0.576749 81 52 26 7 4
0.803472 0.658783 -0.586010 78 48 28 7 4
0.599730 0.789571 -0.638469 37 23 13 7 4
0.584934 0.794206 -0.638600 41 29 14 7 4
0.563798 0.799952 -0.636970 58 45 34 7 4
0.532104 1.139871 -0.457631 142 151 161 0 0
0.523779 1.164662 -0.455399 159 170 182 0 0
0.524855 1.151940 -0.470469 173 184 190 0 0
0.537499 1.098898 -0.565034 41 34 24 7 4
0.525121 1.147505 -0.448342 136 148 160 0 0
0.528775 1.161003 -0.453326 96 106 119 0 0
0.531358 1.093635 -0.568657 38 32 30 7 4
0.714598 0.822410 -0.572037 98 78 65 7 4
0.277739 0.877314 0.186392 25 16 11 38 6
0.286864 0.867124 0.177748 26 16 11 38 6
0.398249 1.139161 -0.512890 106 93 93 0 0
0.453906 1.157105 -0.560482 129 129 141 0 0
0.363658 0.832779 -0.575000 102 74 48 7 4
0.471568 0.882600 -0.564180 87 64 40 0 0
0.552316 0.985036 -0.458479 76 67 65 7 4
0.543544 0.978102 -0.446816 100 97 108 0 0
0.553498 0.953497 -0.451010 109 90 88 7 4
0.549055 0.998752 -0.452853 105 95 103 0 0
0.543917 0.995137 -0.448673 97 95 107 0 0
1.227822 0.926517 -0.686525 83 58 44 5 2
1.228232 0.915606 -0.683818 76 51 25 5 2
0.631525 0.722397 -0.629780 31 26 18 7 4
0.644910 0.729860 -0.630668 25 20 9 7 4
0.654067 0.735971 -0.632432 29 24 19 7 4
0.656525 0.757953 -0.635810 30 21 8 7 4
0.624958 1.014971 -0.573092 44 31 23 7 4
0.626081 1.028978 -0.569996 44 32 25 7 4
0.608939 1.039365 -0.571246 43 28 20 7 4
1.125223 0.818253 -0.566458 164 161 148 7 4
1.007957 0.792479 -0.566663 190 183 171 7 4
0.357283 0.652715 -0.716421 175 120 124 40 5
0.343941 0.661855 -0.713665 203 145 155 40 5
0.339198 0.685563 -0.711519 198 135 150 40 5
1.052474 0.748753 -0.567459 189 184 173 7 4
0.687336 1.086784 -0.565086 75 56 42 7 4
0.674226 1.072730 -0.559772 78 63 46 7 4
0.501599 1.153586 -0.524770 77 68 67 0 0
0.487896 1.128774 -0.523081 73 74 71 7 4
0.670558 0.716818 -0.575668 100 72 47 7 4
0.663336 0.743765 -0.572199 107 79 56 7 4
0.722348 0.735628 -0.571889 117 93 68 7 4
0.349587 0.803398 0.112319 103 89 68 38 6
0.335886 0.805744 0.112134 106 90 67 38 6
0.260403 0.818706 -0.602018 75 56 38 7 4
0.275235 0.818429 -0.600574 84 53 30 7 4
0.546631 1.030753 -0.529708 48 43 37 7 4
0.536096 1.029859 -0.502121 52 50 42 7 4
0.540879 1.030266 -0.504273 67 60 50 7 4
0.559179 1.008914 -0.519958 52 42 37 7 4
0.549295 1.017121 -0.522576 47 40 32 7 4
0.539467 1.019662 -0.512751 52 46 39 7 4
0.249435 0.845294 -0.571338 215 229 235 7 4
0.279069 0.836265 -0.571452 219 233 239 7 4
0.266103 0.831905 -0.573722 152 148 142 7 4
0.253914 0.816802 -0.591737 85 58 34 7 4
0.261677 0.818477 -0.583269 86 59 36 7 4
0.270667 0.822274 -0.578211 69 49 31 7 4
0.755856 0.744949 -0.635287 52 36 23 7 4
0.762410 0.731333 -0.631743 41 29 16 7 4
0.731604 0.721702 -0.632713 38 27 16 7 4
0.422992 0.867922 0.126814 55 44 30 38 6
0.408223 0.862573 0.124849 67 58 44 38 6
0.440287 0.871985 0.135508 56 49 38 38 6
0.418662 0.843771 0.131683 36 25 16 38 6
0.437014 0.852604 0.131397 45 34 21 38 6
0.416556 0.871667 0.119544 62 49 27 38 6
0.418834 0.867154 0.137172 28 18 11 38 6
0.438538 0.850403 0.120656 25 16 8 38 6
0.297818 0.889773 -0.712021 150 98 113 40 5
0.320720 0.882234 -0.709178 151 108 117 40 5
0.535049 0.762244 -0.630549 45 41 34 7 4
0.489069 0.778476 -0.631332 54 53 49 7 4
0.535738 0.781446 -0.636000 44 37 29 7 4
0.496829 0.761818 -0.627573 47 46 40 7 4
0.376646 0.915903 -0.531577 188 156 182 7 4
0.387179 0.891022 -0.514531 190 184 188 0 0
0.377513 0.900798 -0.727773 124 93 96 40 5
0.329864 0.795832 -0.610474 63 44 27 7 4
0.327668 0.800123 -0.602131 87 59 38 7 4
0.442910 0.881949 -0.534485 136 121 113 0 0
0.459405 0.885017 -0.530937 103 81 59 0 0
0.454033 0.885178 -0.552043 78 59 47 0 0
0.854747 1.018435 -0.567561 95 74 62 7 4
0.850434 1.031290 -0.563901 69 46 31 7 4
1.082990 0.763788 -0.693823 146 97 53 5 2
1.086205 0.765260 -0.712180 128 79 37 5 2
1.108930 0.748059 -0.688772 135 94 47 5 2
0.929422 0.678832 -0.637106 64 40 29 7 4
0.946180 0.675707 -0.632690 54 36 27 7 4
0.936556 0.684188 -0.636665 64 40 28 7 4
0.923595 0.664796 -0.632297 56 38 26 7 4
0.440766 0.943593 -0.412681 194 192 195 0 0
0.466164 0.934043 -0.418726 179 178 173 0 0
0.472014 0.904240 -0.481563 60 47 36 0 0
0.280433 1.073556 -0.548979 74 81 87 7 4
0.286456 1.094161 -0.553313 97 105 112 7 4
1.066730 0.658118 -0.633793 56 33 20 7 4
1.064644 0.622553 -0.633038 95 53 30 7 4
1.053736 0.642734 -0.630953 86 54 28 7 4
1.055000 0.659595 -0.630163 51 36 24 7 4
1.081170 0.641209 -0.636532 59 34 22 7 4
1.062461 0.644362 -0.634476 51 33 20 7 4
0.355258 0.999745 -0.553906 135 129 119 7 4
0.504661 0.820450 -0.635612 38 28 20 7 4
0.481427 0.820933 -0.636263 41 32 22 7 4
0.343435 0.795239 0.121454 118 108 91 38 6
0.322544 0.811702 0.122866 27 17 8 38 6
0.338564 0.803317 0.116058 62 50 37 38 6
0.334208 0.799510 0.141016 30 20 11 38 6
0.325158 0.797889 0.127058 30 21 13 38 6
0.332048 0.794295 0.132969 33 24 15 38 6
0.343978 0.810856 0.140105 30 21 12 38 6
0.417937 1.011140 -0.433378 167 160 174 0 0
0.418587 1.017881 -0.429031 173 176 198 0 0
0.438661 1.014806 -0.428246 173 167 195 0 0
0.423700 1.043168 -0.430539 201 196 218 0 0
0.434815 1.019273 -0.423593 166 164 191 0 0
0.425231 1.021365 -0.423581 201 196 218 0 0
0.330348 0.650064 -0.715104 250 195 207 40 5
0.423065 0.890966 0.118600 52 42 30 38 6
0.408615 0.880988 0.112795 64 49 30 38 6
0.424633 0.920809 0.135633 61 54 41 38 6
0.424417 0.913818 0.117859 40 35 30 38 6
0.437605 0.903004 0.139972 64 54 46 38 6
0.448386 0.883698 0.131622 63 44 27 38 6
0.422583 0.886095 0.128642 52 40 26 38 6
0.428700 0.910441 0.140342 62 51 38 38 6
0.428761 0.898588 0.134336 61 48 34 38 6
0.423229 0.899772 0.130793 54 44 30 38 6
0.436362 0.887688 0.139616 28 19 11 38 6
0.430413 0.906969 0.124494 60 51 37 38 6
1.174703 0.736507 -0.628517 108 114 113 5 2
1.171733 0.719776 -0.628731 102 99 96 5 2
0.852598 0.866753 -0.569495 164 157 154 7 4
0.901610 0.627886 -0.601205 75 45 25 7 4
0.584348 0.806753 -0.572485 106 90 69 7 4
1.052874 0.820480 -0.567301 178 179 162 7 4
0.243683 0.920528 -0.709598 82 50 48 40 5
0.434475 0.794474 -0.576854 114 83 60 7 4
0.451210 0.782615 -0.577325 82 56 29 7 4
0.415300 0.803115 -0.576675 90 60 34 7 4
0.540410 1.082924 -0.558466 30 28 26 7 4
0.556201 1.085150 -0.570646 29 26 24 7 4
0.441918 1.120298 0.138568 60 48 37 38 6
0.432554 1.119111 0.141394 54 45 35 38 6
0.412580 1.131771 0.157752 85 80 66 38 6
0.428578 1.135438 0.154118 61 52 43 38 6
0.408613 1.100521 0.165994 90 84 66 38 6
0.422724 1.111088 0.149739 37 26 18 38 6
0.420048 1.106379 0.158009 35 28 17 38 6
0.422569 1.124859 0.158637 125 124 106 38 6
0.415615 1.118934 0.160615 116 114 96 38 6
0.417615 1.125903 0.144361 47 37 28 38 6
0.435292 1.123577 0.145551 35 27 17 38 6
0.415522 1.119704 0.153095 45 37 27 38 6
0.416140 1.114051 0.147723 66 52 43 38 6
0.508275 1.105977 -0.486551 62 65 61 0 0
0.513334 1.117524 -0.484211 63 67 63 0 0
0.519948 1.113240 -0.464160 42 49 42 0 0
0.512038 1.114361 -0.491572 71 74 70 0 0
0.512483 1.137705 -0.453061 61 63 59 0 0
0.520471 1.144835 -0.487181 41 48 41 0 0
0.502588 1.132876 -0.483227 61 64 59 0 0
1.032315 0.603634 -0.624064 135 91 54 7 4
1.235722 0.939724 -0.570334 166 165 177 7 4
1.214100 0.922064 -0.570426 191 195 207 7 4
0.310597 1.054880 0.207719 25 19 12 38 6
0.292954 1.042420 0.219952 66 63 51 38 6
0.296616 1.057296 0.217456 25 19 13 38 6
0.899209 0.788926 -0.564763 179 173 162 7 4
0.530633 1.115135 -0.566968 34 35 34 7 4
0.520023 1.121235 -0.570084 37 32 27 7 4
0.524091 1.110817 -0.570768 35 29 24 7 4
0.524455 1.126201 -0.560422 41 39 41 7 4
0.310532 1.018776 -0.540014 53 59 62 7 4
0.322957 1.042436 -0.546284 41 48 48 7 4
0.291126 1.018309 -0.538446 77 83 88 7 4
0.283107 1.036142 -0.539939 80 88 94 7 4
0.913954 1.112834 -0.569892 97 81 63 7 4
0.947723 1.126566 -0.570958 115 92 75 7 4
0.348006 0.797057 -0.590687 84 56 34 7 4
0.352921 0.800924 -0.582790 91 61 38 7 4
0.310316 0.816881 -0.580874 81 56 30 7 4
0.327397 0.804350 -0.586571 87 58 31 7 4
0.456033 1.123214 -0.529381 251 252 253 0 0
0.469845 1.114036 -0.532775 244 243 240 0 0
0.472023 1.122693 -0.551344 214 216 221 7 4
0.462782 1.127957 -0.537179 154 155 171 0 0
0.447080 1.135453 -0.560108 128 129 146 7 4
0.459944 1.126582 -0.551712 172 184 206 7 4
0.459653 1.133499 -0.556867 164 171 194 7 4
0.477839 0.995808 0.115803 90 89 79 38 6
0.753552 1.034075 -0.558123 49 30 20 7 4
0.753653 1.045215 -0.547679 46 33 22 7 4
0.408142 1.142285 -0.565616 158 176 203 7 4
0.673991 0.720628 -0.629643 23 19 11 7 4
0.681126 0.735591 -0.633353 34 27 16 7 4
0.375227 1.155696 -0.564945 155 172 197 7 4
0.391439 1.166091 -0.565457 165 181 204 7 4
0.454550 0.883065 -0.562753 92 65 39 0 0
0.466168 0.869676 -0.572575 117 84 55 7 4
0.484299 1.001876 0.109797 91 85 75 38 6
0.486621 1.008431 0.112863 75 65 48 38 6
0.551614 0.969137 -0.473759 73 60 48 7 4
0.552625 0.951371 -0.486658 86 74 63 7 4
0.708504 1.160315 -0.543285 72 55 43 7 4
0.699427 1.150367 -0.530179 92 84 73 7 4
0.708577 1.150624 -0.551690 76 56 42 7 4
0.720725 1.156110 -0.554143 88 67 57 7 4
0.719201 1.115163 -0.562821 93 72 59 7 4
0.707691 1.084240 -0.568528 96 66 49 7 4
0.725321 1.067360 -0.565461 96 74 62 7 4
0.270905 0.911645 0.207594 22 14 9 38 6
0.272867 0.912268 0.195475 23 14 9 38 6
0.450580 0.878101 -0.440913 95 73 49 0 0
0.428765 1.149554 0.150008 150 148 136 38 6
0.433410 1.137998 0.150757 173 175 160 38 6
0.440135 1.162150 0.150063 163 163 151 38 6
0.431579 1.138374 0.146689 83 77 66 38 6
0.437864 0.764867 -0.615852 60 51 46 7 4
0.408242 0.773886 -0.615065 58 47 39 7 4
0.426740 0.770949 -0.600423 80 52 33 7 4
0.688906 0.695331 -0.629845 31 32 25 7 4
0.715468 0.696140 -0.629466 28 26 19 7 4
0.698172 0.714320 -0.630774 26 22 15 7 4
1.091879 0.858941 -0.566561 178 175 160 7 4
1.120598 0.906378 -0.566570 184 179 167 7 4
1.092494 0.901451 -0.566494 176 171 158 7 4
0.566582 0.992208 -0.522257 44 49 44 7 4
0.565013 0.981404 -0.503121 49 50 45 7 4
0.541132 1.004078 -0.495427 57 51 41 7 4
0.548388 0.994120 -0.499302 49 47 37 7 4
0.560324 0.994695 -0.507615 47 40 34 7 4
0.570024 0.975284 -0.543653 48 37 28 7 4
0.383964 0.912516 -0.475383 242 240 252 0 0
0.379096 0.913608 -0.489736 223 202 232 0 0
0.350598 0.785628 -0.706266 218 170 186 40 5
0.491783 1.129243 -0.472987 93 96 95 0 0
0.489529 1.123710 -0.470362 95 99 97 0 0
0.499377 1.119736 -0.442966 96 102 101 0 0
0.493567 1.123144 -0.450738 68 72 72 0 0
0.820286 1.009777 -0.556820 51 23 19 7 4
0.812892 1.015818 -0.546636 57 28 25 7 4
0.783282 1.035930 -0.545336 49 20 17 7 4
0.798086 1.020860 -0.545940 83 48 44 7 4
0.817737 1.022167 -0.543778 47 17 13 7 4
0.238983 0.954628 -0.561892 164 176 183 7 4
0.418070 1.030475 0.147070 35 26 17 38 6
1.014542 0.691972 -0.635550 37 26 20 7 4
0.894654 0.750635 -0.565085 195 197 184 7 4
1.057126 0.788353 -0.686562 59 40 24 5 2
1.088552 0.777914 -0.682348 75 48 28 5 2
1.206520 0.806595 -0.622397 79 76 61 5 2
1.196308 0.782393 -0.623198 85 72 68 5 2
1.158004 0.938910 -0.567044 210 214 206 7 4
1.105818 0.936595 -0.566823 187 181 172 7 4
0.946456 0.668988 -0.571429 151 143 131 7 4
1.076231 0.786901 -0.681331 52 34 21 5 2
0.893679 1.052156 -0.568954 106 84 59 7 4
0.908305 1.049022 -0.567882 116 101 80 7 4
0.368046 0.967096 0.229788 78 66 52 38 6
0.374174 0.954259 0.236139 92 74 57 38 6
0.367698 0.938892 0.220076 45 33 22 38 6
0.381480 0.953317 0.226340 77 66 54 38 6
0.349872 0.954310 0.226949 87 59 36 38 6
0.370549 1.098991 -0.560372 80 86 98 7 4
0.348311 1.101464 -0.558197 69 80 89 7 4
0.663806 1.061456 -0.550748 89 52 35 7 4
0.675087 1.072138 -0.532975 89 61 46 7 4
0.369269 0.877736 -0.475545 192 190 204 0 0
0.537765 1.088776 -0.520066 39 42 42 7 4
0.537138 1.071020 -0.499821 52 53 46 7 4
0.407120 0.925338 -0.497494 216 167 214 0 0
0.400640 0.916584 -0.474834 235 242 248 0 0
0.392077 0.918307 -0.490829 249 220 250 0 0
0.341295 1.127053 -0.562060 76 88 89 7 4
0.801724 0.696112 -0.632228 37 27 17 7 4
0.822512 0.692216 -0.633242 59 51 38 7 4
0.798195 0.709258 -0.632055 33 21 12 7 4
0.807976 0.718218 -0.634600 49 35 23 7 4
0.514549 1.147171 -0.515499 46 49 45 0 0
0.529620 1.151554 -0.508021 54 61 62 7 4
0.517850 1.144670 -0.502645 53 55 54 0 0
0.523217 1.145524 -0.521887 41 39 31 7 4
0.511651 1.151272 -0.523890 41 39 31 7 4
0.531724 1.148354 -0.525667 46 40 37 7 4
0.505383 1.153571 -0.506851 40 46 43 0 0
0.523824 1.154258 -0.493535 49 53 52 0 0
0.311712 1.087307 -0.555502 58 66 71 7 4
0.337053 1.082642 -0.555004 56 64 71 7 4
0.325052 1.100278 -0.558934 50 57 63 7 4
0.360977 0.879541 -0.712443 114 81 88 40 5
0.632791 0.787944 -0.641387 40 27 20 7 4
0.874598 0.951128 -0.569103 149 126 114 7 4
0.436491 1.101313 -0.547168 160 177 195 7 4
0.432240 1.077828 -0.532040 152 170 187 0 0
0.415214 1.077141 -0.543179 124 147 174 7 4
0.427898 1.087769 -0.540247 126 146 179 7 4
0.468085 0.846172 0.109572 121 117 105 38 6
0.460273 0.855093 0.107242 142 144 141 38 6
0.453071 0.831069 0.106277 88 79 63 38 6
0.279635 0.854370 -0.568379 168 175 177 7 4
0.288598 0.872628 -0.567258 74 56 48 7 4
0.348472 0.834475 -0.636138 46 49 41 7 4
0.328147 0.837755 -0.636420 23 14 12 7 4
0.324132 0.852358 -0.636751 40 36 28 7 4
0.316690 0.834418 -0.633333 28 22 22 7 4
0.345862 0.820870 -0.631879 44 46 42 7 4
0.293644 1.107082 0.216611 48 42 31 38 6
0.285219 1.112797 0.220829 68 60 49 38 6
0.291293 1.113740 0.210029 70 60 47 38 6
0.758536 0.912565 -0.571668 131 109 92 7 4
0.810283 0.918218 -0.569440 123 104 87 7 4
0.613539 0.706199 -0.610574 33 23 17 7 4
0.623857 0.708688 -0.623597 35 24 17 7 4
0.606037 0.716232 -0.601730 72 44 32 7 4
0.599371 0.714674 -0.622592 34 27 22 7 4
0.644049 0.704312 -0.627689 30 29 23 7 4
0.628684 0.712041 -0.586536 81 52 28 7 4
1.108959 0.749622 -0.703385 73 47 25 5 2
0.312470 0.851972 0.162153 28 17 10 38 6
0.293927 0.851179 0.171041 27 16 11 38 6
0.631722 0.879013 -0.573657 73 56 40 7 4
0.599054 0.874065 -0.573433 82 55 46 7 4
0.621681 0.915706 -0.575575 54 42 28 7 4
0.413194 0.807451 -0.633736 56 50 46 7 4
0.426028 0.784997 -0.626774 59 50 45 7 4
0.436390 0.809528 -0.637370 59 49 45 7 4
0.849848 0.821628 -0.569883 173 168 168 7 4
0.828599 0.799628 -0.571450 177 175 171 7 4
0.477327 0.947198 -0.423828 96 70 59 0 0
0.260316 0.888970 -0.714478 112 71 75 40 5
0.279448 0.908431 -0.712621 188 139 153 40 5
0.971371 0.683364 -0.568733 190 189 183 7 4
0.954069 0.700983 -0.567889 194 195 185 7 4
0.491417 1.114047 -0.511515 107 108 110 7 4
0.473349 1.113027 -0.520663 246 251 253 7 4
0.497602 1.125886 -0.501057 66 70 66 0 0
0.500009 1.108938 -0.507993 88 88 90 7 4
0.498185 1.111637 -0.502468 134 137 136 0 0
0.501538 1.130959 -0.510704 53 53 49 0 0
0.547823 1.141011 -0.513316 45 50 53 7 4
0.562034 1.148204 -0.510065 31 44 51 7 4
0.559268 1.161270 -0.506169 39 44 48 7 4
0.350633 0.950821 -0.560114 255 253 161 7 4
0.885499 0.632936 -0.625454 33 26 18 7 4
0.864845 0.642006 -0.630951 39 31 22 7 4
0.853697 0.636613 -0.618071 39 31 22 7 4
0.894213 0.625220 -0.609105 63 45 24 7 4
0.865346 0.633852 -0.610006 52 34 22 7 4
0.363524 1.116635 0.168654 86 77 68 38 6
0.375843 1.108394 0.174098 41 33 24 38 6
0.369211 1.121713 0.171614 63 56 46 38 6
1.116503 0.696179 -0.564551 196 191 180 7 4
1.043142 0.584708 -0.603502 66 41 26 7 4
1.054374 0.573582 -0.611679 75 44 28 7 4
1.055549 0.581064 -0.620776 82 58 35 7 4
1.060487 0.576273 -0.602978 73 48 34 7 4
0.547802 0.989961 -0.485643 53 53 45 7 4
0.546395 1.007483 -0.484579 57 54 46 7 4
0.548576 0.998942 -0.468765 51 49 40 7 4
0.552676 0.969889 -0.489748 71 58 46 7 4
0.860269 0.674342 -0.573341 122 99 84 7 4
0.863060 0.652806 -0.577257 104 85 65 7 4
0.885434 0.692270 -0.569221 140 131 118 7 4
0.312938 1.095431 0.214844 39 31 25 38 6
0.317312 1.079594 0.214522 42 35 28 38 6
0.561562 1.046794 -0.570140 31 27 22 7 4
0.567922 1.011195 -0.565379 40 32 26 7 4
0.561898 1.028811 -0.568421 33 27 24 7 4
0.380542 0.872094 -0.460095 253 252 255 0 0
0.795848 0.885659 -0.570675 150 141 125 7 4
0.331886 0.880180 -0.568698 95 77 61 7 4
0.337638 0.854331 -0.573087 159 141 119 7 4
0.551211 1.011159 -0.547191 31 23 18 7 4
0.546362 1.024570 -0.556143 31 21 14 7 4
0.537777 1.030579 -0.547419 34 34 33 7 4
0.539245 1.028012 -0.538007 47 47 48 7 4
0.557805 1.006985 -0.551281 30 23 18 7 4
0.543447 1.017959 -0.532376 70 57 51 7 4
0.552803 1.032355 -0.559746 31 23 17 7 4
0.542873 1.032961 -0.560490 30 24 16 7 4
0.254885 1.099108 0.254625 143 140 131 38 6
0.272671 1.082143 0.244823 126 127 120 38 6
0.264416 1.074206 0.251402 159 159 149 38 6
0.257026 1.067492 0.253448 132 133 122 38 6
0.246100 1.091824 0.260099 102 100 92 38 6
0.266279 1.111405 0.246796 88 85 75 38 6
0.258675 1.085806 0.257086 136 134 126 38 6
0.614203 0.739746 -0.630603 31 31 27 7 4
0.609510 0.750695 -0.633128 34 27 21 7 4
0.634322 0.739698 -0.632807 34 30 27 7 4
0.601672 0.762188 -0.635165 27 27 21 7 4
0.356482 0.878818 0.156120 29 17 12 38 6
0.548780 0.908147 -0.442499 126 108 91 0 0
0.442796 0.892773 0.135066 56 41 21 38 6
0.513846 1.142255 -0.465953 63 63 67 0 0
0.525960 1.133226 -0.465799 69 71 70 0 0
0.508784 1.142557 -0.489501 41 44 45 0 0
0.523619 1.161238 -0.486175 83 80 81 0 0
0.522893 1.157392 -0.466217 135 147 147 0 0
0.529622 1.156226 -0.496158 84 87 85 7 4
0.512867 1.161553 -0.483841 157 155 169 0 0
1.054218 0.890138 -0.566449 179 172 163 7 4
0.412041 1.050374 -0.525470 116 105 120 0 0
0.405077 1.048770 -0.516454 181 196 204 0 0
0.418828 1.065873 -0.506714 52 56 56 7 4
0.435627 1.060563 -0.506143 133 125 121 7 4
0.430525 1.042423 -0.505447 45 43 38 7 4
0.440427 1.054996 -0.508010 38 38 33 7 4
0.410508 1.046649 -0.506192 69 73 71 7 4
0.422112 1.071158 -0.522637 168 168 170 0 0
0.410752 1.060831 -0.511741 185 191 193 0 0
0.288799 0.820622 -0.580643 78 46 22 7 4
0.301609 0.825900 -0.577636 72 44 22 7 4
0.896634 0.652569 -0.632681 41 27 17 7 4
0.905325 0.630345 -0.630357 36 26 22 7 4
0.913450 0.641501 -0.633195 39 29 24 7 4
0.284389 0.879183 -0.714390 234 186 202 40 5
0.281731 0.849178 -0.714644 225 173 189 40 5
0.419172 1.141227 -0.513744 78 62 57 0 0
0.421362 1.122914 -0.517052 53 47 42 0 0
0.422842 1.136676 -0.512267 85 69 62 0 0
0.403037 1.139084 -0.507712 109 99 100 0 0
0.416086 1.118669 -0.516552 131 122 100 0 0
0.418504 1.119492 -0.501939 118 102 103 0 0
0.409676 1.109403 -0.558650 139 146 166 7 4
0.446289 1.120661 -0.555465 127 130 145 7 4
0.424671 1.126055 -0.560724 119 124 147 7 4
0.427874 0.959949 0.137530 50 40 32 38 6
0.424861 0.973726 0.123395 45 35 28 38 6
0.431694 0.970097 0.118387 52 46 37 38 6
0.412879 0.949116 0.146953 36 27 21 38 6
0.446142 0.961553 0.115722 88 75 60 38 6
0.647154 1.056257 -0.525878 131 102 103 7 4
0.636509 1.045691 -0.527367 66 51 41 7 4
0.644332 1.063405 -0.514265 155 143 148 7 4
0.413559 1.094306 -0.551549 168 186 216 7 4
0.391309 1.086877 -0.557286 73 84 96 7 4
0.386955 1.097356 -0.560629 66 75 88 7 4
1.148392 0.621863 -0.572993 108 94 87 5 2
0.473686 1.125059 0.130994 71 69 57 38 6
0.483547 1.107399 0.131637 38 35 24 38 6
0.484286 1.110415 0.125990 44 40 29 38 6
1.054788 0.829239 -0.716624 63 49 29 5 2
1.061096 0.832548 -0.724584 68 47 30 5 2
0.279306 0.999845 0.221343 20 16 9 38 6
0.303993 0.999167 0.203195 21 15 9 38 6
0.299667 1.007060 0.230039 64 59 47 38 6
0.306703 0.999344 0.219765 23 18 12 38 6
0.306280 1.000645 0.213888 27 23 16 38 6
0.294923 1.009702 0.226544 36 31 22 38 6
0.282450 0.998952 0.214990 21 18 11 38 6
0.526848 0.796128 -0.574932 121 88 67 7 4
0.395194 0.816941 -0.637153 57 52 46 7 4
0.419206 0.777667 -0.626092 61 55 50 7 4
0.390841 0.809242 -0.633298 47 46 43 7 4
1.051000 0.587564 -0.581284 69 43 31 7 4
1.040140 0.599864 -0.575202 219 219 228 7 4
1.014844 0.598542 -0.584586 74 43 28 7 4
0.562801 0.895594 -0.568020 73 66 69 7 4
0.370397 0.960716 -0.552993 237 223 209 7 4
0.351851 0.978003 -0.554644 237 235 138 7 4
0.360540 0.982231 -0.554655 246 243 168 7 4
0.370672 0.947373 -0.545970 201 179 192 7 4
0.347109 0.940825 -0.561426 255 251 156 7 4
0.363798 0.952559 -0.552117 254 252 153 7 4
0.948924 0.713992 -0.567455 185 185 171 7 4
0.975771 0.721113 -0.567069 189 186 174 7 4
0.953332 0.738753 -0.566988 188 185 168 7 4
0.492848 0.840879 -0.575035 134 105 74 7 4
0.479016 0.852684 -0.575014 132 102 70 7 4
0.977469 0.890213 -0.566868 176 166 152 7 4
0.548643 0.742326 -0.580480 81 52 24 7 4
0.966442 1.002566 -0.567434 157 142 125 7 4
0.413260 1.097168 -0.511064 176 169 143 0 0
0.412071 1.095280 -0.501333 130 114 96 0 0
0.399431 1.109426 -0.501987 130 114 96 0 0
0.335024 0.818245 0.145088 31 19 12 38 6
1.069238 0.775328 -0.697050 145 90 52 5 2
1.067503 0.776932 -0.714616 156 108 53 5 2
1.075737 0.789634 -0.689603 115 78 44 5 2
0.425500 1.145911 -0.565305 134 142 151 7 4
0.428064 1.158475 -0.564177 143 153 171 7 4
0.391469 1.121550 0.169674 34 27 17 38 6
0.391077 1.111254 0.162114 38 30 21 38 6
0.405417 1.115523 0.167064 74 68 52 38 6
0.404885 1.119063 0.161995 65 58 44 38 6
0.406777 1.114390 0.154312 47 42 29 38 6
0.380690 1.115126 0.164472 40 32 23 38 6
0.399609 1.114175 0.154756 36 27 18 38 6
0.388011 1.114337 0.174702 71 63 53 38 6
0.531779 0.888525 -0.499042 100 71 67 0 0
1.061239 0.658184 -0.568190 185 188 187 7 4
1.021184 0.681650 -0.568149 164 164 164 7 4
1.082155 0.677374 -0.566150 201 202 193 7 4
0.466316 0.891224 -0.492330 41 29 19 0 0
0.450179 0.869526 -0.477252 69 52 40 0 0
0.650789 0.697181 -0.614198 29 22 8 7 4
0.629492 0.708293 -0.601238 73 47 29 7 4
0.646162 0.699829 -0.609552 66 48 31 7 4
0.255449 0.875093 -0.637595 44 34 26 7 4
0.271162 0.870350 -0.636301 39 32 20 7 4
0.266056 0.856748 -0.635648 54 51 43 7 4
0.607472 1.059245 -0.523067 121 105 91 7 4
0.624342 1.044501 -0.529211 47 41 38 7 4
0.632351 1.051774 -0.514998 54 50 48 7 4
0.620225 1.056969 -0.513154 86 79 75 7 4
0.616649 1.048733 -0.521648 66 55 51 7 4
0.266939 1.047559 0.239339 40 33 26 38 6
0.259079 1.015001 0.234288 33 24 17 38 6
0.267015 1.008439 0.233321 57 48 32 38 6
0.337437 1.008401 0.189598 27 17 13 38 6
0.325390 1.024686 0.198530 28 18 12 38 6
0.349369 1.036564 0.184990 26 17 13 38 6
0.381258 1.116031 0.177578 92 84 71 38 6
0.504309 0.964728 -0.444786 159 172 178 0 0
0.492597 0.953782 -0.439090 181 189 193 0 0
0.497097 0.976699 -0.433203 203 210 208 0 0
1.215975 0.795444 -0.587544 94 72 53 7 4
1.216097 0.804755 -0.572967 74 45 28 7 4
0.982598 0.934629 -0.566718 175 169 158 7 4
1.068817 0.587490 -0.576299 187 190 200 7 4
1.064268 0.578464 -0.586478 182 172 175 7 4
0.497255 1.061077 -0.524502 153 153 149 7 4
0.475792 1.040329 -0.514849 187 182 183 7 4
0.495089 1.073093 -0.522943 56 56 50 7 4
1.004820 1.025219 -0.568911 157 149 134 7 4
0.959197 0.618600 -0.583044 74 48 28 7 4
0.954080 0.616041 -0.589854 72 43 25 7 4
0.306508 1.095997 0.209019 40 31 26 38 6
0.433931 0.814572 0.109298 164 162 150 38 6
0.371712 0.943529 0.172902 29 21 13 38 6
0.325038 0.921207 0.179104 27 18 10 38 6
0.364459 0.921081 0.168977 32 23 14 38 6
0.377466 0.883025 -0.718066 101 71 75 40 5
0.389636 0.861473 -0.712675 94 60 59 40 5
0.386984 0.847507 -0.707896 93 64 71 40 5
0.864598 0.851628 -0.568499 167 149 139 7 4
1.208366 0.819475 -0.629312 89 76 64 5 2
1.200520 0.804238 -0.628081 81 79 62 5 2
0.980171 0.638367 -0.573000 142 127 123 7 4
1.016214 0.621549 -0.571580 134 124 123 7 4
0.531195 1.148836 -0.558368 34 39 38 7 4
0.352693 0.825311 0.108972 54 40 24 38 6
0.362524 0.828608 0.141328 31 20 12 38 6
0.317097 0.783696 0.139231 30 19 13 38 6
0.276362 0.815802 0.158210 30 19 13 38 6
0.301464 0.795263 0.146346 34 24 17 38 6
0.838164 1.104694 -0.523868 82 78 72 7 4
0.856198 1.071138 -0.554202 46 35 26 7 4
0.845599 1.106671 -0.540959 57 49 39 7 4
0.856279 1.108501 -0.549900 52 45 35 7 4
0.829817 1.083744 -0.540217 60 56 53 7 4
0.842852 1.089236 -0.546777 54 49 43 7 4
0.349179 0.793759 -0.605351 76 49 37 7 4
0.347428 0.792849 -0.616203 52 38 33 7 4
0.373799 0.786375 -0.618665 52 43 40 7 4
0.497892 0.749889 -0.603880 71 48 29 7 4
0.487172 0.748392 -0.615679 43 33 21 7 4
0.500258 0.743111 -0.613282 63 44 26 7 4
0.298068 0.953775 -0.726004 92 66 70 40 5
1.171791 0.698356 -0.568907 121 100 89 7 4
1.133796 0.713128 -0.565450 124 111 96 7 4
1.152473 0.748253 -0.567277 125 111 101 7 4
1.158349 0.693878 -0.568045 162 147 146 7 4
0.618096 0.724274 -0.629029 31 33 23 7 4
0.309348 0.740628 -0.710482 233 171 187 40 5
0.318098 0.759128 -0.709600 237 180 194 40 5
0.419481 0.933973 0.145560 24 15 10 38 6
0.602015 0.750421 -0.573618 112 87 58 7 4
0.592778 0.769949 -0.572565 126 105 80 7 4
0.521430 1.028096 -0.444586 124 131 137 0 0
0.527303 1.003733 -0.446335 67 69 79 0 0
0.508919 1.035392 -0.440402 207 217 221 0 0
0.792323 0.725162 -0.632284 47 33 17 7 4
0.448096 1.063583 0.141717 36 25 16 38 6
0.440108 0.949730 0.118639 76 66 51 38 6
0.444965 0.969868 0.114056 91 79 63 38 6
0.455734 0.960316 0.118607 68 57 41 38 6
0.447571 0.979038 0.132288 49 43 32 38 6
0.455324 0.966853 0.124427 86 85 75 38 6
0.438954 0.941238 0.125662 64 61 57 38 6
0.666090 1.064488 -0.521820 114 88 74 7 4
0.674910 1.069370 -0.512551 151 147 154 7 4
0.846473 0.987128 -0.567950 94 73 60 7 4
0.823822 1.004064 -0.562212 87 70 57 7 4
0.702334 1.104625 -0.565572 77 58 46 7 4
1.084286 0.707753 -0.565862 198 195 185 7 4
0.257824 0.726217 -0.712588 253 217 228 40 5
0.283197 0.734560 -0.711338 231 171 186 40 5
0.283584 0.813039 0.123410 33 24 10 38 6
0.300575 0.809909 0.124201 24 16 4 38 6
0.304239 0.794087 0.127136 37 29 18 38 6
0.298731 0.787826 0.129333 31 21 12 38 6
0.283725 1.072892 0.234444 82 78 69 38 6
0.556396 0.946435 -0.504268 62 64 54 7 4
0.560456 0.935729 -0.507822 68 64 58 7 4
0.979141 1.030381 -0.568434 161 151 134 7 4
0.465797 0.761769 -0.625095 52 47 41 7 4
0.474048 0.752840 -0.610222 55 47 40 7 4
0.472731 0.757169 -0.604483 77 50 27 7 4
0.447121 0.765370 -0.604782 84 54 29 7 4
0.448736 0.768011 -0.624657 59 52 42 7 4
0.448811 0.760709 -0.612951 63 44 32 7 4
0.346621 0.944069 0.239789 90 73 49 38 6
1.108726 1.063730 -0.568729 155 149 134 7 4
0.274216 1.112644 0.240088 58 49 42 38 6
0.254597 1.105208 0.249316 156 154 146 38 6
0.365165 0.833915 -0.638092 44 42 33 7 4
0.979955 0.633043 -0.631732 79 52 33 7 4
0.988153 0.645648 -0.634956 33 24 14 7 4
1.005590 0.636423 -0.633608 62 35 20 7 4
1.011688 0.652123 -0.632956 65 37 19 7 4
0.994404 0.657535 -0.634501 55 36 22 7 4
0.480795 1.014536 0.107897 92 80 66 38 6
0.490629 1.029389 0.110766 87 74 58 38 6
0.481874 1.029925 0.109649 116 111 100 38 6
1.105960 0.711628 -0.564947 200 194 182 7 4
1.126500 0.739395 -0.564950 176 169 156 7 4
0.934726 0.620687 -0.627065 44 35 24 7 4
0.945211 0.616278 -0.600983 72 43 21 7 4
0.924723 0.621538 -0.598863 77 45 29 7 4
0.937324 0.614129 -0.609830 58 39 23 7 4
1.188856 0.732501 -0.573220 73 48 28 7 4
1.170665 0.736816 -0.568957 157 142 153 7 4
1.189962 0.744139 -0.568404 105 84 72 7 4
0.573107 0.721554 -0.610499 32 25 15 7 4
0.594847 0.713473 -0.611429 76 45 27 7 4
0.895644 1.176165 -0.555688 52 36 32 7 4
0.393389 0.892268 0.118758 63 53 39 38 6
0.370321 0.854760 0.113525 98 88 72 38 6
0.393447 0.873867 0.111252 66 51 35 38 6
0.401508 0.857577 0.115355 56 39 25 38 6
0.405568 0.855712 0.120899 85 73 59 38 6
0.410720 0.864291 0.116131 105 95 81 38 6
0.387598 0.845231 0.139013 31 19 12 38 6
0.405294 0.859167 0.137762 29 18 10 38 6
0.367354 0.957100 0.242714 95 79 56 38 6
0.362279 0.966579 0.250630 92 73 56 38 6
0.353856 0.971073 0.253133 87 69 48 38 6
0.347093 0.969177 0.259973 78 61 44 38 6
0.377679 0.966888 0.237631 85 68 45 38 6
0.360590 0.964236 0.245879 87 70 48 38 6
0.371312 0.975676 0.244825 97 80 54 38 6
0.432064 0.835307 -0.725108 72 46 41 40 5
0.442226 0.826351 -0.733344 73 45 36 40 5
0.371774 1.058339 0.179609 29 20 13 38 6
0.357843 1.061471 0.185075 28 20 13 38 6
0.367011 1.037299 0.176468 28 19 11 38 6
0.377852 1.054906 0.174781 28 22 12 38 6
0.380496 1.076468 0.175241 28 19 12 38 6
1.029109 0.704527 -0.567511 204 201 197 7 4
0.884178 0.717240 -0.567013 247 249 238 7 4
0.862113 0.697020 -0.571260 243 244 233 7 4
0.390851 0.891041 -0.537121 210 198 206 0 0
0.384875 0.893697 -0.547628 168 143 166 0 0
1.024361 0.666783 -0.631667 54 37 23 7 4
1.043057 0.659398 -0.631015 55 32 19 7 4
1.030288 0.687427 -0.636085 38 28 18 7 4
1.039565 0.675256 -0.635777 52 30 17 7 4
0.287007 1.069757 0.227305 45 39 29 38 6
0.305016 1.067855 0.213691 49 43 34 38 6
0.289312 1.091724 0.224962 51 45 34 38 6
0.281395 1.081781 0.236660 114 113 102 38 6
0.301503 1.085700 0.219124 30 23 17 38 6
0.307617 1.106231 0.215888 39 34 25 38 6
0.299963 1.100118 0.217956 47 39 30 38 6
0.284103 1.099004 0.235648 120 121 110 38 6
0.288848 1.087277 0.234468 110 108 97 38 6
0.285762 1.099088 0.228035 59 54 43 38 6
1.178738 0.752243 -0.625245 122 125 126 5 2
0.516523 1.158602 -0.547187 55 49 42 7 4
0.503780 1.156335 -0.550526 70 62 47 7 4
0.511451 1.148885 -0.546865 70 61 42 7 4
0.525998 1.148489 -0.556939 59 53 50 7 4
0.510066 1.142327 -0.558345 73 61 53 7 4
0.512620 1.145144 -0.535638 71 62 49 7 4
0.521315 1.154777 -0.537190 43 41 34 7 4
0.512636 1.157810 -0.537521 58 53 44 7 4
0.810598 0.729628 -0.571495 135 118 106 7 4
0.476079 1.061925 -0.514820 157 154 153 7 4
0.448842 1.036695 -0.506378 40 43 38 7 4
0.400324 0.782827 -0.587442 86 59 32 7 4
0.290598 0.655628 -0.715858 186 126 138 40 5
0.286819 0.860905 -0.637029 52 44 37 7 4
0.298889 0.847128 -0.635675 49 36 30 7 4
0.311730 0.860138 -0.636362 38 33 23 7 4
0.291380 0.872294 -0.635717 43 33 25 7 4
0.342333 0.616625 -0.723190 109 54 45 40 5
0.371469 0.626341 -0.727828 82 35 22 40 5
0.253358 0.931630 0.238727 103 83 60 38 6
0.466277 0.773094 -0.627878 62 55 43 7 4
0.453869 0.884208 -0.513007 108 89 68 0 0
0.461367 0.885195 -0.507154 116 85 54 0 0
0.490524 0.881690 -0.520750 169 147 136 0 0
0.701098 0.981629 -0.572183 110 87 76 7 4
1.002380 0.719266 -0.566788 178 174 159 7 4
0.260719 0.866070 0.183391 26 16 10 38 6
0.310188 1.112024 -0.558025 75 87 91 7 4
0.293070 1.122268 -0.558659 86 96 102 7 4
0.256288 0.868268 -0.714221 197 155 161 40 5
0.272180 0.887082 -0.715090 170 119 131 40 5
0.539394 0.838435 -0.573624 129 101 86 7 4
0.373629 0.827098 0.112545 172 171 157 38 6
0.387336 0.842687 0.114961 77 68 50 38 6
0.389337 0.825164 0.113898 61 49 30 38 6
0.395297 0.842127 0.120613 59 43 31 38 6
0.406235 0.838947 0.118984 64 54 40 38 6
0.395034 0.820748 0.127833 46 34 24 38 6
0.387919 0.828078 0.131981 32 21 12 38 6
0.405104 0.842585 0.131836 33 22 14 38 6
0.377301 0.818950 0.111432 87 79 64 38 6
0.396468 0.823708 0.116402 69 59 44 38 6
1.195029 1.096565 -0.570528 159 146 144 7 4
1.166143 1.102387 -0.570599 161 145 138 7 4
0.499003 1.098567 -0.483174 121 132 126 0 0
0.730105 0.877740 -0.573511 87 73 57 7 4
0.961723 0.950003 -0.565751 158 149 135 7 4
1.092598 0.739628 -0.566392 200 199 183 7 4
0.327823 0.904889 0.172782 27 16 11 38 6
0.323424 0.869238 0.163015 27 16 11 38 6
1.065166 0.933244 -0.566277 184 178 164 7 4
1.036467 0.961452 -0.567313 176 170 159 7 4
0.296304 0.955665 0.261587 73 54 32 38 6
0.299158 0.967340 0.265890 81 53 38 38 6
0.309474 0.956291 0.260239 76 56 36 38 6
0.311026 0.950974 0.262976 79 59 38 38 6
0.461396 1.051126 0.136191 34 27 17 38 6
0.457619 1.067585 0.141000 36 27 18 38 6
0.465767 1.043128 0.112929 96 81 66 38 6
1.120388 0.672063 -0.565808 177 169 168 7 4
0.246641 0.784441 0.145115 41 29 22 38 6
0.260176 0.796564 0.151371 38 29 20 38 6
0.874473 0.771378 -0.567137 181 178 167 7 4
0.913682 0.760628 -0.565542 186 181 165 7 4
0.920598 0.821628 -0.564951 175 168 151 7 4
0.346032 0.852974 -0.637586 26 19 13 7 4
0.772598 0.859628 -0.573006 122 106 97 7 4
0.664286 0.846916 -0.572684 118 103 85 7 4
0.693659 0.835628 -0.572023 118 103 85 7 4
1.152598 0.819628 -0.567081 160 154 138 7 4
1.146598 0.860128 -0.567155 139 126 111 7 4
0.576078 1.099321 -0.560844 58 52 47 7 4
0.583509 1.088094 -0.553160 55 50 46 7 4
0.578463 1.087424 -0.537146 81 78 75 7 4
0.582062 1.084226 -0.566416 58 52 51 7 4
0.593883 1.076501 -0.535755 89 93 101 7 4
0.572947 1.104017 -0.538935 103 97 91 7 4
0.421308 1.021597 -0.502033 91 84 90 7 4
0.506363 1.106035 -0.474290 117 118 117 0 0
0.497992 1.100668 -0.448651 131 140 149 0 0
0.798473 0.838378 -0.571892 137 128 114 7 4
0.778598 0.875629 -0.572307 116 106 95 7 4
0.385412 0.882698 -0.570184 136 108 88 0 0
0.406016 0.880285 -0.568830 134 110 91 0 0
0.377418 0.891350 -0.562474 110 76 71 0 0
0.392979 0.887296 -0.557803 124 98 91 0 0
1.075252 0.677372 -0.644112 49 34 22 7 4
1.060625 0.695177 -0.641935 38 31 16 7 4
1.064208 0.683898 -0.637883 43 31 23 7 4
1.057421 0.669998 -0.634209 51 35 23 7 4
1.050377 0.683359 -0.637521 40 29 16 7 4
1.200327 0.776451 -0.612946 101 90 82 5 2
1.200396 0.766089 -0.600992 104 99 95 5 2
1.189346 0.764920 -0.622942 95 89 88 5 2
0.250791 0.991245 -0.549344 145 168 171 7 4
0.316494 1.069048 0.214774 33 24 19 38 6
0.325417 1.061147 0.205817 35 27 21 38 6
1.032122 1.121176 -0.571143 153 136 121 7 4
0.930770 0.691357 -0.637027 59 45 25 7 4
0.897556 0.704341 -0.636160 50 36 24 7 4
0.391544 0.956704 -0.433930 127 119 126 0 0
0.405766 0.985120 -0.434388 183 167 184 0 0
0.450949 0.821213 -0.637690 54 49 39 7 4
0.434564 0.830709 -0.637096 51 47 36 7 4
0.465926 0.824696 -0.636913 48 36 24 7 4
0.453792 0.832149 -0.634875 48 40 23 7 4
0.858532 0.660347 -0.631077 54 45 38 7 4
0.835143 0.676992 -0.631000 80 76 58 7 4
0.843893 0.685429 -0.634058 53 44 34 7 4
1.204348 1.035753 -0.569525 140 133 128 7 4
1.194645 0.991286 -0.569452 126 117 110 7 4
1.181598 1.024128 -0.567520 134 124 115 7 4
0.633843 0.748882 -0.572687 132 115 95 7 4
0.669608 0.768584 -0.571412 136 112 93 7 4
1.027098 1.153628 -0.570784 128 100 84 7 4
0.437886 0.880106 -0.557065 189 176 168 0 0
0.940610 0.630915 -0.632412 39 32 23 7 4
0.925175 0.627343 -0.631677 37 29 20 7 4
0.925583 0.647019 -0.629928 40 29 21 7 4
0.932359 0.656446 -0.631531 35 24 11 7 4
0.823268 1.056629 -0.547069 51 29 24 7 4
0.806674 1.056695 -0.547004 63 35 30 7 4
0.820394 1.076097 -0.539302 51 38 35 7 4
0.826596 0.997545 -0.563486 106 87 73 7 4
0.789366 0.984437 -0.567875 113 88 71 7 4
0.811698 0.982295 -0.566241 109 84 69 7 4
0.804670 1.000363 -0.562268 109 84 72 7 4
1.111262 0.573220 -0.575955 201 205 219 7 4
1.082518 0.594320 -0.573035 212 220 235 7 4
1.078688 0.580154 -0.578431 230 231 246 7 4
1.102796 0.566550 -0.583336 230 228 241 7 4
1.111679 0.565773 -0.584457 55 33 26 7 4
0.785649 0.666529 -0.630530 39 28 24 7 4
0.978105 1.131859 -0.572092 102 84 61 7 4
0.993453 1.129569 -0.571324 109 92 70 7 4
0.407890 0.948990 -0.509663 159 144 155 0 0
0.928317 0.683155 -0.569075 133 125 110 7 4
0.908424 0.999910 -0.565398 161 146 129 7 4
1.156471 0.647567 -0.569524 114 105 103 5 2
1.161114 0.641184 -0.586229 49 36 28 5 2
0.543472 0.802892 -0.638161 37 25 19 7 4
0.550938 0.790021 -0.636055 64 54 39 7 4
0.566252 0.784646 -0.636689 69 53 40 7 4
0.302245 0.835165 -0.712158 230 167 184 40 5
0.332036 0.619585 -0.720354 124 80 77 40 5
1.157598 0.903628 -0.566930 197 200 192 7 4
0.744723 0.798628 -0.572003 106 85 76 7 4
0.560223 0.913902 -0.559596 59 49 48 7 4
0.479045 1.051664 0.110154 139 140 132 38 6
0.496658 1.048430 0.108734 126 128 119 38 6
0.912899 0.966241 -0.563836 160 149 135 7 4
0.890286 0.979253 -0.567423 171 160 145 7 4
0.393874 1.014299 0.157904 28 19 11 38 6
0.453968 0.879713 -0.499225 90 63 45 0 0
0.487991 0.755603 -0.626591 54 51 50 7 4
0.846723 0.759003 -0.571638 132 121 113 7 4
0.380265 0.878198 -0.418779 197 203 211 0 0
0.469058 0.983161 -0.475968 213 191 238 0 0
0.470935 0.988030 -0.466965 82 71 60 0 0
0.451073 0.972879 -0.489025 80 73 71 0 0
0.302703 1.112031 0.205281 52 42 36 38 6
0.516305 0.875787 -0.518661 153 112 117 0 0
0.539048 0.880032 -0.524151 111 91 74 7 4
0.525516 0.879950 -0.507465 151 109 100 0 0
0.515172 0.877692 -0.512155 163 122 114 0 0
0.532429 0.877743 -0.513911 114 90 77 7 4
0.570012 0.933261 -0.565365 77 69 78 7 4
0.573597 0.964435 -0.561457 71 59 69 7 4
0.720384 1.138515 -0.558562 68 47 35 7 4
0.750451 1.153999 -0.545951 79 67 58 7 4
0.736856 1.157668 -0.552520 69 49 35 7 4
0.763166 1.168157 -0.542318 69 53 45 7 4
0.588920 0.747025 -0.629357 36 33 27 7 4
0.595583 0.782441 -0.635744 43 30 18 7 4
0.459254 1.121047 -0.524952 221 233 239 7 4
0.445545 1.108836 -0.522728 251 250 253 7 4
0.454420 1.104260 -0.528189 252 252 249 0 0
0.421916 1.089933 -0.496291 155 149 118 0 0
0.418841 1.086446 -0.509107 140 133 115 0 0
0.437225 1.091913 -0.511922 59 59 54 7 4
0.429295 1.117831 -0.509347 100 95 77 0 0
0.434154 1.092921 -0.501161 108 101 79 0 0
0.425089 1.085974 -0.506309 85 86 76 0 0
0.426579 1.079770 -0.525311 228 233 237 0 0
0.416015 1.072776 -0.513635 245 245 250 0 0
0.413340 1.085557 -0.517550 225 234 237 0 0
0.422193 1.101185 -0.516646 157 164 166 0 0
0.433282 1.099291 -0.519979 251 250 254 0 0
0.775084 1.129405 -0.520153 104 100 89 7 4
0.778419 1.161467 -0.526863 122 114 102 7 4
0.403041 0.924948 0.124080 49 40 29 38 6
0.276786 0.792722 -0.712166 227 176 191 40 5
0.942598 1.154628 -0.571178 109 83 64 7 4
0.546452 1.056916 -0.555695 40 38 35 7 4
0.544865 1.065535 -0.532375 42 40 36 7 4
0.540133 1.054385 -0.557727 44 40 37 7 4
0.546577 1.040245 -0.537607 39 37 33 7 4
0.540606 1.071378 -0.550514 31 30 30 7 4
0.542345 1.068503 -0.541772 35 35 30 7 4
0.289292 0.993879 0.256866 105 88 70 38 6
0.283792 0.987414 0.260411 81 62 43 38 6
0.285214 0.979186 0.268158 82 65 46 38 6
0.290906 0.988217 0.266941 84 70 50 38 6
0.294680 0.997197 0.260462 110 96 81 38 6
0.287801 1.009731 0.265872 99 98 84 38 6
1.084643 0.566845 -0.610496 63 43 24 7 4
1.083364 0.569136 -0.596592 62 41 21 7 4
1.094129 0.570567 -0.620429 41 28 20 7 4
0.882803 0.638846 -0.632427 38 28 22 7 4
0.407606 0.816846 -0.703911 107 68 65 40 5
0.369776 0.828899 -0.704302 122 88 90 40 5
0.690267 1.059081 -0.570047 104 77 61 7 4
0.740639 1.114125 -0.546896 55 30 16 7 4
0.752068 1.125637 -0.538156 95 76 65 7 4
0.758215 1.109247 -0.535521 74 58 43 7 4
0.764815 1.116592 -0.522853 98 80 69 7 4
0.801204 1.135232 -0.518096 148 137 128 7 4
0.816167 1.105581 -0.520082 160 161 154 7 4
0.818328 1.122033 -0.516531 141 135 124 7 4
0.859805 0.776441 -0.569376 231 231 226 7 4
1.024590 0.812893 -0.567215 184 180 164 7 4
1.101911 0.794004 -0.566985 198 202 188 7 4
0.757527 1.067430 -0.548846 49 28 19 7 4
0.797605 1.048394 -0.549073 51 32 22 7 4
