ply
format ascii 1.0
element vertex 1106
property float x
property float y
property float z
property uchar red
property uchar green
property uchar blue
property uchar semantic_label
property uchar instance_label
end_header
-1.940390 0.902781 -0.844833 38 36 34 0 0
-1.934883 0.900631 -0.860520 43 42 40 0 0
-1.924904 1.373840 -1.122938 74 65 51 39 5
-2.356104 0.999222 -0.489541 28 26 17 9 6
-2.356739 0.994645 -0.511238 30 26 17 9 6
-2.363741 0.998415 -0.485696 28 22 15 9 6
-2.157320 0.662267 -0.775711 33 32 31 0 0
-2.182298 0.655831 -0.780192 67 61 53 0 0
-2.181521 0.663056 -0.807411 51 46 41 0 0
-2.175086 0.663485 -0.792169 32 31 33 0 0
-2.132183 0.542882 -0.783234 12 7 17 0 0
-2.114617 0.526246 -0.783303 31 30 29 0 0
-2.112725 0.512845 -0.774700 60 59 53 0 0
-1.969599 1.159987 -0.596779 74 71 57 0 0
-1.968017 1.173553 -0.601950 80 82 86 0 0
-2.191587 0.500571 -0.768698 15 15 12 0 0
-2.167500 0.507125 -0.767884 20 8 7 0 0
-2.190372 0.514468 -0.765241 9 11 6 0 0
-2.165321 0.518674 -0.765195 19 8 6 0 0
-1.763214 0.803058 -0.887479 196 179 163 7 7
-1.942714 0.613856 -0.766078 27 32 35 40 8
-2.178711 1.390838 -0.604404 91 61 37 40 9
-2.434392 0.849379 -0.442850 37 34 33 9 6
-2.424129 0.848099 -0.422455 39 33 32 9 6
-2.158032 0.604177 -0.833339 12 12 9 0 0
-2.156119 0.591301 -0.815822 10 6 2 0 0
-2.133884 0.579372 -0.819666 6 7 5 0 0
-1.676528 1.388639 -0.844573 33 32 29 5 3
-2.240674 0.838505 -0.610073 56 53 42 9 6
-2.250040 0.851636 -0.609972 36 31 26 0 0
-2.252259 0.847097 -0.605882 41 37 35 0 0
-2.254312 0.859748 -0.605202 20 16 10 0 0
-2.296082 0.891854 -0.136792 35 29 21 9 6
-2.295042 0.896478 -0.148087 45 36 25 9 6
-2.305482 0.889014 -0.152659 36 30 23 9 6
-2.279777 0.447241 -0.722814 170 118 65 0 0
-2.273718 0.476509 -0.711043 165 115 61 9 6
-2.283493 0.443702 -0.709049 168 119 66 9 6
-2.279090 0.445765 -0.715257 174 119 62 0 0
-2.275622 1.143373 -0.706419 50 36 22 9 6
-2.288829 1.154333 -0.706574 49 35 18 9 6
-2.266094 1.131610 -0.706080 50 39 19 9 6
-1.984350 0.921684 -0.694527 69 71 61 0 0
-2.520921 0.951117 -0.687777 8 9 2 9 6
-2.514675 0.940126 -0.689859 8 8 5 9 6
-2.522863 0.948662 -0.675166 6 10 1 9 6
-2.521518 0.953532 -0.679058 8 9 2 9 6
-1.898088 0.770108 -0.706914 44 36 50 40 8
-1.894992 0.743448 -0.710291 38 52 56 40 8
-1.881427 0.744095 -0.708659 43 45 56 40 8
-2.128186 1.255527 -0.264919 153 137 119 13 10
-2.125646 1.256244 -0.284923 154 143 122 13 10
-2.059126 1.413049 -0.642016 54 46 34 0 0
-2.045172 0.603493 -0.767020 17 24 19 40 8
-2.071008 0.620828 -0.766973 17 24 19 40 8
-2.023083 0.596729 -0.746342 21 24 20 40 8
-2.055239 0.609522 -0.757220 36 38 35 40 8
-2.050442 0.611240 -0.745471 69 68 64 40 8
-2.009432 1.102791 -1.083805 57 52 39 39 5
-2.006077 1.112806 -1.077764 50 45 33 39 5
-2.026813 1.096169 -1.077311 23 21 13 39 5
-1.777534 0.746048 -0.752898 53 54 72 40 8
-1.777403 0.745184 -0.759496 56 52 74 40 8
-1.980433 0.695567 -0.833816 10 10 9 40 8
-1.978444 0.724294 -0.834595 8 8 10 40 8
-2.339536 0.572369 -0.700773 175 167 162 9 6
-2.359551 0.565645 -0.701941 177 163 163 9 6
-2.043808 1.243345 -0.642873 68 55 39 0 0
-2.057868 1.249868 -0.634798 64 50 37 0 0
-2.061193 1.246565 -0.621530 130 121 101 0 0
-2.031505 1.212643 -0.621479 111 95 71 0 0
-2.045146 1.231550 -0.631732 116 106 92 0 0
-2.071742 1.238728 -0.617991 156 143 121 0 0
-2.064200 1.015374 -1.092986 52 51 36 39 5
-2.057128 1.018323 -1.093027 61 58 44 39 5
-2.035383 1.019174 -1.093468 86 81 61 39 5
-2.065895 1.015446 -1.104346 78 75 58 39 5
-2.044292 1.022640 -1.111386 90 85 68 39 5
-2.058739 1.020167 -1.104386 66 62 44 39 5
-2.066772 1.001111 -1.092775 53 50 35 39 5
-2.034508 0.699788 -0.759905 38 83 73 40 8
-2.020533 0.681971 -0.751073 70 150 134 40 8
-2.008333 0.686355 -0.751176 70 154 139 40 8
-1.863012 0.964465 -0.766596 145 132 119 0 0
-1.870342 0.983870 -0.730679 136 125 117 0 0
-1.871032 0.996870 -0.740573 114 116 113 0 0
-2.366554 0.995348 -0.532917 31 26 19 9 6
-1.976285 1.390081 -0.693045 124 99 69 9 6
-1.971960 1.398053 -0.700039 105 75 38 9 6
-1.704714 0.592558 -0.886936 202 187 174 7 7
-1.999352 1.169709 -1.123469 174 158 138 0 0
-2.225345 0.630958 -1.082085 91 85 69 39 5
-2.220104 0.628412 -1.077768 61 55 45 39 5
-1.734393 1.106345 -1.125713 139 140 144 5 3
-1.720912 1.124866 -1.126747 144 145 149 5 3
-2.135009 0.662982 -0.826546 34 32 31 40 8
-2.105016 0.645501 -0.828180 23 22 24 40 8
-2.111530 0.659521 -0.827961 42 43 38 40 8
-2.135876 0.673889 -0.828047 49 47 44 40 8
-1.856916 0.696245 -0.878818 102 92 122 7 7
-1.870824 1.143677 -0.758194 127 138 141 0 0
-1.887983 1.150609 -0.763971 107 117 113 0 0
-1.885304 1.149391 -0.738227 101 129 140 0 0
-2.047732 1.415528 -0.420197 47 42 27 13 10
-2.064067 1.389219 -0.421377 95 86 66 13 10
-1.901685 0.811985 -0.748147 2 6 5 40 8
-1.859887 1.427900 -0.984039 160 148 134 39 5
-2.220934 1.332015 -0.519230 69 46 22 40 9
-2.236964 1.323716 -0.523188 69 43 23 40 9
-1.916595 0.597046 -0.765464 17 18 17 40 8
-1.909953 0.593831 -0.766132 16 20 18 40 8
-1.909060 0.595918 -0.761716 20 22 22 40 8
-1.929712 0.586239 -0.761921 23 24 26 40 8
-2.116864 0.474287 -0.763182 29 25 21 0 0
-2.300642 1.004009 -0.556900 25 26 16 9 6
-2.299058 1.016652 -0.538969 30 31 20 9 6
-2.303309 1.004875 -0.533505 44 42 29 9 6
-2.295981 1.017463 -0.554234 31 29 22 9 6
-2.308270 1.002692 -0.513801 38 37 26 9 6
-2.241235 1.061671 -0.427936 46 39 28 13 10
-2.262570 1.053848 -0.425422 56 49 37 13 10
-2.265070 1.035110 -0.433109 20 16 9 13 10
-2.250828 1.037866 -0.428411 29 24 13 13 10
-2.131464 0.644668 -0.697651 206 194 200 40 8
-2.119609 0.646730 -0.690005 204 192 197 40 8
-2.101532 0.643851 -0.689294 199 192 196 40 8
-2.008817 0.920299 -0.632766 49 52 50 0 0
-2.022810 0.925192 -0.637918 57 52 41 0 0
-2.017570 0.929491 -0.613472 40 38 30 0 0
-2.030385 0.932728 -0.605337 52 38 25 0 0
-2.011867 0.940072 -0.608478 68 76 73 0 0
-1.921762 0.777182 -0.824571 66 59 74 40 8
-1.899696 0.778483 -0.829835 71 64 75 40 8
-1.925097 0.804354 -0.804297 62 52 62 40 8
-1.918355 0.801771 -0.832751 55 54 64 40 8
-1.929593 0.799785 -0.823379 56 49 57 40 8
-1.917571 0.794939 -0.819452 61 59 66 40 8
-2.041330 0.939407 -0.721054 49 42 27 0 0
-2.042555 0.934796 -0.714012 44 49 39 9 6
-2.048486 0.938398 -0.735522 44 59 51 9 6
-2.053857 0.945610 -0.739047 45 56 48 9 6
-2.046712 0.943188 -0.713081 56 41 16 9 6
-2.061420 0.932402 -0.703933 63 50 29 9 6
-2.064126 0.947063 -0.707634 62 45 21 9 6
-2.038698 0.944397 -0.709940 54 44 31 0 0
-1.935828 0.801279 -0.817125 62 55 62 40 8
-1.982540 1.189066 -1.076716 143 129 104 0 0
-1.973866 1.206141 -1.061740 118 104 84 39 5
-1.978010 1.198215 -1.084413 120 108 85 0 0
-1.992474 1.191147 -1.093665 149 133 110 0 0
-2.184240 1.281061 -0.424890 123 111 91 13 10
-2.161088 1.298877 -0.424390 136 122 104 13 10
-2.148428 1.314266 -0.424455 140 127 105 13 10
-2.133506 1.297635 -0.426376 42 35 21 13 10
-2.142790 1.281122 -0.427963 59 54 41 13 10
-1.813780 1.043615 -0.860674 77 76 97 0 0
-1.874503 0.720109 -0.693542 69 111 97 40 8
-2.241737 1.090883 -0.431019 88 77 63 13 10
-2.239583 1.129375 -0.425205 99 88 74 13 10
-2.245593 1.112054 -0.425443 22 17 9 13 10
-2.235663 1.112643 -0.428398 55 45 32 13 10
-2.252045 1.127697 -0.426326 22 17 9 13 10
-2.253193 1.103160 -0.423690 114 101 84 13 10
-2.227477 1.092789 -0.432895 29 23 13 13 10
-2.104422 1.411784 -0.673163 49 38 25 9 6
-2.117881 1.413044 -0.658296 42 33 25 9 6
-2.359206 1.017797 -0.684523 11 11 7 9 6
-2.350893 1.025113 -0.701231 15 11 9 9 6
-2.368840 1.024756 -0.692869 21 14 11 9 6
-2.375309 1.026343 -0.697833 19 13 11 9 6
-2.371964 1.016608 -0.681310 12 11 7 9 6
-2.229486 0.692046 -0.672692 42 119 113 0 0
-2.210469 0.700918 -0.645165 83 122 107 0 0
-2.218296 0.681780 -0.660584 44 118 112 0 0
-2.215542 0.683508 -0.648089 120 129 108 0 0
-1.866152 0.717620 -0.878980 52 51 73 7 7
-1.876251 0.741045 -0.878297 76 69 82 7 7
-1.716208 1.396821 -0.865227 20 19 15 5 3
-1.710220 1.408877 -0.842392 18 16 11 5 3
-1.696868 1.392218 -0.849479 14 16 11 5 3
-1.674375 1.345814 -1.068693 10 10 9 5 3
-1.664282 1.344435 -1.074088 13 11 7 5 3
-1.880852 0.845145 -0.883329 102 96 96 7 7
-1.899637 0.861169 -0.882061 92 86 82 7 7
-2.069742 1.351935 -0.402416 205 189 165 13 10
-2.415349 0.846364 -0.417180 37 35 33 9 6
-2.407889 0.844886 -0.389728 36 35 36 9 6
-2.394532 0.850163 -0.405807 15 15 9 9 6
-2.421353 0.843027 -0.401397 35 33 36 9 6
-2.009066 0.840461 -0.761198 3 6 5 40 8
-2.025878 0.856468 -0.752383 5 11 11 40 8
-2.028368 0.847103 -0.762770 6 6 5 40 8
-1.893854 1.156532 -0.801471 89 78 65 0 0
-2.467153 0.743245 -0.707542 74 67 58 9 6
-2.526665 0.755359 -0.708898 48 36 20 9 6
-2.494972 0.736278 -0.708722 49 36 21 9 6
-1.863122 0.683891 -0.696769 153 187 181 40 8
-1.921089 1.415183 -0.707338 103 73 33 9 6
-1.927069 1.389220 -0.706736 76 53 23 9 6
-2.069505 0.821007 -0.806998 65 61 59 40 8
-2.082364 0.815195 -0.818154 43 42 38 40 8
-2.064014 0.818116 -0.815070 41 41 38 40 8
-2.074893 0.815033 -0.807250 63 61 68 40 8
-2.057981 1.389576 -0.386741 165 148 128 13 10
-2.060458 0.843095 -0.687813 76 89 89 0 0
-2.042928 0.857353 -0.693043 47 61 57 40 8
-2.065984 0.850363 -0.680815 15 61 54 0 0
-1.765214 0.868495 -0.888452 181 166 153 7 7
-2.010657 0.765342 -0.825097 97 95 93 40 8
-2.016557 0.750271 -0.824778 38 39 51 40 8
-2.021947 0.750945 -0.830796 23 22 26 40 8
-2.016239 0.762483 -0.829926 29 28 41 40 8
-2.030365 0.754604 -0.829714 26 24 28 40 8
-2.070580 1.319523 -0.949283 155 137 118 0 0
-2.045227 1.340511 -0.940964 150 134 119 0 0
-2.060979 1.334687 -0.948222 147 129 114 0 0
-2.071436 1.336672 -0.956072 123 107 92 0 0
-1.994389 0.744406 -0.760827 16 37 29 40 8
-2.044617 0.706213 -0.767334 56 76 73 40 8
-2.028940 0.719563 -0.766242 20 49 46 40 8
-2.021049 0.714646 -0.761608 21 59 47 40 8
-2.006248 0.721369 -0.761102 13 36 27 40 8
-2.016673 0.728621 -0.765722 17 37 34 40 8
-2.011499 1.073405 -1.127640 84 81 64 39 5
-2.013319 1.054839 -1.098028 63 63 47 39 5
-2.015320 1.076729 -1.101632 51 50 39 39 5
-2.012041 1.087326 -1.113724 116 115 103 39 5
-2.009305 1.084283 -1.122269 119 118 101 39 5
-2.016462 1.084268 -1.089591 52 50 39 39 5
-2.317890 0.910873 -0.171991 50 43 31 9 6
-2.304694 0.904388 -0.175193 35 32 23 9 6
-2.305850 0.917032 -0.178215 15 15 10 9 6
-2.292377 0.928523 -0.178184 35 31 22 13 10
-2.224290 1.313602 -0.627328 64 48 33 0 0
-2.212947 1.298717 -0.629588 72 58 45 0 0
-2.197510 1.281155 -0.629746 84 74 53 0 0
-2.322721 0.956019 -0.302304 12 12 8 13 10
-2.329870 0.963672 -0.277710 10 10 8 13 10
-2.026020 1.252782 -0.952897 121 104 81 39 5
-2.003870 1.246693 -0.953004 121 104 81 39 5
-2.241899 0.852113 -0.655177 73 58 33 9 6
-2.249583 0.839194 -0.665975 91 85 64 9 6
-2.252183 0.850327 -0.665269 103 92 77 9 6
-2.236258 0.848747 -0.661447 97 80 64 9 6
-2.253438 0.860666 -0.660350 61 43 26 0 0
-2.237284 0.856651 -0.663940 23 23 16 0 0
-2.241091 0.858163 -0.656570 30 29 21 0 0
-2.252151 0.859282 -0.669718 22 17 11 0 0
-2.230477 0.851754 -0.670361 81 73 66 0 0
-1.954304 1.405436 -0.706580 95 66 30 9 6
-2.111727 1.281801 -0.329524 158 142 123 13 10
-2.120217 1.264735 -0.301500 158 142 127 13 10
-2.109370 0.747982 -0.866465 14 12 17 40 8
-2.276114 0.708174 -0.635153 104 96 89 0 0
-2.280968 0.708127 -0.611499 140 136 118 0 0
-2.249252 0.984886 -0.198472 136 122 104 13 10
-2.240418 1.002249 -0.188138 138 122 107 13 10
-2.244467 0.991527 -0.174472 136 121 103 13 10
-2.252208 0.972187 -0.177057 139 123 107 13 10
-2.252872 0.978588 -0.183100 133 116 101 13 10
-2.250098 0.979919 -0.162084 136 121 106 13 10
-2.258923 0.965990 -0.202403 138 124 106 13 10
-1.905811 0.724998 -0.879314 49 48 63 7 7
-1.891027 0.712620 -0.879490 50 48 71 7 7
-1.896417 0.747840 -0.878955 52 51 67 7 7
-1.740676 1.394644 -0.935991 91 87 75 5 3
-1.741303 1.386786 -0.951469 65 60 54 5 3
-1.729881 1.383925 -0.932933 72 68 57 5 3
-2.240160 0.678368 -0.703481 88 81 72 9 6
-2.239357 0.691069 -0.701620 80 71 62 9 6
-2.283201 0.706253 -0.704649 75 66 58 9 6
-2.217999 0.688906 -0.693472 40 119 111 9 6
-2.252994 0.707025 -0.698616 41 109 103 0 0
-2.238046 0.701771 -0.685894 38 119 111 0 0
-2.259166 0.714205 -0.691752 46 111 106 9 6
-2.244792 0.700768 -0.674594 43 123 107 0 0
-2.227120 1.038819 -0.205033 141 128 109 13 10
-2.232524 1.030482 -0.202871 141 126 108 13 10
-1.879282 0.595706 -0.757547 21 19 25 40 8
-1.862158 0.591130 -0.757730 22 19 26 40 8
-1.869480 0.588954 -0.760726 26 22 29 40 8
-2.055002 0.467616 -0.876272 163 154 53 7 7
-1.780559 0.751305 -0.706725 55 55 62 40 8
-1.794456 0.752275 -0.718914 60 45 61 40 8
-1.781677 0.743852 -0.710237 53 42 58 40 8
-2.468275 0.673242 -0.707220 141 130 125 9 6
-2.345332 1.000960 -0.708082 37 25 11 9 6
-2.334301 1.007689 -0.708454 39 27 9 9 6
-2.339099 1.021235 -0.706267 35 26 8 9 6
-2.323834 1.017354 -0.707211 46 32 16 9 6
-2.069878 0.655438 -0.872392 102 97 98 40 8
-2.080824 0.665186 -0.881061 57 52 61 40 8
-2.094358 0.674669 -0.882921 10 10 15 40 8
-2.430784 1.034952 -0.625221 14 13 11 9 6
-2.097736 0.523826 -0.808623 12 12 8 0 0
-2.091157 0.529963 -0.816819 8 8 6 0 0
-1.875042 1.284890 -0.984294 122 109 99 39 5
-1.863966 1.299713 -0.988349 96 87 73 39 5
-1.852150 1.299715 -0.983613 44 33 23 39 5
-1.874607 1.295116 -0.993132 29 22 13 39 5
-1.854397 1.290767 -0.985391 29 22 13 39 5
-1.852216 1.287109 -0.974916 86 82 73 39 5
-1.867975 1.288554 -0.978640 72 63 49 39 5
-1.821903 1.405731 -1.003458 31 29 25 0 0
-1.829209 1.378113 -0.997301 36 33 26 0 0
-1.842616 1.387557 -1.008550 35 31 23 0 0
-1.830052 1.383943 -1.003038 25 20 12 0 0
-1.845908 1.402033 -1.024484 14 10 9 0 0
-1.830303 1.407339 -1.019528 14 10 10 0 0
-1.814695 1.404821 -1.007136 12 10 8 0 0
-1.841270 1.410524 -1.011111 12 11 8 0 0
-1.833712 1.401973 -1.004301 29 27 20 0 0
-1.842881 1.410641 -1.027983 11 10 9 0 0
-1.827541 1.398515 -1.014624 12 10 11 0 0
-1.816073 1.401531 -1.011651 11 9 9 0 0
-1.879290 0.670567 -0.825630 62 59 108 40 8
-1.891092 0.727806 -0.760720 45 40 56 40 8
-1.717588 1.350680 -1.033388 8 12 10 5 3
-1.731393 1.372970 -1.033827 12 12 10 5 3
-1.724592 1.359381 -1.037492 11 14 10 5 3
-1.887864 1.101355 -1.119892 54 50 42 0 0
-1.977324 1.402607 -0.923302 140 132 115 0 0
-1.961962 1.374166 -0.913997 144 136 119 0 0
-1.938438 1.383210 -0.908934 141 132 116 0 0
-1.953681 1.406425 -0.915783 140 133 117 0 0
-2.072569 0.785953 -0.691079 50 78 69 40 8
-2.068466 0.795589 -0.692112 89 112 100 40 8
-2.088802 0.796605 -0.682807 39 87 73 0 0
-2.096363 0.776286 -0.689338 138 146 145 40 8
-2.414958 0.922002 -0.412324 33 23 17 9 6
-1.841390 1.091679 -0.703255 104 145 170 0 0
-1.846983 1.041731 -0.712371 95 141 164 0 0
-1.873048 1.098052 -0.681528 138 163 172 0 0
-2.195710 1.103767 -0.189920 150 130 114 13 10
-1.871637 0.891125 -0.841833 104 86 81 0 0
-2.289665 1.030341 -0.536905 24 22 17 9 6
-2.007844 1.370024 -0.929597 122 113 95 0 0
-1.996521 1.370597 -0.925670 95 86 69 0 0
-1.985188 1.372592 -0.921271 137 130 112 0 0
-2.258616 0.451527 -0.885905 57 48 42 7 7
-2.263417 0.461886 -0.860651 78 69 60 9 6
-2.248904 0.467818 -0.862153 27 25 17 9 6
-2.228750 0.467526 -0.863989 23 23 15 9 6
-2.250201 0.459512 -0.880799 69 60 52 9 6
-2.227633 0.462783 -0.869963 23 22 16 9 6
-2.467530 1.016577 -0.613568 60 52 41 9 6
-2.471219 1.006644 -0.621921 59 48 39 9 6
-2.474319 1.013763 -0.635401 45 40 30 9 6
-2.466475 1.032786 -0.640724 23 23 13 9 6
-2.458034 1.025045 -0.615271 17 17 11 9 6
-2.463946 1.025094 -0.627035 30 28 19 9 6
-2.483707 1.000450 -0.637837 60 49 43 9 6
-2.176666 0.872485 -0.627520 17 16 11 0 0
-2.195462 0.866990 -0.634240 133 124 109 0 0
-2.203460 0.733074 -1.095844 44 41 29 39 5
-2.420678 0.839559 -0.590321 25 26 22 9 6
-2.435796 0.846920 -0.584462 29 26 28 9 6
-2.402275 0.837997 -0.586145 29 23 28 9 6
-2.396044 0.841253 -0.579555 29 25 27 9 6
-1.855210 1.061458 -1.113858 42 41 33 0 0
-1.862350 1.058560 -1.110077 115 115 104 0 0
-1.853186 1.048988 -1.124041 50 50 45 0 0
-1.986929 0.596299 -0.799706 17 20 21 40 8
-1.988235 0.588674 -0.798952 22 22 27 40 8
-1.977970 0.604611 -0.772390 39 63 50 40 8
-1.982507 0.579201 -0.784138 21 18 22 40 8
-1.987929 0.602216 -0.774918 31 43 40 40 8
-1.963192 0.607105 -0.804214 32 30 34 40 8
-1.970040 0.588895 -0.771634 31 39 42 40 8
-2.022892 1.023277 -1.077895 37 34 22 39 5
-2.036163 1.016596 -1.078302 35 33 22 39 5
-2.007883 0.694806 -0.694311 219 206 208 40 8
-1.985027 0.696870 -0.693724 218 208 208 40 8
-1.960925 0.699080 -0.693604 219 208 210 40 8
-2.095190 1.312235 -0.351898 168 152 134 13 10
-2.094368 1.322178 -0.331497 165 148 132 13 10
-2.124342 0.896380 -0.687575 88 76 57 0 0
-2.115614 0.889234 -0.675548 6 44 39 0 0
-2.101640 0.904019 -0.677818 7 40 35 0 0
-1.923651 1.230556 -0.959002 89 73 54 39 5
-1.945256 1.241080 -0.961127 74 59 43 39 5
-2.394550 0.852270 -0.463840 18 14 11 9 6
-2.386343 0.863856 -0.463059 27 29 21 9 6
-2.229318 1.033429 -0.277385 142 127 112 13 10
-2.241050 1.003393 -0.274089 141 124 108 13 10
-2.236259 1.013277 -0.281988 141 125 109 13 10
-2.232474 1.023546 -0.258100 143 127 112 13 10
-1.789298 0.761409 -0.759066 56 52 67 40 8
-1.806412 0.739504 -0.754108 42 42 62 40 8
-1.785640 0.755250 -0.748481 46 48 58 40 8
-1.780276 0.754066 -0.759669 55 56 71 40 8
-1.783772 0.759524 -0.753589 57 54 63 40 8
-1.790133 0.749762 -0.768683 57 54 71 40 8
-1.807266 0.772047 -0.752471 61 53 64 40 8
-2.000942 1.343480 -0.972025 53 44 30 39 5
-1.910357 1.158730 -0.838625 72 65 55 0 0
-1.998158 0.649019 -0.710869 75 73 71 40 8
-1.993783 0.671645 -0.711338 172 167 173 40 8
-1.972068 0.669246 -0.714990 227 234 234 40 8
-2.169715 1.121969 -0.417052 140 128 108 13 10
-2.176033 1.123012 -0.400540 163 143 124 13 10
-2.173860 1.106023 -0.421207 183 167 145 13 10
-1.685802 1.380732 -1.097505 30 28 24 5 3
-1.716330 1.381329 -1.086742 19 19 18 5 3
-2.032383 1.429404 -0.976579 66 60 47 0 0
-1.875588 0.736971 -0.831192 32 28 38 40 8
-1.848028 0.721927 -0.813149 47 49 80 40 8
-1.832150 0.707304 -0.812813 68 64 108 40 8
-1.867160 0.718596 -0.833312 32 28 44 40 8
-2.235651 0.502335 -0.766174 86 53 41 9 6
-2.244548 0.515773 -0.747922 158 68 69 9 6
-2.246799 0.504517 -0.759657 183 71 54 9 6
-2.387146 1.008257 -0.646489 39 30 21 9 6
-2.403611 1.008034 -0.641274 36 29 20 9 6
-2.024425 0.621901 -0.864676 39 33 33 7 7
-2.010736 0.627710 -0.870920 43 37 37 7 7
-2.038541 0.642123 -0.869241 40 31 36 7 7
-1.926894 1.409065 -1.118367 65 57 41 39 5
-2.163172 0.569464 -0.772657 82 71 67 0 0
-2.162127 0.570652 -0.784450 55 50 48 0 0
-1.944827 0.744217 -0.718881 48 89 75 40 8
-1.961414 0.756143 -0.716952 40 68 54 40 8
-1.963086 0.768245 -0.721825 43 65 60 40 8
-1.857961 0.793207 -0.697089 70 66 67 40 8
-1.851398 0.779423 -0.706257 72 67 70 40 8
-1.873397 0.792089 -0.705520 70 64 74 40 8
-1.874151 0.802198 -0.700123 67 64 71 40 8
-2.479086 0.509103 -0.706060 140 123 102 9 6
-2.468258 0.526009 -0.706535 144 127 113 9 6
-2.463648 0.544072 -0.705608 146 133 123 9 6
-2.105044 0.823018 -0.648148 37 66 62 0 0
-2.082587 0.837318 -0.652364 27 58 52 0 0
-2.094181 0.821558 -0.652161 38 87 72 0 0
-2.084239 0.823586 -0.663107 21 65 58 0 0
-2.085480 0.815328 -0.667014 39 67 51 0 0
-1.874856 1.086125 -1.110583 52 50 38 0 0
-1.899835 1.114608 -1.122772 77 75 59 0 0
-1.896783 1.109156 -1.096580 50 50 39 0 0
-1.890924 1.104626 -1.104244 49 50 39 0 0
-1.909992 1.126244 -1.093296 49 50 40 0 0
-1.919744 1.223565 -0.788916 152 151 145 0 0
-1.927737 1.236099 -0.769612 186 175 165 0 0
-1.928610 1.243708 -0.785729 193 179 168 0 0
-1.930182 1.255441 -0.781575 197 180 170 0 0
-2.165605 1.407989 -0.625347 37 33 26 0 0
-2.138145 0.976774 -0.691919 45 38 33 9 6
-2.106530 0.966395 -0.696532 45 39 33 9 6
-2.109049 0.984271 -0.694514 48 47 40 9 6
-2.134753 1.004077 -0.691744 59 46 43 9 6
-1.919608 1.187480 -0.704386 72 58 41 0 0
-1.917576 1.194272 -0.708040 49 49 42 0 0
-1.930987 1.185229 -0.680781 158 143 124 0 0
-1.911598 1.183079 -0.676017 149 136 117 0 0
-2.338614 0.867706 -0.614709 11 11 3 9 6
-2.123151 1.342283 -0.425818 58 52 35 13 10
-2.110305 1.329323 -0.427018 41 37 22 13 10
-1.950601 0.598992 -0.803415 51 47 52 40 8
-1.955782 0.596427 -0.768508 30 37 33 40 8
-1.952392 0.577353 -0.770924 24 21 23 40 8
-1.966901 0.586224 -0.795614 58 57 64 40 8
-1.990642 1.221227 -1.056976 102 88 69 39 5
-2.008114 1.235046 -1.051462 87 72 56 39 5
-1.986632 1.248716 -1.048498 33 28 18 39 5
-2.003397 1.239912 -1.037986 29 25 13 39 5
-1.989267 1.244089 -1.034510 29 25 14 39 5
-1.951232 1.343034 -0.674204 154 141 118 9 6
-1.925995 1.331798 -0.686233 137 117 98 9 6
-2.151309 1.291035 -0.622232 109 97 75 0 0
-2.158837 1.310677 -0.625294 103 85 64 0 0
-2.172865 1.390153 -0.578583 87 55 25 40 9
-1.924152 1.261181 -0.857346 196 183 168 0 0
-1.916730 1.276876 -0.870972 191 179 164 0 0
-1.928614 1.259219 -0.833867 192 180 169 0 0
-1.918306 1.273029 -0.855945 190 180 168 0 0
-2.409566 0.896671 -0.690186 15 14 10 9 6
-2.398432 0.898468 -0.690495 18 12 9 9 6
-2.403500 0.895012 -0.680451 12 12 6 9 6
-2.413196 0.900391 -0.682941 12 13 7 9 6
-1.961761 0.985371 -0.632487 100 112 114 0 0
-1.968213 0.995219 -0.621598 108 117 130 0 0
-1.677547 1.347943 -0.975067 25 24 23 5 3
-1.666948 1.356186 -0.934077 18 15 14 5 3
-1.651170 1.347890 -0.975717 26 25 24 5 3
-1.682137 1.358023 -0.927720 18 21 17 5 3
-2.004925 0.579348 -0.860176 30 27 31 40 8
-2.002141 0.605212 -0.865732 43 41 40 7 7
-1.987849 0.596817 -0.832774 189 181 191 40 8
-1.997347 0.594090 -0.840011 71 66 77 40 8
-1.979175 0.587428 -0.863549 41 40 42 7 7
-1.953097 1.433838 -0.919860 123 116 100 0 0
-2.218052 1.037490 -0.383789 150 133 117 13 10
-2.215961 1.049063 -0.362866 147 131 117 13 10
-2.209958 1.049041 -0.389568 150 136 119 13 10
-1.966941 0.549785 -0.755054 67 55 58 40 8
-1.952986 0.566418 -0.742514 26 36 31 40 8
-1.951056 0.543092 -0.748316 32 41 40 40 8
-1.970774 0.557633 -0.748543 27 37 31 40 8
-1.981702 0.567698 -0.750546 21 29 26 40 8
-1.953876 0.548556 -0.762398 202 118 126 40 8
-1.817078 1.379163 -0.996255 21 18 13 0 0
-2.348906 1.070018 -0.682030 16 13 9 9 6
-2.347594 1.072753 -0.676954 11 9 7 9 6
-2.445604 1.029929 -0.650216 12 11 8 9 6
-2.425756 1.030345 -0.642607 10 10 8 9 6
-2.253992 0.580362 -0.703322 74 104 92 9 6
-2.252028 0.617370 -0.703516 108 98 91 9 6
-2.174546 0.823492 -0.586784 75 67 66 0 0
-2.167708 0.818442 -0.588483 58 53 49 0 0
-2.166626 0.811242 -0.616128 39 35 26 0 0
-2.178578 0.806714 -0.596068 35 29 25 0 0
-2.187515 0.810796 -0.590028 36 35 31 0 0
-1.889903 0.882154 -0.841604 126 118 122 0 0
-1.881719 0.887217 -0.830603 140 125 127 0 0
-1.906088 0.883800 -0.833607 59 54 51 0 0
-1.901483 0.883741 -0.822283 60 54 52 0 0
-1.876985 0.881963 -0.858419 102 100 115 0 0
-1.907093 0.683094 -0.815070 159 153 176 40 8
-1.926909 0.685514 -0.810710 166 163 176 40 8
-1.919271 0.680930 -0.830444 75 75 139 40 8
-1.950308 0.670178 -0.828758 85 79 142 40 8
-1.926485 0.690565 -0.834503 87 82 142 40 8
-1.936159 0.687086 -0.808642 61 61 68 40 8
-1.943551 0.697205 -0.808688 45 47 54 40 8
-2.323866 0.743851 -0.645692 90 83 69 0 0
-2.487105 0.886091 -0.503859 13 9 6 9 6
-2.498698 0.892284 -0.513779 13 10 6 9 6
-2.499312 0.897991 -0.494484 23 19 13 9 6
-1.879382 0.910782 -0.774042 69 69 64 0 0
-1.881894 0.900599 -0.791343 187 171 158 0 0
-2.451800 0.860798 -0.487063 31 27 21 9 6
-2.258832 0.509647 -0.709175 161 110 55 9 6
-2.270147 0.477984 -0.717629 159 109 54 0 0
-2.269466 0.480948 -0.724174 149 109 71 0 0
-2.266248 0.498636 -0.740647 142 119 98 9 6
-1.963237 0.752183 -0.834848 9 9 11 40 8
-1.939052 0.752048 -0.835359 44 42 54 40 8
-1.947729 0.765637 -0.835287 49 51 68 40 8
-2.230885 0.601625 -0.703414 77 52 28 9 6
-1.885566 0.627939 -0.879113 196 182 177 7 7
-2.396699 1.033261 -0.687050 9 8 6 9 6
-2.171685 1.124951 -0.421670 50 42 31 13 10
-2.178678 1.109044 -0.425652 31 26 18 13 10
-2.198678 0.868248 -0.621720 144 132 115 0 0
-2.203075 0.881844 -0.614397 131 119 103 0 0
-2.198591 0.881905 -0.609775 86 74 61 0 0
-2.440031 1.027884 -0.513799 7 7 6 9 6
-2.444376 1.024382 -0.542046 6 6 4 9 6
-2.423274 1.018039 -0.529244 8 8 5 9 6
-2.457872 1.024635 -0.524588 7 7 6 9 6
-2.436131 1.022789 -0.524910 8 8 6 9 6
-2.428525 1.025461 -0.522695 8 8 5 9 6
-1.940688 0.672792 -0.692584 215 204 212 40 8
-1.938180 0.691954 -0.692308 215 209 213 40 8
-1.908435 0.688789 -0.691868 207 198 205 40 8
-1.722027 0.890870 -0.887617 182 170 160 7 7
-1.700153 0.867870 -0.887256 184 174 162 7 7
-1.779078 1.411493 -0.981662 34 32 25 5 3
-1.812732 1.397012 -0.995914 29 29 24 0 0
-1.804574 1.378775 -0.986373 26 27 20 0 0
-1.791044 1.387547 -0.986687 18 18 13 0 0
-2.295584 0.940559 -0.385788 22 19 14 13 10
-1.824264 0.611796 -0.887870 215 197 185 7 7
-1.840608 0.605019 -0.886196 211 196 184 7 7
-1.801412 0.602751 -0.888262 213 197 183 7 7
-1.840724 0.597783 -0.884083 213 196 184 7 7
-1.832011 0.583476 -0.884076 211 196 185 7 7
-2.107260 0.900255 -1.082420 63 58 39 39 5
-2.078844 0.548536 -0.845029 75 36 18 0 0
-2.082927 0.556070 -0.831567 102 72 36 0 0
-2.204259 1.074615 -0.336513 148 131 114 13 10
-2.205446 1.074133 -0.353961 149 133 115 13 10
-2.196676 1.092948 -0.305965 149 133 117 13 10
-2.200259 1.084587 -0.336526 148 134 119 13 10
-2.282527 1.065871 -0.706350 51 35 15 9 6
-1.721390 1.145376 -0.911451 89 78 61 7 7
-1.707647 1.144515 -0.901672 98 89 79 7 7
-1.694389 1.139131 -0.903294 96 87 74 7 7
-1.705607 1.135911 -0.913904 107 93 73 7 7
-1.726591 1.152156 -0.902863 122 111 101 7 7
-2.335404 0.964044 -0.369563 13 11 10 13 10
-1.692158 1.132307 -0.910473 110 99 78 7 7
-2.122577 1.308753 -0.426448 69 60 40 13 10
-2.111522 1.294617 -0.421366 44 39 25 13 10
-2.249249 0.873078 -0.614934 18 15 12 0 0
-1.930851 0.834502 -0.695183 44 65 65 40 8
-1.935740 0.713720 -0.755694 27 43 39 40 8
-1.916942 0.724759 -0.756646 22 26 27 40 8
-2.423687 0.932679 -0.530612 31 24 17 9 6
-2.435124 0.942235 -0.512677 39 31 25 9 6
-2.339865 0.996815 -0.573141 21 18 13 9 6
-2.310262 1.056572 -0.591156 7 9 9 9 6
-2.292296 1.042106 -0.591665 7 10 9 9 6
-2.303643 1.052275 -0.605137 7 8 5 9 6
-2.315372 1.058119 -0.578956 7 10 6 9 6
-2.385101 0.897776 -0.351397 47 40 32 9 6
-1.985561 0.593558 -0.719236 216 210 213 40 8
-1.970325 0.591392 -0.711551 221 212 216 40 8
-1.995101 0.585601 -0.732290 37 43 42 40 8
-2.046448 0.943596 -0.623590 45 34 22 0 0
-2.024337 0.928372 -0.624418 72 61 53 0 0
-2.201664 0.661233 -1.091575 88 84 66 39 5
-2.292435 0.722042 -0.626811 133 127 112 0 0
-2.304744 0.728355 -0.612894 167 158 149 0 0
-2.117621 0.835295 -0.648399 104 95 85 0 0
-2.105900 0.836172 -0.649567 63 84 71 0 0
-2.134349 0.848455 -0.651930 101 94 84 0 0
-2.121526 0.849820 -0.652052 91 94 84 0 0
-2.113760 0.864247 -0.652553 59 58 49 0 0
-2.056101 1.279583 -0.638147 39 30 21 0 0
-2.067835 1.283503 -0.635212 44 40 31 0 0
-2.069582 1.259724 -0.622553 93 87 73 0 0
-2.063190 1.267304 -0.635309 75 71 56 0 0
-1.959088 0.820380 -0.800716 7 9 10 40 8
-1.938691 0.823023 -0.785768 11 14 13 40 8
-1.953369 0.827683 -0.801263 10 13 13 40 8
-1.942768 0.813076 -0.793336 67 66 68 40 8
-1.953187 0.816737 -0.785101 62 62 62 40 8
-1.958966 0.807648 -0.773370 73 62 71 40 8
-1.946410 0.809877 -0.775080 69 62 77 40 8
-2.142614 0.483404 -0.857748 90 79 45 0 0
-2.155557 0.482545 -0.841245 100 89 85 0 0
-2.123273 0.472526 -0.856301 199 189 66 0 0
-2.557020 0.550447 -0.708761 119 100 77 9 6
-2.327302 0.991160 -0.706911 51 41 20 9 6
-2.096395 0.940977 -0.696390 39 50 38 9 6
-2.084791 0.930846 -0.698224 39 45 30 0 0
-2.081518 0.940466 -0.700967 36 42 28 9 6
-2.080423 0.949142 -0.704062 60 49 26 9 6
-2.292027 0.665870 -0.704891 111 99 91 9 6
-1.921024 0.890168 -0.823120 55 45 46 0 0
-1.940187 1.236593 -0.686760 117 102 89 0 0
-1.961223 1.244014 -0.677384 123 111 97 0 0
-1.935900 1.218686 -0.683088 115 105 91 0 0
-1.916873 1.162490 -0.830341 68 58 48 0 0
-1.929097 1.169521 -0.835468 53 43 33 0 0
-1.939205 1.185000 -0.826583 64 54 38 0 0
-1.931492 1.184070 -0.812797 108 94 76 0 0
-2.279986 0.930753 -0.200933 44 37 30 13 10
-2.131794 1.235760 -0.325769 157 140 126 13 10
-2.135849 1.226423 -0.338925 161 142 126 13 10
-2.266671 0.938638 -0.202951 73 62 49 13 10
-2.269092 0.941448 -0.220653 68 60 46 13 10
-2.262602 0.949035 -0.202090 111 97 82 13 10
-2.274240 0.934013 -0.210456 44 37 26 13 10
-2.135319 1.217909 -0.388976 158 142 123 13 10
-2.138279 1.198732 -0.403267 207 189 168 13 10
-1.709736 1.132723 -0.891277 105 97 87 7 7
-1.691364 1.125463 -0.890330 77 72 62 7 7
-1.705696 1.140005 -0.895938 51 46 40 7 7
-2.081131 0.717683 -0.711494 77 72 65 40 8
-2.111374 0.745511 -0.714002 114 111 107 40 8
-1.952132 0.746999 -0.874964 31 28 42 40 8
-1.965235 0.768914 -0.876332 77 70 92 40 8
-2.333350 0.530959 -0.699806 177 165 165 9 6
-2.349964 0.521908 -0.700373 178 165 164 9 6
-2.072058 0.971105 -0.606872 20 17 10 0 0
-1.959538 0.913872 -0.837126 38 38 37 0 0
-1.943120 0.901424 -0.815572 32 28 30 0 0
-1.972263 0.900269 -0.816384 32 33 32 0 0
-1.950184 0.903563 -0.823582 47 45 42 0 0
-1.952063 0.906808 -0.801505 40 39 40 0 0
-1.985025 0.907023 -0.834543 31 31 32 0 0
-1.971993 0.918297 -0.825353 37 37 35 0 0
-2.523001 0.480369 -0.705829 101 74 38 9 6
-1.895198 0.677871 -0.769026 59 47 77 40 8
-2.090977 1.387475 -0.425777 142 129 109 13 10
-2.077167 1.397786 -0.426008 49 45 32 13 10
-1.719077 1.387322 -0.890285 18 17 16 5 3
-1.736563 1.410739 -0.881704 135 129 110 5 3
-1.724012 1.403539 -0.871252 26 27 21 5 3
-1.728333 1.394073 -0.896538 88 82 70 5 3
-2.016965 0.727597 -0.769554 17 29 22 40 8
-1.995049 0.709287 -0.772660 17 28 17 40 8
-1.991879 0.726211 -0.773587 17 28 19 40 8
-2.013158 1.271165 -0.914568 158 137 113 0 0
-1.805588 1.063623 -0.862770 60 61 83 0 0
-1.781969 1.081529 -0.882485 125 116 109 7 7
-1.789537 1.080647 -0.876485 79 74 83 0 0
-1.791448 1.418894 -0.993527 46 43 33 5 3
-1.777624 1.424112 -0.978717 53 49 39 5 3
-1.896560 1.161268 -0.655149 176 161 141 0 0
-2.306800 1.052285 -0.521176 13 13 2 9 6
-1.686902 0.990120 -0.887461 173 161 147 7 7
-1.950648 1.368021 -1.061050 90 79 64 39 5
-1.946602 1.367893 -1.068659 101 91 71 39 5
-1.951331 1.359578 -1.067352 79 66 53 39 5
-1.912869 1.249715 -0.706745 126 78 32 0 0
-1.912143 1.244620 -0.714867 124 83 28 0 0
-1.929321 1.250102 -0.746722 118 100 80 0 0
-1.916950 1.240235 -0.724538 121 92 63 0 0
-1.918643 1.226304 -0.726158 117 99 81 0 0
-1.916579 1.227702 -0.714304 121 80 32 0 0
-2.015178 0.651280 -0.776496 20 47 27 40 8
-2.038232 0.648853 -0.774589 13 37 28 40 8
-2.008837 0.670698 -0.775740 15 38 23 40 8
-2.028759 0.673384 -0.773818 22 44 35 40 8
-2.053229 1.324487 -0.643983 140 131 119 0 0
-2.133312 1.231351 -0.421398 31 26 18 13 10
-2.018470 0.704206 -0.877870 30 27 36 40 8
-2.017962 0.678602 -0.873482 64 57 111 40 8
-2.048103 1.289909 -0.930580 158 136 115 0 0
-2.413654 0.918856 -0.698074 11 13 8 9 6
-2.396991 0.912536 -0.699944 13 12 6 9 6
-2.391500 0.928201 -0.700377 17 13 7 9 6
-2.391511 0.902801 -0.692224 15 11 7 9 6
-2.417740 0.913769 -0.693131 18 14 10 9 6
-1.921052 1.219469 -0.787936 111 125 131 0 0
-1.927180 1.222346 -0.793644 140 160 166 0 0
-1.941972 1.197119 -0.784860 101 89 71 0 0
-1.919864 1.216390 -0.765484 143 165 172 0 0
-1.939341 1.197798 -0.794358 91 75 60 0 0
-2.378655 0.896554 -0.561934 23 17 11 9 6
-2.364799 0.879397 -0.541390 16 14 6 9 6
-2.200839 0.880513 -0.602219 131 121 104 0 0
-1.940401 0.897719 -0.770309 46 53 52 0 0
-2.208755 0.985175 -0.695102 47 45 39 9 6
-2.200033 0.995939 -0.694028 41 42 36 9 6
-1.676269 1.180241 -1.113205 14 15 14 5 3
-1.678453 1.169449 -1.113234 16 15 14 5 3
-1.676404 1.180160 -1.118249 21 20 18 5 3
-1.663276 1.181307 -1.121791 20 17 18 5 3
-2.158613 1.177313 -0.297311 155 136 123 13 10
-2.151037 1.190956 -0.320479 157 142 123 13 10
-2.153512 1.194125 -0.300784 153 137 121 13 10
-2.021574 1.221797 -0.641475 117 102 75 0 0
-2.003881 1.202749 -0.628094 127 113 80 0 0
-2.012436 1.201990 -0.619306 122 106 75 0 0
-2.169387 0.653303 -0.847405 57 52 48 40 8
-2.166429 0.663157 -0.831655 32 28 31 40 8
-2.174682 0.657145 -0.858138 34 30 31 40 8
-2.179911 0.651164 -0.836567 66 60 57 0 0
-2.264385 0.956911 -0.174918 131 114 99 13 10
-2.268413 0.938554 -0.188834 42 35 24 13 10
-2.264605 0.952508 -0.184840 118 103 87 13 10
-2.267963 0.941072 -0.174743 123 110 92 13 10
-2.291902 0.941588 -0.164349 124 103 80 9 6
-2.273748 0.949537 -0.154928 89 77 59 13 10
-2.265023 0.946245 -0.165149 100 87 67 13 10
-2.266623 0.937489 -0.181498 56 47 36 13 10
-2.281775 0.942436 -0.172441 129 109 87 13 10
-1.944100 0.667352 -0.764145 49 73 70 40 8
-1.904347 0.658273 -0.769350 29 18 32 40 8
-1.927325 0.674784 -0.762765 58 54 89 40 8
-1.930243 0.664253 -0.769509 38 31 51 40 8
-1.912156 0.670682 -0.765787 42 33 59 40 8
-2.119690 0.536886 -0.798316 29 16 18 0 0
-2.147637 0.555675 -0.778822 35 30 32 0 0
-2.145884 0.560090 -0.794652 45 35 38 0 0
-2.218069 1.061143 -0.246903 145 131 111 13 10
-1.915097 1.180257 -0.881884 126 108 87 7 7
-1.919424 1.169509 -0.869691 117 102 83 0 0
-1.936906 1.067457 -0.629027 146 141 146 0 0
-1.927853 1.093078 -0.627116 165 154 157 0 0
-1.923023 1.089421 -0.634643 207 194 181 0 0
-2.020356 0.671693 -0.832808 63 61 60 40 8
-2.016997 0.652386 -0.833390 67 64 66 40 8
-1.999470 0.658253 -0.834940 124 115 122 40 8
-1.942980 1.081220 -0.604566 89 94 113 0 0
-1.968168 1.058862 -0.593017 95 95 115 0 0
-1.963483 1.067177 -0.593956 99 102 122 0 0
-1.961689 1.102447 -0.595330 97 101 120 0 0
-1.951019 1.090781 -0.597117 94 98 120 0 0
-1.942699 1.069866 -0.610683 133 132 145 0 0
-2.008072 0.663462 -0.692739 215 205 204 40 8
-1.988827 0.654371 -0.692748 216 202 204 40 8
-2.011203 1.236003 -0.656029 106 91 67 0 0
-2.285682 0.921211 -0.174059 96 82 63 9 6
-2.286025 0.908353 -0.167503 57 49 37 9 6
-2.285327 0.909797 -0.174222 86 72 56 9 6
-2.030975 1.240651 -0.647835 83 69 47 0 0
-2.285129 0.923833 -0.189255 122 105 82 13 10
-2.014020 1.248435 -0.653945 102 87 66 0 0
-2.273989 0.935494 -0.174949 127 106 86 13 10
-2.283007 0.930925 -0.176586 128 108 87 13 10
-2.279389 0.924805 -0.189187 120 103 80 13 10
-1.971185 0.818853 -0.758238 41 39 41 40 8
-1.987621 0.834878 -0.750089 1 6 7 40 8
-1.981539 0.828696 -0.756550 4 6 5 40 8
-2.006181 0.841768 -0.741124 3 11 8 40 8
-1.979092 0.824770 -0.741412 4 11 11 40 8
-1.984787 0.822222 -0.764063 41 37 40 40 8
-1.950061 1.223844 -0.910662 130 113 88 7 7
-1.806940 1.392956 -1.005546 12 11 9 0 0
-1.801315 1.398274 -0.996162 18 18 11 0 0
-1.807130 1.371736 -0.988693 11 9 7 0 0
-1.792769 1.390246 -0.999740 11 12 8 0 0
-1.788382 1.393556 -0.995673 10 12 7 0 0
-1.805246 1.401062 -1.003564 11 12 8 0 0
-1.791137 1.415044 -1.001660 10 11 7 5 3
-1.779914 1.385239 -0.990225 11 13 9 0 0
-1.908733 1.024062 -0.681566 153 138 132 0 0
-1.880564 1.013789 -0.701594 107 121 126 0 0
-1.889923 1.016298 -0.691187 119 125 131 0 0
-2.097027 0.733120 -0.691639 198 196 193 40 8
-2.084436 0.766767 -0.691982 200 194 191 40 8
-2.206259 0.722135 -0.636257 149 141 116 0 0
-2.225667 0.705501 -0.627186 116 112 97 0 0
-2.205729 0.735844 -0.630070 166 152 133 0 0
-2.228968 0.715707 -0.605688 139 135 115 0 0
-2.217239 0.723177 -0.619004 123 121 104 0 0
-2.247967 1.044753 -0.702045 52 42 29 9 6
-2.198142 0.772285 -0.603631 174 162 143 0 0
-2.215482 0.765802 -0.598128 193 178 166 0 0
-2.204054 0.762814 -0.605705 176 166 148 0 0
-2.233480 0.777487 -0.593349 205 193 177 0 0
-1.964263 0.751597 -0.775445 7 14 7 40 8
-1.945686 0.736421 -0.775811 8 14 9 40 8
-2.133673 1.233284 -0.302308 156 139 124 13 10
-1.881948 0.895317 -0.805963 187 175 174 0 0
-1.889975 0.885883 -0.821243 125 116 115 0 0
-2.576285 0.544924 -0.708772 100 75 40 9 6
-2.136271 0.688948 -0.858546 37 28 36 40 8
-2.342201 0.998137 -0.662575 11 11 8 9 6
-2.323118 0.991993 -0.657825 11 12 9 9 6
-2.342558 0.997398 -0.638803 15 14 10 9 6
-2.339376 0.993166 -0.649927 10 11 8 9 6
-2.323712 0.991936 -0.645882 10 11 9 9 6
-1.862353 0.715963 -0.765402 31 26 38 40 8
-1.842575 0.712867 -0.765580 30 25 33 40 8
-1.884300 0.718786 -0.765725 45 38 58 40 8
-1.869322 0.735988 -0.761321 45 38 50 40 8
-1.860793 0.727787 -0.763164 30 22 32 40 8
-1.872120 0.745841 -0.763075 29 22 35 40 8
-1.878739 0.713898 -0.769597 39 30 48 40 8
-2.183007 1.138596 -0.180721 149 129 116 13 10
-2.192128 1.122308 -0.189935 149 135 115 13 10
-2.019402 0.841308 -0.878686 7 6 10 40 8
-2.016874 0.844853 -0.872810 8 8 12 40 8
-1.981239 1.350420 -0.985187 118 112 95 39 5
-1.974430 1.376677 -0.993639 173 163 146 39 5
-2.488036 0.931432 -0.676136 6 6 4 9 6
-2.021173 0.937749 -0.717733 60 56 45 0 0
-2.024775 0.940960 -0.697614 54 49 35 0 0
-2.034627 0.948833 -0.680281 52 50 43 0 0
-2.001101 0.928517 -0.706512 59 65 54 0 0
-2.056313 0.608454 -0.698354 216 208 205 40 8
-1.821898 0.477427 -0.887942 228 215 206 7 7
-1.780170 0.714188 -0.863952 35 40 71 7 7
-1.791811 0.710219 -0.864931 32 30 49 7 7
-2.064898 0.804152 -0.713790 18 28 21 40 8
-2.053814 0.794973 -0.711993 55 72 67 40 8
-2.069155 0.774373 -0.712087 75 74 70 40 8
-2.035484 0.802279 -0.719717 38 69 52 40 8
-2.048701 0.804887 -0.716492 44 67 57 40 8
-2.139122 1.354393 -0.424948 152 139 118 13 10
-2.153792 0.661827 -0.749620 35 32 32 0 0
-2.143016 0.658887 -0.757652 32 32 31 0 0
-2.018917 0.935209 -0.730551 60 65 59 0 0
-2.038320 0.943417 -0.729378 44 49 40 0 0
-1.909364 1.081557 -0.647731 207 195 174 0 0
-1.821482 1.377098 -0.992050 40 37 29 0 0
-2.156959 0.987304 -0.691855 57 45 39 9 6
-2.131577 0.991949 -0.692892 54 47 39 9 6
-1.848305 1.016632 -0.769816 127 164 180 0 0
-1.844416 1.012570 -0.794321 80 94 120 0 0
-1.857615 1.005630 -0.784838 57 65 82 0 0
-1.859700 0.995863 -0.783901 59 72 90 0 0
-1.871233 0.785966 -0.792882 62 55 65 40 8
-1.871462 0.772357 -0.775711 54 52 67 40 8
-1.856579 0.779408 -0.781024 67 53 60 40 8
-1.862692 0.778443 -0.788005 53 51 67 40 8
-1.854612 0.774984 -0.784769 52 52 65 40 8
-1.841330 0.769258 -0.778126 59 56 66 40 8
-1.884491 0.784738 -0.782625 55 55 69 40 8
-1.879578 1.366722 -0.782486 175 162 147 0 0
-2.085319 0.929246 -0.786581 93 88 81 0 0
-2.071613 0.938709 -0.789604 88 82 78 0 0
-1.855438 1.425582 -0.818573 188 176 161 0 0
-2.141584 0.479790 -0.835594 98 87 81 0 0
-2.160174 0.480394 -0.814122 139 130 136 0 0
-2.130597 0.479293 -0.816130 121 106 108 0 0
-2.159609 0.482891 -0.822833 107 96 101 0 0
-2.172736 0.488341 -0.825988 102 90 95 0 0
-2.043713 0.934168 -0.842992 35 34 35 0 0
-2.050160 0.943166 -0.842945 35 34 36 0 0
-2.046910 0.939695 -0.852204 84 76 79 7 7
-2.064866 0.931426 -0.861577 82 78 73 7 7
-2.050498 0.937442 -0.866162 82 77 77 7 7
-2.046448 0.938547 -0.831145 63 58 60 0 0
-2.042418 0.942219 -0.858956 34 34 37 0 0
-2.177933 0.873836 -0.613807 24 19 16 0 0
-2.182254 0.872167 -0.597280 35 32 25 0 0
-2.193463 0.879493 -0.597708 43 35 25 0 0
-2.041710 1.382781 -0.950118 114 104 87 0 0
-2.026025 1.387449 -0.940974 114 104 87 0 0
-2.027534 1.419972 -0.962678 68 61 48 0 0
-2.027455 1.401812 -0.946981 51 45 31 0 0
-2.028188 1.399357 -0.956372 59 53 39 0 0
-2.025496 1.409783 -0.950105 73 67 54 0 0
-1.712916 1.350612 -1.019446 8 12 11 5 3
-2.002865 0.898725 -0.805787 118 94 82 0 0
-2.034779 0.898251 -0.813399 111 91 81 0 0
-2.042129 0.896043 -0.828073 104 82 74 0 0
-2.182099 1.143469 -0.212122 149 132 115 13 10
-2.171940 1.161285 -0.208314 150 133 113 13 10
-2.180161 1.147576 -0.194501 147 132 117 13 10
-2.188069 1.127300 -0.203286 150 132 114 13 10
-2.352196 1.200161 -0.709449 45 31 16 9 6
-1.868747 0.668770 -0.701859 75 159 145 40 8
-1.874013 0.673202 -0.707805 64 143 126 40 8
-1.853024 0.674606 -0.701424 50 120 105 40 8
-2.393198 0.907328 -0.492411 32 28 21 9 6
-2.407032 0.919150 -0.494898 33 27 20 9 6
-2.068231 1.398279 -0.661109 60 54 41 0 0
-2.054348 1.409065 -0.662103 81 73 59 0 0
-2.063870 1.393692 -0.668567 96 90 73 0 0
-2.056821 1.395876 -0.666358 95 88 72 0 0
-2.042088 1.390448 -0.672454 113 104 85 0 0
-2.043869 1.410072 -0.656973 74 67 47 0 0
-2.246425 1.303689 -0.644537 30 24 16 0 0
-1.892106 0.607047 -0.876373 205 190 186 7 7
-1.968772 1.432384 -0.991235 148 135 122 39 5
-2.300764 0.938040 -0.696892 47 35 18 9 6
-2.288019 0.946627 -0.697801 47 33 17 9 6
-2.278491 0.947497 -0.697497 88 76 63 9 6
-2.286772 0.960790 -0.701693 62 50 31 9 6
-2.267507 0.954287 -0.702301 108 96 86 9 6
-2.030504 0.855964 -0.694782 80 89 88 40 8
-2.039023 0.868560 -0.691142 49 66 61 40 8
-2.014588 0.860380 -0.691498 37 56 53 40 8
-2.003695 0.864120 -0.686966 36 58 53 40 8
-2.344569 0.974047 -0.264612 11 9 9 13 10
-2.355339 0.981755 -0.272823 9 9 6 13 10
-1.986308 1.271611 -0.670807 126 115 97 0 0
-1.959027 1.277870 -0.678390 137 123 99 0 0
-1.948110 1.252450 -0.684597 157 140 122 0 0
-1.870561 1.082929 -1.120735 47 45 37 0 0
-1.866729 1.075118 -1.092195 50 50 39 0 0
-1.868770 1.067818 -1.094259 47 47 39 0 0
-1.858383 1.068813 -1.119667 48 45 38 0 0
-1.862913 1.068159 -1.099245 47 47 39 0 0
-1.872415 1.077269 -1.086247 47 48 38 0 0
-2.488176 0.565756 -0.705500 163 150 146 9 6
-2.453926 0.576315 -0.702945 165 152 149 9 6
-2.477467 0.555860 -0.705031 166 152 151 9 6
-2.462147 0.560962 -0.704865 167 155 154 9 6
-1.896105 1.085203 -0.671338 202 189 176 0 0
-1.975801 1.360466 -0.660981 111 94 65 9 6
-1.994291 1.382622 -0.663468 102 85 55 9 6
-2.003815 1.365277 -0.651114 149 135 111 0 0
-1.983989 1.359243 -0.656970 134 117 95 0 0
-1.968462 1.348054 -0.663912 130 112 88 0 0
-1.963755 1.264547 -0.893604 140 126 121 0 0
-1.947680 1.257241 -0.886167 149 133 123 0 0
-1.935055 1.260993 -0.894674 108 105 97 0 0
-1.858576 1.057611 -0.689386 115 140 149 0 0
-1.849693 1.065213 -0.695884 113 139 155 0 0
-1.856688 1.033803 -0.695101 154 172 180 0 0
-1.868309 1.060870 -0.685573 134 157 172 0 0
-1.868170 1.032922 -0.689935 142 153 158 0 0
-1.866951 1.042189 -0.686484 108 125 135 0 0
-1.923051 0.948297 -0.677701 130 110 98 0 0
-1.978607 1.256981 -1.040057 42 33 24 39 5
-1.976436 1.268228 -1.026884 12 12 7 39 5
-1.970385 1.256548 -1.025776 12 12 7 39 5
-1.974639 1.282943 -1.030278 17 12 6 39 5
-1.985210 1.274735 -1.037963 18 14 6 39 5
-2.386302 0.491726 -0.702477 169 151 132 9 6
-1.818766 1.102192 -0.769802 162 173 177 0 0
-1.825220 1.105315 -0.750654 152 171 178 0 0
-1.958411 0.469041 -0.885478 201 192 188 7 7
-1.936876 1.203724 -0.672277 126 115 100 0 0
-1.948627 1.215926 -0.671896 126 116 101 0 0
-1.951878 1.198354 -0.674018 111 95 69 0 0
-1.970501 1.197869 -0.657818 118 99 72 0 0
-1.953424 1.188543 -0.662260 116 99 71 0 0
-2.019789 1.176829 -0.612831 140 132 126 0 0
-2.022828 1.195559 -0.614008 145 136 126 0 0
-2.024665 1.155621 -0.613701 70 69 72 0 0
-2.032063 1.177659 -0.617096 140 131 123 0 0
-2.082605 0.967337 -0.813088 20 22 29 0 0
-2.067265 0.939118 -0.803304 87 86 81 0 0
-2.088068 0.939105 -0.825891 92 84 82 0 0
-2.080935 0.935565 -0.807608 88 85 80 0 0
-2.068733 0.941350 -0.815531 87 84 78 0 0
-2.468609 0.927295 -0.667483 11 9 6 9 6
-2.464180 0.929708 -0.652153 5 6 3 9 6
-2.473581 0.930983 -0.642316 6 5 3 9 6
-2.458184 0.925327 -0.661142 11 9 6 9 6
-2.009382 1.241208 -1.024532 47 39 26 39 5
-2.304431 0.954607 -0.508747 23 22 16 13 10
-1.961105 1.360504 -0.678576 119 98 63 9 6
-2.295527 0.960872 -0.483526 28 25 17 9 6
-2.309398 0.961799 -0.490516 27 25 19 13 10
-2.287024 0.962706 -0.490647 22 22 16 9 6
-2.295934 0.950109 -0.503880 26 22 15 13 10
-1.953645 1.364649 -0.688764 131 113 83 9 6
-2.297669 0.955480 -0.487315 27 24 19 13 10
-2.314065 0.962143 -0.503286 24 22 16 13 10
-2.292132 0.950804 -0.479104 26 23 18 13 10
-2.140772 0.749362 -0.666893 51 129 114 0 0
-2.149127 0.772599 -0.656249 37 119 107 0 0
-2.131206 0.765805 -0.667408 42 124 109 0 0
-1.709965 1.000182 -0.888096 173 159 145 7 7
-1.691960 1.024648 -0.887763 168 156 141 7 7
-2.145846 1.317897 -0.628081 35 32 20 0 0
-2.129424 1.306167 -0.626929 36 32 22 0 0
-2.110692 1.331085 -0.628966 32 34 22 0 0
-1.953609 0.708744 -0.875816 72 63 70 40 8
-2.167711 1.139429 -0.401128 202 183 161 13 10
-2.161612 1.165926 -0.369481 163 142 127 13 10
-2.399365 1.107291 -0.677220 11 9 4 9 6
-2.409594 1.119952 -0.679058 12 13 9 9 6
-2.385780 1.095910 -0.673375 12 11 7 9 6
-2.392148 1.107058 -0.695842 9 9 6 9 6
-2.400344 1.110855 -0.688474 13 11 6 9 6
-2.400087 1.117211 -0.695798 12 11 9 9 6
-2.410758 1.121215 -0.700228 11 10 6 9 6
-1.956527 0.718370 -0.693791 221 211 213 40 8
-1.885260 0.479671 -0.887282 223 208 200 7 7
-1.903674 0.477766 -0.886332 221 203 196 7 7
-1.933151 0.801520 -0.866046 143 138 126 40 8
-1.918947 0.824593 -0.868946 15 14 19 40 8
-1.919995 0.838446 -0.881020 18 17 21 40 8
-2.554402 0.631745 -0.707016 138 115 96 9 6
-2.565406 0.648230 -0.707189 136 116 87 9 6
-1.879982 0.775069 -0.865321 120 115 106 7 7
-1.894285 0.789817 -0.841338 137 129 124 40 8
-1.898412 0.806186 -0.839007 143 136 121 40 8
-1.886158 0.776209 -0.856710 128 121 113 7 7
-1.879272 0.799567 -0.837773 151 140 126 40 8
-1.887439 0.774892 -0.850574 105 101 101 40 8
-1.894266 0.785012 -0.851559 126 119 120 40 8
-1.902815 0.777185 -0.859766 106 104 102 40 8
-2.522881 0.565748 -0.706612 153 145 137 9 6
-2.555527 0.568870 -0.707487 154 139 125 9 6
-1.840280 1.123543 -0.709436 180 173 165 0 0
-2.022616 0.843390 -0.778032 16 14 16 40 8
-2.009519 0.827044 -0.770187 44 41 43 40 8
-1.872991 1.413697 -1.101831 71 67 53 0 0
-1.883652 1.417815 -1.082391 49 46 38 0 0
-1.876330 1.414331 -1.065865 121 109 93 0 0
-1.932601 1.334285 -1.083646 105 95 78 39 5
-1.813818 0.741498 -0.691432 38 37 51 40 8
-1.836640 0.763752 -0.692924 46 36 48 40 8
-1.819952 0.763479 -0.703543 57 50 58 40 8
-1.814860 0.768259 -0.697278 61 56 64 40 8
-1.846501 0.743272 -0.874402 119 113 112 7 7
-1.822760 0.738620 -0.871270 113 108 108 7 7
-2.120711 0.727710 -0.793769 22 20 21 40 8
-2.120852 0.728315 -0.804123 21 19 20 40 8
-2.115794 0.744087 -0.800972 21 21 19 40 8
-2.133904 0.713435 -0.773645 34 29 24 40 8
-2.128663 0.718603 -0.778772 31 27 24 40 8
-2.118732 0.709704 -0.772328 21 18 14 40 8
-2.117750 0.717283 -0.771891 20 17 12 40 8
-2.113800 0.728179 -0.773857 21 17 15 40 8
-2.124013 0.729522 -0.783611 34 32 27 40 8
-2.118364 0.755268 -0.778224 37 34 31 40 8
-2.119413 0.738564 -0.777738 34 30 28 40 8
-1.970989 0.850142 -0.694664 36 56 49 40 8
-1.969479 0.848740 -0.701199 37 56 49 40 8
-1.960212 0.843295 -0.682433 38 56 51 40 8
-1.971301 0.845406 -0.688321 37 55 50 40 8
-1.944423 0.835850 -0.701812 39 52 48 40 8
-1.942449 0.839264 -0.690937 45 60 56 40 8
-2.342328 1.065071 -0.710770 51 36 17 9 6
-2.351744 1.082518 -0.710643 46 33 14 9 6
-2.363707 1.077941 -0.708442 39 29 13 9 6
-2.344206 1.029972 -0.699698 27 19 8 9 6
-2.350015 1.048926 -0.700356 25 21 9 9 6
-2.337085 1.031056 -0.690105 27 17 8 9 6
-2.346167 1.053366 -0.688655 25 21 11 9 6
-2.383389 1.002568 -0.575732 19 18 13 9 6
-2.358811 0.999545 -0.570574 23 19 14 9 6
-2.132901 0.646883 -0.855599 34 26 25 40 8
-2.163615 0.612302 -0.853858 56 45 39 0 0
-2.466797 0.871788 -0.543968 24 21 19 9 6
-2.474452 0.875593 -0.510305 27 26 25 9 6
-1.873523 1.430128 -1.071965 58 55 46 39 5
-1.869339 1.442862 -1.076488 40 38 28 39 5
-2.045289 0.634620 -0.835306 25 23 25 40 8
-2.044377 0.631336 -0.857664 209 198 204 7 7
-2.037661 0.625307 -0.850188 214 204 209 40 8
-2.063618 0.641755 -0.862831 181 169 175 40 8
-2.390326 0.857664 -0.250612 25 23 21 9 6
-2.099518 0.748408 -0.879524 12 7 17 40 8
-2.107926 0.747824 -0.873237 14 13 18 40 8
-1.890379 1.418937 -1.113063 80 73 64 0 0
-1.900078 1.415049 -1.093293 100 90 76 0 0
-1.885976 1.415344 -1.094507 86 76 62 0 0
-1.897022 1.424686 -1.122722 63 56 40 0 0
-1.905397 1.418639 -1.104419 81 69 53 0 0
-2.030468 1.021114 -1.086332 68 67 49 39 5
-2.033064 1.023920 -1.104506 68 67 49 39 5
-1.970196 1.198845 -1.071282 111 98 77 0 0
-1.967782 1.206076 -1.076553 81 72 58 39 5
-1.970405 1.197607 -1.061261 131 117 96 0 0
-1.822021 0.708921 -0.765400 25 25 27 40 8
-1.823398 0.711839 -0.761163 25 25 27 40 8
-1.813482 0.728729 -0.753465 33 32 54 40 8
-1.814554 0.716629 -0.767858 31 30 31 40 8
-1.797620 0.725174 -0.766463 45 41 66 40 8
-1.828987 0.726792 -0.757132 28 25 39 40 8
-2.380888 0.890562 -0.420464 51 43 37 9 6
-2.378295 0.877081 -0.426420 80 70 61 9 6
-2.384022 0.865181 -0.427651 61 54 44 9 6
-2.377455 0.883022 -0.422774 83 74 62 9 6
-2.454392 1.028873 -0.595171 5 7 3 9 6
-2.467825 1.020101 -0.598956 61 53 41 9 6
-2.450411 1.027745 -0.581244 9 7 4 9 6
-2.471885 1.005915 -0.598211 63 55 43 9 6
-2.467149 1.020005 -0.590572 26 22 14 9 6
-2.058563 1.374352 -0.405888 199 183 160 13 10
-2.064446 1.372002 -0.387871 205 187 167 13 10
-2.065686 1.363020 -0.416574 176 160 135 13 10
