ply
format ascii 1.0
element vertex 1105
property float x
property float y
property float z
property uchar red
property uchar green
property uchar blue
property uchar semantic_label
property uchar instance_label
end_header
1.033376 -0.016575 -0.527057 0 255 0 57 11
1.110564 0.009888 -0.541057 0 255 0 57 11
1.097865 -0.035481 -0.541057 0 255 0 57 11
1.048850 -0.030350 -0.559057 0 255 0 57 11
1.079738 -0.048562 -0.531057 0 255 0 57 11
1.068376 0.062798 -0.567057 0 255 0 57 11
1.093149 -0.038568 -0.569057 0 255 0 57 11
1.108936 -0.026625 -0.541057 0 255 0 57 11
1.093163 -0.038571 -0.549057 0 255 0 57 11
1.108102 0.017549 -0.580062 0 255 0 57 11
1.080416 -0.035754 -0.523057 0 255 0 57 11
1.074995 -0.042017 -0.549057 0 255 0 57 11
1.093498 -0.041542 -0.585057 0 255 0 57 11
1.043820 -0.025151 -0.565057 0 255 0 57 11
1.058021 -0.025681 -0.531057 0 255 0 57 11
1.122506 0.008354 -0.579140 0 255 0 57 11
1.048085 -0.033945 -0.537057 0 255 0 57 11
1.046576 -0.031422 -0.571057 0 255 0 57 11
1.109794 0.011056 -0.569057 0 255 0 57 11
1.045996 -0.030590 -0.545057 0 255 0 57 11
1.078235 0.059801 -0.527057 0 255 0 57 11
1.083469 0.036330 -0.541057 0 255 0 57 11
1.039680 0.003467 -0.522335 0 255 0 57 11
1.105656 -0.022824 -0.530051 0 255 0 57 11
1.042174 0.015205 -0.522593 0 255 0 57 11
1.052204 -0.015553 -0.531057 0 255 0 57 11
1.062129 -0.044830 -0.573057 0 255 0 57 11
1.058363 0.024032 -0.521425 0 255 0 57 11
1.117516 -0.015122 -0.521653 0 255 0 57 11
1.077528 0.037238 -0.535057 0 255 0 57 11
0.950619 0.180875 -0.579057 0 0 255 60 12
0.927132 0.022280 -0.575057 0 0 255 60 12
0.979241 0.096056 -0.571057 0 0 255 60 12
0.919132 0.123146 -0.573057 0 0 255 60 12
0.979753 0.038974 -0.571057 0 0 255 60 12
0.931866 0.073411 -0.569844 0 0 255 60 12
0.979383 0.143054 -0.577218 0 0 255 60 12
0.918808 0.209091 -0.577057 0 0 255 60 12
0.973334 0.210789 -0.579057 0 0 255 60 12
0.918890 0.162045 -0.577057 0 0 255 60 12
0.954000 0.119824 -0.569894 0 0 255 60 12
0.963167 0.066758 -0.575988 0 0 255 60 12
0.948083 0.149707 -0.575915 0 0 255 60 12
0.979388 0.173723 -0.573057 0 0 255 60 12
0.949521 0.041033 -0.569509 0 0 255 60 12
0.918635 0.049643 -0.575949 0 0 255 60 12
0.946169 0.208040 -0.575057 0 0 255 60 12
0.952091 0.091604 -0.569383 0 0 255 60 12
0.919474 0.096492 -0.575057 0 0 255 60 12
0.926932 0.184873 -0.572213 0 0 255 60 12
0.976163 0.118283 -0.581057 0 0 255 60 12
0.964104 0.023066 -0.573057 0 0 255 60 12
0.928398 0.143668 -0.569654 0 0 255 60 12
0.936978 0.107084 -0.569405 0 0 255 60 12
0.968968 0.190251 -0.580035 0 0 255 60 12
0.966228 0.158118 -0.570734 0 0 255 60 12
0.940692 0.057222 -0.578035 0 0 255 60 12
0.979487 0.076206 -0.571057 0 0 255 60 12
0.937300 0.166312 -0.572706 0 0 255 60 12
0.945191 0.025596 -0.581057 0 0 255 60 12
0.963611 0.136183 -0.569121 0 0 255 60 12
0.937224 0.127479 -0.575951 0 0 255 60 12
0.979576 0.057378 -0.573057 0 0 255 60 12
0.963243 0.105591 -0.575971 0 0 255 60 12
0.969282 0.085905 -0.582041 0 0 255 60 12
0.964461 0.043992 -0.578012 0 0 255 60 12
0.930665 0.038907 -0.569519 0 0 255 60 12
0.935193 0.089062 -0.575903 0 0 255 60 12
0.948763 0.075953 -0.576022 0 0 255 60 12
0.939010 0.193593 -0.579057 0 0 255 60 12
0.953365 0.164942 -0.577922 0 0 255 60 12
0.976631 0.158957 -0.583057 0 0 255 60 12
0.955690 0.195118 -0.572620 0 0 255 60 12
0.919003 0.080235 -0.575971 0 0 255 60 12
0.978429 0.128944 -0.570085 0 0 255 60 12
0.964101 0.176972 -0.572718 0 0 255 60 12
0.979914 0.198148 -0.573057 0 0 255 60 12
0.954803 0.056268 -0.569516 0 0 255 60 12
0.919590 0.063753 -0.572171 0 0 255 60 12
0.949085 0.135181 -0.569663 0 0 255 60 12
0.962164 0.081284 -0.569634 0 0 255 60 12
0.968113 0.118868 -0.569057 0 0 255 60 12
0.932477 0.206186 -0.579057 0 0 255 60 12
0.918815 0.194777 -0.578035 0 0 255 60 12
0.923285 0.109995 -0.575984 0 0 255 60 12
0.959615 0.208596 -0.579057 0 0 255 60 12
0.949132 0.106546 -0.575988 0 0 255 60 12
0.977353 0.104637 -0.581780 0 0 255 60 12
0.930079 0.055389 -0.569568 0 0 255 60 12
0.957639 0.031129 -0.582032 0 0 255 60 12
0.972164 0.032131 -0.580024 0 0 255 60 12
0.936888 0.178668 -0.579057 0 0 255 60 12
0.919221 0.033161 -0.575984 0 0 255 60 12
0.920940 0.175923 -0.580043 0 0 255 60 12
0.978600 0.110506 -0.569937 0 0 255 60 12
0.930892 0.155406 -0.576012 0 0 255 60 12
0.938368 0.027046 -0.570000 0 0 255 60 12
0.918909 0.137506 -0.575983 0 0 255 60 12
0.971020 0.132563 -0.580017 0 0 255 60 12
0.952894 0.028048 -0.569333 0 0 255 60 12
0.961778 0.146796 -0.576020 0 0 255 60 12
0.967135 0.200864 -0.572442 0 0 255 60 12
0.940447 0.036828 -0.578041 0 0 255 60 12
0.965075 0.094978 -0.569588 0 0 255 60 12
0.968307 0.167900 -0.579974 0 0 255 60 12
0.942772 0.067004 -0.569972 0 0 255 60 12
0.979818 0.185900 -0.575057 0 0 255 60 12
0.931232 0.118529 -0.569965 0 0 255 60 12
0.968496 0.053357 -0.569573 0 0 255 60 12
0.977551 0.153666 -0.569527 0 0 255 60 12
0.975523 0.067171 -0.579057 0 0 255 60 12
0.919447 0.149660 -0.576028 0 0 255 60 12
0.978313 0.026735 -0.571057 0 0 255 60 12
0.937763 0.139632 -0.576036 0 0 255 60 12
0.927858 0.131514 -0.569571 0 0 255 60 12
0.929428 0.196611 -0.572217 0 0 255 60 12
0.976428 0.047582 -0.579057 0 0 255 60 12
0.972759 0.179222 -0.581952 0 0 255 60 12
0.966711 0.035335 -0.570095 0 0 255 60 12
0.953139 0.048443 -0.578045 0 0 255 60 12
0.932330 0.046732 -0.578043 0 0 255 60 12
0.961532 0.126402 -0.575910 0 0 255 60 12
0.940987 0.048981 -0.569633 0 0 255 60 12
0.941015 0.116450 -0.576000 0 0 255 60 12
0.932158 0.065170 -0.578031 0 0 255 60 12
0.930959 0.030666 -0.582017 0 0 255 60 12
0.950181 0.063384 -0.578045 0 0 255 60 12
0.946788 0.172474 -0.572618 0 0 255 60 12
0.929030 0.098550 -0.569601 0 0 255 60 12
0.926536 0.086812 -0.569316 0 0 255 60 12
0.937886 0.149830 -0.569544 0 0 255 60 12
0.946930 0.086567 -0.578037 0 0 255 60 12
0.941771 0.081530 -0.569702 0 0 255 60 12
0.959705 0.088951 -0.577057 0 0 255 60 12
0.973194 0.085074 -0.570257 0 0 255 60 12
0.928473 0.168188 -0.579057 0 0 255 60 12
0.953385 0.068837 -0.569135 0 0 255 60 12
0.955616 0.156285 -0.569965 0 0 255 60 12
0.940769 0.096055 -0.569854 0 0 255 60 12
0.969159 0.075708 -0.575985 0 0 255 60 12
0.971559 0.144717 -0.569535 0 0 255 60 12
0.946203 0.188956 -0.572735 0 0 255 60 12
0.977069 0.093690 -0.581057 0 0 255 60 12
0.971505 0.148818 -0.581057 0 0 255 60 12
0.949378 0.126940 -0.576019 0 0 255 60 12
0.963044 0.056561 -0.578036 0 0 255 60 12
0.973004 0.199615 -0.581960 0 0 255 60 12
0.977877 0.169955 -0.583057 0 0 255 60 12
0.946249 0.160320 -0.572180 0 0 255 60 12
0.959453 0.116620 -0.578055 0 0 255 60 12
0.956126 0.100970 -0.569224 0 0 255 60 12
0.971407 0.067051 -0.569740 0 0 255 60 12
0.975717 0.164280 -0.572226 0 0 255 60 12
0.933114 0.079280 -0.578039 0 0 255 60 12
0.962268 0.187585 -0.573017 0 0 255 60 12
0.958592 0.045238 -0.569793 0 0 255 60 12
0.971067 0.103928 -0.569800 0 0 255 60 12
0.958205 0.110751 -0.569254 0 0 255 60 12
0.948282 0.198737 -0.577926 0 0 255 60 12
0.961445 0.167313 -0.573057 0 0 255 60 12
0.953121 0.144547 -0.569500 0 0 255 60 12
0.955786 0.137846 -0.575992 0 0 255 60 12
0.933066 0.107916 -0.578049 0 0 255 60 12
0.938499 0.200816 -0.572904 0 0 255 60 12
0.969802 0.112375 -0.577057 0 0 255 60 12
0.957402 0.174307 -0.580025 0 0 255 60 12
0.950026 0.033792 -0.577057 0 0 255 60 12
0.925005 0.152568 -0.569057 0 0 255 60 12
0.946467 0.113245 -0.569078 0 0 255 60 12
0.926809 0.174676 -0.572501 0 0 255 60 12
0.960434 0.198199 -0.580024 0 0 255 60 12
0.918900 0.185564 -0.579057 0 0 255 60 12
0.958750 0.074834 -0.577057 0 0 255 60 12
0.924250 0.042315 -0.577057 0 0 255 60 12
0.954443 0.189249 -0.580052 0 0 255 60 12
0.942045 0.169393 -0.580020 0 0 255 60 12
0.925609 0.058384 -0.577057 0 0 255 60 12
0.926630 0.029541 -0.569410 0 0 255 60 12
0.959943 0.157409 -0.578013 0 0 255 60 12
0.925166 0.070746 -0.575991 0 0 255 60 12
0.927198 0.190950 -0.579057 0 0 255 60 12
0.939549 0.157655 -0.577927 0 0 255 60 12
0.978341 0.126918 -0.579057 0 0 255 60 12
0.935700 0.187647 -0.573057 0 0 255 60 12
0.944218 0.121903 -0.569592 0 0 255 60 12
0.945022 0.058347 -0.569502 0 0 255 60 12
0.970747 0.044700 -0.569901 0 0 255 60 12
0.943944 0.034039 -0.569655 0 0 255 60 12
0.940106 0.073704 -0.575914 0 0 255 60 12
0.924389 0.201771 -0.577972 0 0 255 60 12
0.928567 0.125230 -0.575954 0 0 255 60 12
0.953442 0.203773 -0.572073 0 0 255 60 12
0.936515 0.133764 -0.569415 0 0 255 60 12
0.967448 0.096519 -0.578056 0 0 255 60 12
0.971634 0.183550 -0.572505 0 0 255 60 12
0.935316 0.099259 -0.576016 0 0 255 60 12
0.951382 0.097889 -0.575996 0 0 255 60 12
0.951968 0.081407 -0.569975 0 0 255 60 12
0.956079 0.129605 -0.569864 0 0 255 60 12
0.929107 0.137383 -0.575931 0 0 255 60 12
0.927831 0.064046 -0.569271 0 0 255 60 12
0.978979 0.120649 -0.573057 0 0 255 60 12
0.979756 0.048919 -0.571057 0 0 255 60 12
0.976274 0.080330 -0.577962 0 0 255 60 12
0.970349 0.124527 -0.583057 0 0 255 60 12
0.924088 0.046439 -0.569503 0 0 255 60 12
0.964415 0.072627 -0.569498 0 0 255 60 12
0.945057 0.044027 -0.577057 0 0 255 60 12
0.970160 0.061182 -0.575996 0 0 255 60 12
0.956388 0.039574 -0.577057 0 0 255 60 12
0.919515 0.024920 -0.572136 0 0 255 60 12
0.924634 0.077865 -0.569057 0 0 255 60 12
0.926724 0.162426 -0.573057 0 0 255 60 12
0.968233 0.129067 -0.569627 0 0 255 60 12
0.963876 0.060474 -0.570031 0 0 255 60 12
0.944464 0.142298 -0.569222 0 0 255 60 12
0.973807 0.136060 -0.569642 0 0 255 60 12
0.933142 0.146749 -0.576034 0 0 255 60 12
0.936848 0.025325 -0.579057 0 0 255 60 12
0.972855 0.040163 -0.577057 0 0 255 60 12
0.942166 0.179590 -0.572582 0 0 255 60 12
0.971756 0.193747 -0.572950 0 0 255 60 12
0.954325 0.025156 -0.577057 0 0 255 60 12
0.953905 0.177095 -0.572354 0 0 255 60 12
0.979677 0.134813 -0.576061 0 0 255 60 12
0.963394 0.183257 -0.580039 0 0 255 60 12
0.971187 0.171377 -0.573057 0 0 255 60 12
0.968355 0.139264 -0.576006 0 0 255 60 12
0.944388 0.103465 -0.569275 0 0 255 60 12
0.953611 0.185336 -0.572573 0 0 255 60 12
0.958469 0.035042 -0.570224 0 0 255 60 12
0.949226 0.049273 -0.569412 0 0 255 60 12
0.927783 0.092681 -0.575953 0 0 255 60 12
0.928738 0.106791 -0.569410 0 0 255 60 12
0.940400 0.065463 -0.578052 0 0 255 60 12
0.921839 0.055096 -0.570514 0 0 255 60 12
0.979514 0.066706 -0.571057 0 0 255 60 12
0.979091 0.151295 -0.577216 0 0 255 60 12
0.949255 0.116743 -0.575939 0 0 255 60 12
0.970140 0.157286 -0.577878 0 0 255 60 12
0.945918 0.024087 -0.573057 0 0 255 60 12
0.941459 0.185875 -0.580054 0 0 255 60 12
0.967419 0.206938 -0.583057 0 0 255 60 12
0.918711 0.088476 -0.574110 0 0 255 60 12
0.959622 0.098182 -0.575967 0 0 255 60 12
0.929182 0.176216 -0.580054 0 0 255 60 12
0.922575 0.116280 -0.570612 0 0 255 60 12
0.937197 0.060009 -0.570238 0 0 255 60 12
0.965047 0.027510 -0.579673 0 0 255 60 12
0.966445 0.111044 -0.569607 0 0 255 60 12
0.932330 0.046732 -0.569098 0 0 255 60 12
0.933946 0.083193 -0.570028 0 0 255 60 12
0.951703 0.157116 -0.577980 0 0 255 60 12
0.939322 0.041156 -0.569519 0 0 255 60 12
0.976795 0.188587 -0.581954 0 0 255 60 12
0.941308 0.108209 -0.575995 0 0 255 60 12
0.941288 0.204313 -0.580054 0 0 255 60 12
0.921017 0.169773 -0.575057 0 0 255 60 12
0.978753 0.087982 -0.575057 0 0 255 60 12
0.925911 0.083875 -0.577057 0 0 255 60 12
0.948377 0.141466 -0.576014 0 0 255 60 12
0.932412 0.037502 -0.577057 0 0 255 60 12
0.949524 0.055345 -0.577057 0 0 255 60 12
0.951900 0.206147 -0.580047 0 0 255 60 12
0.976209 0.205069 -0.574561 0 0 255 60 12
0.969100 0.051184 -0.577057 0 0 255 60 12
0.921422 0.104257 -0.571057 0 0 255 60 12
0.964566 0.150293 -0.569662 0 0 255 60 12
0.922424 0.038614 -0.570509 0 0 255 60 12
0.944757 0.134057 -0.575964 0 0 255 60 12
0.970106 0.104132 -0.579057 0 0 255 60 12
0.943556 0.099552 -0.576034 0 0 255 60 12
0.972472 0.139394 -0.583057 0 0 255 60 12
0.926262 0.210583 -0.579057 0 0 255 60 12
0.962594 0.035203 -0.577057 0 0 255 60 12
0.970917 0.026262 -0.569577 0 0 255 60 12
0.968941 0.122782 -0.575872 0 0 255 60 12
0.927907 0.102879 -0.576000 0 0 255 60 12
0.974536 0.033671 -0.570175 0 0 255 60 12
0.933992 0.054557 -0.576013 0 0 255 60 12
0.975614 0.057979 -0.579984 0 0 255 60 12
0.935050 0.174969 -0.572826 0 0 255 60 12
0.966574 0.207838 -0.575057 0 0 255 60 12
0.918738 0.155944 -0.572173 0 0 255 60 12
0.979226 0.103830 -0.573057 0 0 255 60 12
0.919618 0.131221 -0.572179 0 0 255 60 12
0.956295 0.082530 -0.575917 0 0 255 60 12
0.970112 0.089818 -0.575915 0 0 255 60 12
0.978600 0.110506 -0.577250 0 0 255 60 12
0.935637 0.158487 -0.571420 0 0 255 60 12
0.926196 0.123689 -0.569243 0 0 255 60 12
0.960946 0.142884 -0.569817 0 0 255 60 12
0.923827 0.093522 -0.569057 0 0 255 60 12
0.944587 0.152495 -0.570130 0 0 255 60 12
0.936392 0.123566 -0.569531 0 0 255 60 12
0.930400 0.114617 -0.575977 0 0 255 60 12
0.931695 0.091850 -0.569886 0 0 255 60 12
0.945390 0.088939 -0.569636 0 0 255 60 12
0.933331 0.032206 -0.569763 0 0 255 60 12
0.973269 0.123907 -0.569391 0 0 255 60 12
0.943538 0.195656 -0.572495 0 0 255 60 12
0.934532 0.066711 -0.569610 0 0 255 60 12
0.959499 0.087985 -0.569486 0 0 255 60 12
0.931667 0.024381 -0.569853 0 0 255 60 12
0.941382 0.147042 -0.576021 0 0 255 60 12
0.960700 0.122488 -0.569738 0 0 255 60 12
0.941894 0.091727 -0.575997 0 0 255 60 12
0.933972 0.198754 -0.579057 0 0 255 60 12
0.944436 0.074829 -0.569660 0 0 255 60 12
0.966494 0.082409 -0.575966 0 0 255 60 12
0.941553 0.128604 -0.569606 0 0 255 60 12
0.924068 0.142543 -0.575950 0 0 255 60 12
0.958006 0.061721 -0.575957 0 0 255 60 12
0.947205 0.174430 -0.580017 0 0 255 60 12
0.957005 0.076247 -0.569608 0 0 255 60 12
0.954292 0.111583 -0.576009 0 0 255 60 12
0.946619 0.190912 -0.580052 0 0 255 60 12
0.928689 0.183514 -0.579057 0 0 255 60 12
0.978969 0.141097 -0.570317 0 0 255 60 12
0.974072 0.060351 -0.569622 0 0 255 60 12
0.919816 0.180252 -0.574381 0 0 255 60 12
0.955341 0.068422 -0.575976 0 0 255 60 12
0.929134 0.204852 -0.572917 0 0 255 60 12
0.925951 0.029685 -0.577057 0 0 255 60 12
0.963194 0.134227 -0.575949 0 0 255 60 12
0.919713 0.073950 -0.572288 0 0 255 60 12
0.936223 0.142004 -0.569571 0 0 255 60 12
0.938642 0.114909 -0.569546 0 0 255 60 12
0.979837 0.159315 -0.575057 0 0 255 60 12
0.972900 0.093315 -0.569814 0 0 255 60 12
0.967055 0.176344 -0.579057 0 0 255 60 12
0.951505 0.108086 -0.569586 0 0 255 60 12
0.978164 0.195032 -0.579057 0 0 255 60 12
0.940229 0.083902 -0.576012 0 0 255 60 12
0.980172 0.167423 -0.577057 0 0 255 60 12
0.937912 0.207664 -0.575057 0 0 255 60 12
0.934512 0.162815 -0.577941 0 0 255 60 12
0.924268 0.191573 -0.572881 0 0 255 60 12
0.952878 0.210741 -0.575057 0 0 255 60 12
0.962827 0.103635 -0.569447 0 0 255 60 12
0.933612 0.072008 -0.577057 0 0 255 60 12
0.925131 0.051348 -0.577057 0 0 255 60 12
0.939199 0.030959 -0.582038 0 0 255 60 12
0.960939 0.190954 -0.579057 0 0 255 60 12
0.967261 0.196748 -0.579057 0 0 255 60 12
0.943358 0.050522 -0.578052 0 0 255 60 12
0.960142 0.206439 -0.572654 0 0 255 60 12
0.969574 0.077664 -0.569541 0 0 255 60 12
0.978211 0.176018 -0.579618 0 0 255 60 12
0.961134 0.028341 -0.570094 0 0 255 60 12
0.971624 0.026111 -0.577057 0 0 255 60 12
0.957211 0.162080 -0.573057 0 0 255 60 12
0.918664 0.117111 -0.575988 0 0 255 60 12
0.957108 0.182548 -0.577919 0 0 255 60 12
0.959424 0.049152 -0.575965 0 0 255 60 12
0.949426 0.098305 -0.569664 0 0 255 60 12
0.965104 0.162446 -0.577975 0 0 255 60 12
0.956739 0.151956 -0.576021 0 0 255 60 12
0.923237 0.138631 -0.570680 0 0 255 60 12
0.966938 0.151833 -0.576002 0 0 255 60 12
0.954278 0.169228 -0.573057 0 0 255 60 12
0.955786 0.137846 -0.569454 0 0 255 60 12
0.973761 0.164696 -0.581941 0 0 255 60 12
0.934049 0.189494 -0.580018 0 0 255 60 12
0.969195 0.163621 -0.573057 0 0 255 60 12
0.934218 0.171056 -0.580055 0 0 255 60 12
0.935287 0.031791 -0.575954 0 0 255 60 12
0.937575 0.042558 -0.577057 0 0 255 60 12
0.959063 0.167819 -0.579057 0 0 255 60 12
0.947676 0.162062 -0.579057 0 0 255 60 12
0.933950 0.181337 -0.573057 0 0 255 60 12
0.956142 0.062572 -0.569057 0 0 255 60 12
0.943298 0.031001 -0.577057 0 0 255 60 12
0.927892 0.113105 -0.569057 0 0 255 60 12
0.967741 0.088278 -0.569423 0 0 255 60 12
0.973563 0.115666 -0.569839 0 0 255 60 12
0.949378 0.126940 -0.569652 0 0 255 60 12
0.925439 0.158609 -0.577984 0 0 255 60 12
0.925166 0.070746 -0.569630 0 0 255 60 12
0.954415 0.121780 -0.575922 0 0 255 60 12
0.963932 0.195411 -0.572934 0 0 255 60 12
0.974782 0.054066 -0.570085 0 0 255 60 12
0.977087 0.180346 -0.572950 0 0 255 60 12
0.939106 0.088230 -0.570088 0 0 255 60 12
0.964046 0.042035 -0.570226 0 0 255 60 12
0.935533 0.052185 -0.570021 0 0 255 60 12
0.931826 0.169520 -0.573057 0 0 255 60 12
0.950229 0.034749 -0.569155 0 0 255 60 12
0.962213 0.052648 -0.569932 0 0 255 60 12
0.970850 0.151002 -0.569247 0 0 255 60 12
0.974149 0.099184 -0.579889 0 0 255 60 12
0.952412 0.150832 -0.569696 0 0 255 60 12
0.961211 0.067173 -0.569294 0 0 255 60 12
0.931602 0.149121 -0.569350 0 0 255 60 12
0.944333 0.180158 -0.579057 0 0 255 60 12
0.978260 0.147382 -0.569677 0 0 255 60 12
0.935561 0.119654 -0.575996 0 0 255 60 12
0.965737 0.117329 -0.575983 0 0 255 60 12
0.936346 0.152202 -0.575919 0 0 255 60 12
0.938150 0.074120 -0.569751 0 0 255 60 12
0.969665 0.068472 -0.577057 0 0 255 60 12
0.952091 0.091604 -0.575948 0 0 255 60 12
1.036929 0.231012 -0.572028 0 255 255 64 13
1.174536 0.306041 -0.571057 0 255 255 64 13
1.132726 0.219967 -0.575057 0 255 255 64 13
1.084747 0.306724 -0.571057 0 255 255 64 13
1.017557 0.298514 -0.571057 0 255 255 64 13
1.180926 0.249475 -0.567057 0 255 255 64 13
1.088161 0.250792 -0.565759 0 255 255 64 13
1.133940 0.273776 -0.572056 0 255 255 64 13
1.051946 0.272803 -0.571983 0 255 255 64 13
1.018245 0.261564 -0.567057 0 255 255 64 13
1.122769 0.307796 -0.571057 0 255 255 64 13
1.071615 0.221043 -0.573057 0 255 255 64 13
1.050895 0.306333 -0.567057 0 255 255 64 13
1.167654 0.220757 -0.577057 0 255 255 64 13
1.102640 0.280430 -0.564587 0 255 255 64 13
1.148513 0.246143 -0.564121 0 255 255 64 13
1.102319 0.221202 -0.566027 0 255 255 64 13
1.165363 0.277321 -0.564184 0 255 255 64 13
1.118141 0.247543 -0.571057 0 255 255 64 13
1.060649 0.246416 -0.565546 0 255 255 64 13
1.148144 0.297338 -0.571057 0 255 255 64 13
1.076375 0.281923 -0.565723 0 255 255 64 13
1.031259 0.281289 -0.565205 0 255 255 64 13
1.039771 0.254000 -0.571057 0 255 255 64 13
1.017790 0.220767 -0.567057 0 255 255 64 13
1.018613 0.241039 -0.572017 0 255 255 64 13
1.150224 0.225332 -0.565471 0 255 255 64 13
1.072217 0.262360 -0.571987 0 255 255 64 13
1.122741 0.288424 -0.563581 0 255 255 64 13
1.054535 0.227269 -0.581943 0 255 255 64 13
1.103920 0.300604 -0.571057 0 255 255 64 13
1.163371 0.258324 -0.571057 0 255 255 64 13
1.103874 0.261765 -0.571057 0 255 255 64 13
1.166829 0.236115 -0.564473 0 255 255 64 13
1.180221 0.268029 -0.573057 0 255 255 64 13
1.173728 0.287811 -0.578030 0 255 255 64 13
1.120463 0.229613 -0.564080 0 255 255 64 13
1.085958 0.230813 -0.565151 0 255 255 64 13
1.067549 0.298112 -0.569877 0 255 255 64 13
1.101955 0.238733 -0.571057 0 255 255 64 13
1.148758 0.266537 -0.564540 0 255 255 64 13
1.032752 0.307553 -0.568194 0 255 255 64 13
1.130613 0.258126 -0.563831 0 255 255 64 13
1.133595 0.239089 -0.571057 0 255 255 64 13
1.045491 0.290532 -0.572018 0 255 255 64 13
1.051332 0.221816 -0.565768 0 255 255 64 13
1.088407 0.271187 -0.572031 0 255 255 64 13
1.118999 0.270818 -0.563896 0 255 255 64 13
1.090390 0.290136 -0.571057 0 255 255 64 13
1.164778 0.293802 -0.563865 0 255 255 64 13
1.146015 0.282484 -0.565057 0 255 255 64 13
1.073097 0.237637 -0.572001 0 255 255 64 13
1.114471 0.220663 -0.576035 0 255 255 64 13
1.173944 0.240736 -0.577916 0 255 255 64 13
1.023943 0.227638 -0.579955 0 255 255 64 13
1.017302 0.278122 -0.571057 0 255 255 64 13
1.058770 0.285665 -0.565791 0 255 255 64 13
1.159448 0.307204 -0.568229 0 255 255 64 13
1.034633 0.268304 -0.572024 0 255 255 64 13
1.038568 0.219488 -0.581057 0 255 255 64 13
1.045292 0.241502 -0.565888 0 255 255 64 13
1.134852 0.297307 -0.565057 0 255 255 64 13
1.094909 0.224822 -0.578017 0 255 255 64 13
1.055319 0.259817 -0.565085 0 255 255 64 13
1.176510 0.225879 -0.567057 0 255 255 64 13
1.061652 0.231891 -0.565871 0 255 255 64 13
1.031183 0.242455 -0.565458 0 255 255 64 13
1.178764 0.282651 -0.565890 0 255 255 64 13
1.142352 0.255630 -0.572022 0 255 255 64 13
1.030803 0.293653 -0.571057 0 255 255 64 13
1.174900 0.254847 -0.578018 0 255 255 64 13
1.064099 0.272264 -0.565888 0 255 255 64 13
1.110588 0.288964 -0.572043 0 255 255 64 13
1.073636 0.249790 -0.566059 0 255 255 64 13
1.106395 0.250000 -0.565057 0 255 255 64 13
1.142815 0.228952 -0.575979 0 255 255 64 13
1.156829 0.285269 -0.572052 0 255 255 64 13
1.136529 0.228243 -0.564239 0 255 255 64 13
1.079287 0.295617 -0.564642 0 255 255 64 13
1.160666 0.245604 -0.571958 0 255 255 64 13
1.118876 0.260621 -0.572011 0 255 255 64 13
1.081411 0.228657 -0.577057 0 255 255 64 13
1.141169 0.307783 -0.569057 0 255 255 64 13
1.171110 0.265876 -0.564368 0 255 255 64 13
1.025021 0.251945 -0.572047 0 255 255 64 13
1.024776 0.231550 -0.565458 0 255 255 64 13
1.155075 0.224301 -0.577057 0 255 255 64 13
1.109217 0.272897 -0.571949 0 255 255 64 13
1.134479 0.285930 -0.569841 0 255 255 64 13
1.114623 0.298329 -0.565269 0 255 255 64 13
1.162377 0.224794 -0.566154 0 255 255 64 13
1.124376 0.228782 -0.576039 0 255 255 64 13
1.156291 0.273115 -0.572000 0 255 255 64 13
1.042581 0.276838 -0.565331 0 255 255 64 13
1.092613 0.262114 -0.565251 0 255 255 64 13
1.089994 0.240179 -0.571959 0 255 255 64 13
1.051284 0.250452 -0.571994 0 255 255 64 13
1.030761 0.221230 -0.567057 0 255 255 64 13
1.179615 0.237487 -0.567057 0 255 255 64 13
1.169323 0.247853 -0.563893 0 255 255 64 13
1.113470 0.235188 -0.572039 0 255 255 64 13
1.177347 0.295220 -0.566787 0 255 255 64 13
1.093228 0.300832 -0.565057 0 255 255 64 13
1.043998 0.264269 -0.565838 0 255 255 64 13
1.172216 0.275864 -0.577057 0 255 255 64 13
1.155254 0.234486 -0.571057 0 255 255 64 13
1.041286 0.299605 -0.565726 0 255 255 64 13
1.020360 0.287734 -0.565057 0 255 255 64 13
1.118924 0.280087 -0.571057 0 255 255 64 13
1.051870 0.233970 -0.571959 0 255 255 64 13
1.065353 0.230068 -0.577057 0 255 255 64 13
1.105937 0.228611 -0.578039 0 255 255 64 13
1.124404 0.296250 -0.571964 0 255 255 64 13
1.060963 0.219029 -0.577057 0 255 255 64 13
1.086900 0.220390 -0.571057 0 255 255 64 13
1.088291 0.280262 -0.565057 0 255 255 64 13
1.128119 0.246387 -0.564324 0 255 255 64 13
1.054979 0.296694 -0.572012 0 255 255 64 13
1.073689 0.307759 -0.569057 0 255 255 64 13
1.083956 0.259865 -0.572051 0 255 255 64 13
1.042798 0.229764 -0.582030 0 255 255 64 13
1.024850 0.270383 -0.565386 0 255 255 64 13
1.079750 0.268937 -0.565418 0 255 255 64 13
1.030597 0.258938 -0.565538 0 255 255 64 13
1.154921 0.257049 -0.564128 0 255 255 64 13
1.169938 0.298840 -0.577965 0 255 255 64 13
1.061387 0.307600 -0.569842 0 255 255 64 13
1.098849 0.291459 -0.564281 0 255 255 64 13
1.169909 0.231371 -0.574050 0 255 255 64 13
1.128902 0.278936 -0.563777 0 255 255 64 13
1.097942 0.248713 -0.572005 0 255 255 64 13
1.075346 0.228980 -0.565879 0 255 255 64 13
1.142521 0.237193 -0.563678 0 255 255 64 13
1.062729 0.256198 -0.572015 0 255 255 64 13
1.154164 0.291969 -0.563806 0 255 255 64 13
1.063486 0.221277 -0.566142 0 255 255 64 13
1.123655 0.220756 -0.569057 0 255 255 64 13
1.042012 0.221753 -0.571057 0 255 255 64 13
1.180059 0.259884 -0.565473 0 255 255 64 13
1.068346 0.287719 -0.571057 0 255 255 64 13
1.022553 0.307676 -0.571974 0 255 255 64 13
1.108310 0.230152 -0.564445 0 255 255 64 13
1.112373 0.306986 -0.572013 0 255 255 64 13
1.138343 0.266706 -0.565057 0 255 255 64 13
1.072757 0.274513 -0.572002 0 255 255 64 13
1.159325 0.297006 -0.572002 0 255 255 64 13
1.096572 0.232647 -0.564720 0 255 255 64 13
1.097068 0.271389 -0.565057 0 255 255 64 13
1.112590 0.259912 -0.563905 0 255 255 64 13
1.082170 0.241842 -0.565612 0 255 255 64 13
1.158957 0.266414 -0.564346 0 255 255 64 13
1.144137 0.273654 -0.572021 0 255 255 64 13
1.129905 0.264410 -0.572040 0 255 255 64 13
1.112515 0.221079 -0.565856 0 255 255 64 13
1.025382 0.300941 -0.565057 0 255 255 64 13
1.141202 0.245652 -0.571057 0 255 255 64 13
1.141919 0.220963 -0.569057 0 255 255 64 13
1.165657 0.269080 -0.571995 0 255 255 64 13
1.123466 0.239198 -0.571057 0 255 255 64 13
1.037959 0.283954 -0.571971 0 255 255 64 13
1.112761 0.241474 -0.564467 0 255 255 64 13
1.133278 0.251426 -0.572020 0 255 255 64 13
1.112421 0.278350 -0.563868 0 255 255 64 13
1.166611 0.283189 -0.571986 0 255 255 64 13
1.143968 0.292092 -0.563869 0 255 255 64 13
1.132352 0.304784 -0.571951 0 255 255 64 13
1.045169 0.231305 -0.565451 0 255 255 64 13
1.079996 0.289332 -0.572008 0 255 255 64 13
1.063315 0.239716 -0.572013 0 255 255 64 13
1.042001 0.307631 -0.571057 0 255 255 64 13
1.155582 0.279400 -0.564511 0 255 255 64 13
1.020132 0.219323 -0.577057 0 255 255 64 13
1.052069 0.283000 -0.571965 0 255 255 64 13
1.097187 0.283633 -0.571982 0 255 255 64 13
1.061435 0.278965 -0.571982 0 255 255 64 13
1.058524 0.265270 -0.572048 0 255 255 64 13
1.049067 0.220784 -0.577057 0 255 255 64 13
1.096093 0.307346 -0.571057 0 255 255 64 13
1.138685 0.276857 -0.564188 0 255 255 64 13
1.099068 0.244385 -0.563874 0 255 255 64 13
1.037250 0.290239 -0.565184 0 255 255 64 13
1.123326 0.271943 -0.572008 0 255 255 64 13
1.033599 0.229675 -0.581057 0 255 255 64 13
1.152699 0.251387 -0.571057 0 255 255 64 13
1.077671 0.259156 -0.565297 0 255 255 64 13
1.065933 0.261651 -0.565311 0 255 255 64 13
1.150116 0.307142 -0.571057 0 255 255 64 13
1.176733 0.273091 -0.565057 0 255 255 64 13
1.157878 0.242107 -0.563959 0 255 255 64 13
1.133619 0.228861 -0.577057 0 255 255 64 13
1.028055 0.275836 -0.571984 0 255 255 64 13
1.037884 0.245121 -0.572057 0 255 255 64 13
1.025559 0.264098 -0.571962 0 255 255 64 13
1.139564 0.252134 -0.564089 0 255 255 64 13
1.018490 0.230841 -0.572004 0 255 255 64 13
1.027978 0.237003 -0.571988 0 255 255 64 13
1.146433 0.236361 -0.572000 0 255 255 64 13
1.143136 0.288179 -0.572002 0 255 255 64 13
1.081460 0.248127 -0.572031 0 255 255 64 13
1.119585 0.254336 -0.565333 0 255 255 64 13
1.099606 0.256538 -0.564430 0 255 255 64 13
1.030850 0.221654 -0.577057 0 255 255 64 13
1.171772 0.288227 -0.565375 0 255 255 64 13
1.051775 0.291241 -0.565441 0 255 255 64 13
1.129537 0.233819 -0.564038 0 255 255 64 13
1.081412 0.276762 -0.571991 0 255 255 64 13
1.109046 0.291336 -0.563571 0 255 255 64 13
1.055075 0.239423 -0.565672 0 255 255 64 13
1.166523 0.302015 -0.567057 0 255 255 64 13
1.043289 0.270553 -0.571996 0 255 255 64 13
1.049450 0.261065 -0.571990 0 255 255 64 13
1.172235 0.261547 -0.571928 0 255 255 64 13
1.150479 0.260037 -0.571057 0 255 255 64 13
1.109264 0.244262 -0.571972 0 255 255 64 13
1.109387 0.254459 -0.571944 0 255 255 64 13
1.128948 0.269529 -0.565057 0 255 255 64 13
1.106817 0.267273 -0.565057 0 255 255 64 13
1.046247 0.255612 -0.565578 0 255 255 64 13
1.078162 0.299945 -0.572002 0 255 255 64 13
1.127476 0.301731 -0.565057 0 255 255 64 13
1.171095 0.256188 -0.565057 0 255 255 64 13
1.171696 0.249394 -0.572006 0 255 255 64 13
1.018566 0.269674 -0.571956 0 255 255 64 13
1.026220 0.286448 -0.571984 0 255 255 64 13
1.126068 0.255979 -0.571057 0 255 255 64 13
1.092244 0.231522 -0.572031 0 255 255 64 13
1.079552 0.219907 -0.575950 0 255 255 64 13
1.126237 0.285637 -0.571987 0 255 255 64 13
1.092536 0.223281 -0.565367 0 255 255 64 13
1.079967 0.221864 -0.565433 0 255 255 64 13
1.083908 0.288500 -0.564400 0 255 255 64 13
1.067350 0.249081 -0.571977 0 255 255 64 13
1.038177 0.236880 -0.565993 0 255 255 64 13
1.082878 0.235558 -0.572032 0 255 255 64 13
1.093320 0.255829 -0.572035 0 255 255 64 13
1.169644 0.220507 -0.567057 0 255 255 64 13
1.178388 0.231614 -0.573057 0 255 255 64 13
1.059723 0.299775 -0.565698 0 255 255 64 13
1.167661 0.240028 -0.571942 0 255 255 64 13
1.168691 0.292971 -0.571988 0 255 255 64 13
1.139346 0.299208 -0.571973 0 255 255 64 13
1.017517 0.249451 -0.569057 0 255 255 64 13
1.073390 0.229396 -0.574069 0 255 255 64 13
1.132911 0.220834 -0.565893 0 255 255 64 13
1.179553 0.276740 -0.573057 0 255 255 64 13
1.058599 0.227144 -0.573057 0 255 255 64 13
1.153872 0.300210 -0.565738 0 255 255 64 13
1.161158 0.286393 -0.564615 0 255 255 64 13
1.149930 0.233572 -0.564388 0 255 255 64 13
1.070015 0.242381 -0.565363 0 255 255 64 13
1.123205 0.261746 -0.564653 0 255 255 64 13
1.046199 0.284247 -0.565870 0 255 255 64 13
1.034802 0.249866 -0.565840 0 255 255 64 13
1.146679 0.256756 -0.564486 0 255 255 64 13
1.161914 0.251473 -0.564245 0 255 255 64 13
1.071508 0.268644 -0.565099 0 255 255 64 13
1.068134 0.281630 -0.565452 0 255 255 64 13
1.055150 0.278256 -0.565511 0 255 255 64 13
1.116136 0.228489 -0.578038 0 255 255 64 13
1.047570 0.300314 -0.571963 0 255 255 64 13
1.142058 0.263872 -0.572042 0 255 255 64 13
1.106540 0.221823 -0.573057 0 255 255 64 13
1.097773 0.267151 -0.572051 0 255 255 64 13
1.155210 0.219930 -0.569057 0 255 255 64 13
1.022942 0.242163 -0.565172 0 255 255 64 13
1.087944 0.297866 -0.572037 0 255 255 64 13
1.035417 0.300852 -0.572023 0 255 255 64 13
1.148466 0.274778 -0.564126 0 255 255 64 13
1.033507 0.272633 -0.565226 0 255 255 64 13
1.044754 0.229348 -0.574171 0 255 255 64 13
1.118609 0.288226 -0.571057 0 255 255 64 13
1.101586 0.275477 -0.571057 0 255 255 64 13
1.111466 0.264241 -0.572046 0 255 255 64 13
1.099266 0.293415 -0.572054 0 255 255 64 13
1.157755 0.231910 -0.563836 0 255 255 64 13
1.135943 0.244725 -0.564302 0 255 255 64 13
1.100069 0.229859 -0.572012 0 255 255 64 13
1.036295 0.276129 -0.572034 0 255 255 64 13
1.029398 0.228523 -0.573057 0 255 255 64 13
1.180059 0.259884 -0.573399 0 255 255 64 13
1.053071 0.268474 -0.565459 0 255 255 64 13
1.034925 0.260063 -0.572006 0 255 255 64 13
1.178653 0.288809 -0.571057 0 255 255 64 13
1.162681 0.230863 -0.571057 0 255 255 64 13
1.076838 0.255243 -0.571957 0 255 255 64 13
1.051578 0.242211 -0.572003 0 255 255 64 13
1.052995 0.229640 -0.565634 0 255 255 64 13
1.032600 0.229887 -0.565703 0 255 255 64 13
1.147696 0.223063 -0.575057 0 255 255 64 13
1.064181 0.253411 -0.565057 0 255 255 64 13
1.172635 0.241014 -0.565057 0 255 255 64 13
1.022602 0.279040 -0.565667 0 255 255 64 13
1.179104 0.245774 -0.573457 0 255 255 64 13
1.132016 0.293579 -0.571057 0 255 255 64 13
1.084742 0.302040 -0.565057 0 255 255 64 13
1.066301 0.292243 -0.565226 0 255 255 64 13
1.153749 0.241919 -0.571057 0 255 255 64 13
1.108923 0.281138 -0.569967 0 255 255 64 13
1.024356 0.221416 -0.571057 0 255 255 64 13
1.120662 0.278643 -0.563854 0 255 255 64 13
1.131398 0.290674 -0.564073 0 255 255 64 13
1.121003 0.241767 -0.564431 0 255 255 64 13
1.062388 0.293074 -0.571976 0 255 255 64 13
1.018812 0.290069 -0.572007 0 255 255 64 13
1.021524 0.254733 -0.565572 0 255 255 64 13
1.127996 0.226578 -0.565057 0 255 255 64 13
1.169077 0.227459 -0.564223 0 255 255 64 13
1.042504 0.238005 -0.571969 0 255 255 64 13
1.143674 0.300333 -0.565914 0 255 255 64 13
1.035809 0.264218 -0.565057 0 255 255 64 13
1.103689 0.237267 -0.564006 0 255 255 64 13
1.091829 0.277669 -0.571057 0 255 255 64 13
1.072294 0.301193 -0.565135 0 255 255 64 13
1.110094 0.296260 -0.571057 0 255 255 64 13
1.161474 0.220540 -0.573057 0 255 255 64 13
1.130006 0.231674 -0.571057 0 255 255 64 13
1.116994 0.299870 -0.572045 0 255 255 64 13
1.138764 0.233902 -0.571057 0 255 255 64 13
1.114425 0.249299 -0.564152 0 255 255 64 13
1.169428 0.306065 -0.577057 0 255 255 64 13
1.150453 0.288669 -0.571057 0 255 255 64 13
1.086988 0.283756 -0.571955 0 255 255 64 13
1.147757 0.281063 -0.571984 0 255 255 64 13
1.093907 0.239347 -0.565744 0 255 255 64 13
1.047420 0.222648 -0.583899 0 255 255 64 13
1.114085 0.286176 -0.564471 0 255 255 64 13
1.093689 0.286421 -0.565176 0 255 255 64 13
1.044952 0.278378 -0.572019 0 255 255 64 13
1.024804 0.299019 -0.572027 0 255 255 64 13
1.163993 0.261254 -0.563622 0 255 255 64 13
1.074127 0.290579 -0.565347 0 255 255 64 13
1.115427 0.234773 -0.565076 0 255 255 64 13
1.122286 0.295907 -0.565057 0 255 255 64 13
1.068353 0.234556 -0.565406 0 255 255 64 13
1.087574 0.267274 -0.565677 0 255 255 64 13
1.174238 0.232496 -0.565256 0 255 255 64 13
1.057137 0.220266 -0.571057 0 255 255 64 13
1.070971 0.256491 -0.565644 0 255 255 64 13
1.104010 0.296496 -0.564606 0 255 255 64 13
1.037638 0.224727 -0.566005 0 255 255 64 13
1.042627 0.248202 -0.565577 0 255 255 64 13
1.055613 0.251576 -0.565284 0 255 255 64 13
1.172064 0.279986 -0.564413 0 255 255 64 13
1.077010 0.236804 -0.565806 0 255 255 64 13
1.070186 0.223943 -0.565677 0 255 255 64 13
1.034585 0.296940 -0.565353 0 255 255 64 13
1.080336 0.252455 -0.565408 0 255 255 64 13
1.030058 0.246785 -0.571930 0 255 255 64 13
1.050453 0.246539 -0.565778 0 255 255 64 13
1.103887 0.286298 -0.569840 0 255 255 64 13
1.149175 0.268493 -0.571984 0 255 255 64 13
1.155213 0.248808 -0.563904 0 255 255 64 13
1.128119 0.246387 -0.572029 0 255 255 64 13
1.091072 0.264486 -0.571996 0 255 255 64 13
1.074759 0.245462 -0.572009 0 255 255 64 13
1.149099 0.229661 -0.571927 0 255 255 64 13
1.078918 0.265025 -0.572014 0 255 255 64 13
1.067181 0.267520 -0.572015 0 255 255 64 13
1.040453 0.295691 -0.572048 0 255 255 64 13
1.096601 0.300115 -0.572020 0 255 255 64 13
1.134942 0.259251 -0.572023 0 255 255 64 13
1.106770 0.232524 -0.572017 0 255 255 64 13
1.138807 0.287055 -0.564198 0 255 255 64 13
1.027052 0.290362 -0.565450 0 255 255 64 13
1.084909 0.273975 -0.565628 0 255 255 64 13
1.104296 0.307460 -0.569057 0 255 255 64 13
1.172575 0.224671 -0.573694 0 255 255 64 13
1.026562 0.249573 -0.565511 0 255 255 64 13
1.109586 0.303489 -0.566509 0 255 255 64 13
1.139515 0.280770 -0.570023 0 255 255 64 13
1.096182 0.221197 -0.571057 0 255 255 64 13
1.058278 0.244876 -0.572026 0 255 255 64 13
1.156804 0.265905 -0.571057 0 255 255 64 13
1.174467 0.267207 -0.577057 0 255 255 64 13
1.085495 0.257493 -0.565592 0 255 255 64 13
1.161450 0.278152 -0.569988 0 255 255 64 13
1.099312 0.264779 -0.564103 0 255 255 64 13
1.175391 0.295636 -0.573535 0 255 255 64 13
1.051483 0.299482 -0.565584 0 255 255 64 13
1.043951 0.292904 -0.565588 0 255 255 64 13
1.101346 0.255111 -0.571057 0 255 255 64 13
1.174682 0.301921 -0.565420 0 255 255 64 13
1.019638 0.236237 -0.567057 0 255 255 64 13
1.095061 0.251370 -0.565057 0 255 255 64 13
1.087904 0.226310 -0.577057 0 255 255 64 13
1.119782 0.303366 -0.566687 0 255 255 64 13
1.074835 0.284295 -0.571983 0 255 255 64 13
1.138510 0.223733 -0.577057 0 255 255 64 13
1.086620 0.253164 -0.571998 0 255 255 64 13
1.165911 0.270277 -0.565057 0 255 255 64 13
1.057229 0.288037 -0.571983 0 255 255 64 13
1.041625 0.262728 -0.572028 0 255 255 64 13
1.177421 0.282936 -0.575057 0 255 255 64 13
1.121003 0.222528 -0.575057 0 255 255 64 13
1.021842 0.294703 -0.565057 0 255 255 64 13
1.164894 0.250840 -0.571057 0 255 255 64 13
1.166721 0.307702 -0.571057 0 255 255 64 13
1.127519 0.277186 -0.571057 0 255 255 64 13
1.017612 0.255564 -0.571988 0 255 255 64 13
1.073968 0.294702 -0.571057 0 255 255 64 13
1.136264 0.303952 -0.566482 0 255 255 64 13
1.095425 0.279918 -0.565057 0 255 255 64 13
1.044583 0.247787 -0.571966 0 255 255 64 13
1.105305 0.273729 -0.564222 0 255 255 64 13
1.066840 0.304396 -0.572025 0 255 255 64 13
1.116627 0.269278 -0.569945 0 255 255 64 13
1.118507 0.230029 -0.571989 0 255 255 64 13
1.161990 0.290306 -0.569945 0 255 255 64 13
1.038422 0.257275 -0.565413 0 255 255 64 13
1.161376 0.239319 -0.569898 0 255 255 64 13
1.087528 0.295910 -0.565727 0 255 255 64 13
1.172358 0.271745 -0.571960 0 255 255 64 13
1.066373 0.222708 -0.577057 0 255 255 64 13
1.177394 0.266585 -0.565971 0 255 255 64 13
1.154287 0.302166 -0.571938 0 255 255 64 13
1.127014 0.252757 -0.565057 0 255 255 64 13
1.156925 0.227997 -0.571999 0 255 255 64 13
1.055102 0.306890 -0.571974 0 255 255 64 13
1.101610 0.227487 -0.564565 0 255 255 64 13
1.135641 0.267281 -0.571057 0 255 255 64 13
1.111993 0.228243 -0.573057 0 255 255 64 13
1.146973 0.248515 -0.572013 0 255 255 64 13
1.158418 0.254261 -0.572032 0 255 255 64 13
1.149221 0.239858 -0.565649 0 255 255 64 13
1.021572 0.226097 -0.566708 0 255 255 64 13
1.089478 0.247366 -0.571057 0 255 255 64 13
1.036806 0.220814 -0.574722 0 255 255 64 13
1.139270 0.260375 -0.564368 0 255 255 64 13
1.079114 0.304426 -0.567057 0 255 255 64 13
1.100361 0.221618 -0.575919 0 255 255 64 13
1.063315 0.239716 -0.565589 0 255 255 64 13
1.181028 0.253544 -0.573057 0 255 255 64 13
1.127266 0.223141 -0.577057 0 255 255 64 13
1.112713 0.270109 -0.564804 0 255 255 64 13
1.144771 0.228536 -0.564569 0 255 255 64 13
1.128193 0.285221 -0.564959 0 255 255 64 13
1.159325 0.297006 -0.564882 0 255 255 64 13
1.128828 0.240104 -0.565150 0 255 255 64 13
1.048850 0.229378 -0.579057 0 255 255 64 13
1.060140 0.301731 -0.571996 0 255 255 64 13
1.060404 0.226022 -0.579833 0 255 255 64 13
1.087629 0.238636 -0.565057 0 255 255 64 13
1.037542 0.281998 -0.565755 0 255 255 64 13
1.058033 0.224481 -0.565629 0 255 255 64 13
1.073173 0.276470 -0.565224 0 255 255 64 13
1.164164 0.242815 -0.564419 0 255 255 64 13
1.061435 0.278965 -0.565058 0 255 255 64 13
1.105891 0.257246 -0.563992 0 255 255 64 13
1.048864 0.277547 -0.565902 0 255 255 64 13
1.136237 0.236484 -0.564069 0 255 255 64 13
1.153919 0.271574 -0.564505 0 255 255 64 13
1.179813 0.239489 -0.573134 0 255 255 64 13
1.133278 0.251426 -0.564403 0 255 255 64 13
1.060895 0.266811 -0.565597 0 255 255 64 13
1.150960 0.286516 -0.564020 0 255 255 64 13
1.025144 0.262142 -0.565706 0 255 255 64 13
1.117288 0.291629 -0.563716 0 255 255 64 13
1.052485 0.284956 -0.565684 0 255 255 64 13
1.031891 0.236172 -0.565894 0 255 255 64 13
1.171062 0.294511 -0.565515 0 255 255 64 13
1.034679 0.239668 -0.572000 0 255 255 64 13
1.142229 0.245434 -0.564011 0 255 255 64 13
1.028055 0.275836 -0.565581 0 255 255 64 13
1.058156 0.234679 -0.572029 0 255 255 64 13
1.115255 0.253211 -0.569939 0 255 255 64 13
1.104228 0.249422 -0.572047 0 255 255 64 13
1.058061 0.291950 -0.565482 0 255 255 64 13
1.032506 0.287158 -0.572047 0 255 255 64 13
1.028224 0.257398 -0.571971 0 255 255 64 13
1.056445 0.255489 -0.571937 0 255 255 64 13
0.794096 0.069761 -0.547057 255 125 0 66 14
0.819218 0.149466 -0.573057 255 125 0 66 14
0.834705 0.096107 -0.573057 255 125 0 66 14
0.791343 0.114520 -0.553057 255 125 0 66 14
0.832364 0.067022 -0.549057 255 125 0 66 14
0.826336 0.122423 -0.549057 255 125 0 66 14
0.807127 0.073345 -0.580048 255 125 0 66 14
0.812572 0.118207 -0.581057 255 125 0 66 14
0.813656 0.094448 -0.546648 255 125 0 66 14
0.831610 0.070185 -0.575057 255 125 0 66 14
0.811482 0.141938 -0.552068 255 125 0 66 14
0.788517 0.091613 -0.551866 255 125 0 66 14
0.835299 0.100072 -0.550952 255 125 0 66 14
0.788688 0.073175 -0.568079 255 125 0 66 14
0.813190 0.073013 -0.559057 255 125 0 66 14
0.817573 0.107929 -0.563057 255 125 0 66 14
0.825101 0.129052 -0.569057 255 125 0 66 14
0.834994 0.081734 -0.561057 255 125 0 66 14
0.810560 0.113509 -0.547057 255 125 0 66 14
0.824795 0.081857 -0.547057 255 125 0 66 14
0.809275 0.126050 -0.565057 255 125 0 66 14
0.803337 0.084374 -0.553989 255 125 0 66 14
0.801009 0.102279 -0.553057 255 125 0 66 14
0.829342 0.110527 -0.573057 255 125 0 66 14
0.801463 0.065939 -0.565057 255 125 0 66 14
0.826026 0.094928 -0.561057 255 125 0 66 14
0.815660 0.065397 -0.571216 255 125 0 66 14
0.825898 0.084702 -0.575057 255 125 0 66 14
0.818033 0.066936 -0.546703 255 125 0 66 14
0.827814 0.064857 -0.562401 255 125 0 66 14
0.824042 0.108598 -0.547057 255 125 0 66 14
0.824472 0.135712 -0.553057 255 125 0 66 14
0.813485 0.127200 -0.551057 255 125 0 66 14
0.813611 0.137396 -0.571057 255 125 0 66 14
0.805374 0.065097 -0.551057 255 125 0 66 14
0.812286 0.078382 -0.546855 255 125 0 66 14
0.834402 0.104352 -0.563057 255 125 0 66 14
0.826352 0.118330 -0.561057 255 125 0 66 14
0.816377 0.107244 -0.577057 255 125 0 66 14
0.787980 0.079459 -0.552003 255 125 0 66 14
0.812491 0.079349 -0.571057 255 125 0 66 14
0.789056 0.103767 -0.548214 255 125 0 66 14
0.825810 0.093910 -0.547164 255 125 0 66 14
0.817710 0.118123 -0.569057 255 125 0 66 14
0.825008 0.075678 -0.557057 255 125 0 66 14
0.797637 0.067183 -0.576013 255 125 0 66 14
0.834705 0.087663 -0.551057 255 125 0 66 14
0.798929 0.092496 -0.547057 255 125 0 66 14
0.823517 0.140841 -0.567057 255 125 0 66 14
0.819207 0.149419 -0.555057 255 125 0 66 14
0.815536 0.103295 -0.553057 255 125 0 66 14
0.801043 0.073582 -0.557057 255 125 0 66 14
0.818769 0.128121 -0.577968 255 125 0 66 14
0.815906 0.085791 -0.554024 255 125 0 66 14
0.790074 0.070080 -0.557057 255 125 0 66 14
0.817271 0.116172 -0.555057 255 125 0 66 14
0.819488 0.073784 -0.577057 255 125 0 66 14
0.814147 0.135237 -0.560046 255 125 0 66 14
0.798177 0.079337 -0.546409 255 125 0 66 14
0.819214 0.125982 -0.561057 255 125 0 66 14
0.835053 0.079677 -0.571172 255 125 0 66 14
0.823387 0.072889 -0.567057 255 125 0 66 14
0.834877 0.071536 -0.559057 255 125 0 66 14
0.825281 0.096067 -0.577057 255 125 0 66 14
0.826149 0.105127 -0.557057 255 125 0 66 14
0.801095 0.112303 -0.551057 255 125 0 66 14
0.834638 0.077721 -0.548866 255 125 0 66 14
0.826579 0.101925 -0.569057 255 125 0 66 14
0.817107 0.120296 -0.544446 255 125 0 66 14
0.825177 0.085865 -0.557057 255 125 0 66 14
0.806328 0.093961 -0.553057 255 125 0 66 14
0.834968 0.091963 -0.563057 255 125 0 66 14
0.819982 0.066489 -0.557057 255 125 0 66 14
0.802989 0.073124 -0.571057 255 125 0 66 14
0.807495 0.103937 -0.546646 255 125 0 66 14
0.826309 0.081536 -0.565057 255 125 0 66 14
0.811425 0.146039 -0.569057 255 125 0 66 14
0.809456 0.065067 -0.561057 255 125 0 66 14
0.826269 0.120393 -0.571057 255 125 0 66 14
0.808081 0.087455 -0.546893 255 125 0 66 14
0.820659 0.115451 -0.577057 255 125 0 66 14
0.822443 0.143698 -0.549057 255 125 0 66 14
0.825769 0.064861 -0.571057 255 125 0 66 14
0.827125 0.114077 -0.553057 255 125 0 66 14
0.827180 0.109976 -0.564700 255 125 0 66 14
0.797364 0.065891 -0.555057 255 125 0 66 14
0.826465 0.091726 -0.569057 255 125 0 66 14
0.820796 0.128038 -0.545057 255 125 0 66 14
0.805140 0.073624 -0.547057 255 125 0 66 14
0.816646 0.127751 -0.569057 255 125 0 66 14
0.825167 0.071644 -0.547057 255 125 0 66 14
0.810790 0.071340 -0.567057 255 125 0 66 14
0.827113 0.128392 -0.559057 255 125 0 66 14
0.819726 0.094147 -0.553057 255 125 0 66 14
0.819495 0.141152 -0.557057 255 125 0 66 14
0.808327 0.107849 -0.554002 255 125 0 66 14
0.807958 0.077257 -0.554012 255 125 0 66 14
0.834692 0.087933 -0.571057 255 125 0 66 14
0.824960 0.104314 -0.577057 255 125 0 66 14
0.834505 0.069570 -0.567057 255 125 0 66 14
0.795928 0.087993 -0.553978 255 125 0 66 14
0.807684 0.066353 -0.573057 255 125 0 66 14
0.790645 0.072759 -0.576045 255 125 0 66 14
0.797714 0.106016 -0.546557 255 125 0 66 14
0.820234 0.140078 -0.575057 255 125 0 66 14
0.818347 0.078041 -0.553057 255 125 0 66 14
0.793800 0.106848 -0.554017 255 125 0 66 14
0.821188 0.101026 -0.546744 255 125 0 66 14
0.793872 0.097566 -0.553057 255 125 0 66 14
0.816104 0.134822 -0.550417 255 125 0 66 14
0.828352 0.077012 -0.577909 255 125 0 66 14
0.796700 0.072389 -0.565057 255 125 0 66 14
0.834426 0.104346 -0.571057 255 125 0 66 14
0.796220 0.079751 -0.554041 255 125 0 66 14
0.832729 0.107222 -0.553057 255 125 0 66 14
0.789192 0.065923 -0.565057 255 125 0 66 14
0.815906 0.085791 -0.546260 255 125 0 66 14
0.816984 0.110099 -0.544487 255 125 0 66 14
0.828859 0.101440 -0.547057 255 125 0 66 14
0.821973 0.133574 -0.563823 255 125 0 66 14
0.834883 0.098114 -0.558653 255 125 0 66 14
0.820723 0.108450 -0.571057 255 125 0 66 14
0.793540 0.086383 -0.547057 255 125 0 66 14
0.813701 0.065798 -0.553057 255 125 0 66 14
0.828075 0.066088 -0.555057 255 125 0 66 14
0.789192 0.065927 -0.551057 255 125 0 66 14
0.821032 0.066300 -0.565057 255 125 0 66 14
0.822144 0.115136 -0.544283 255 125 0 66 14
0.802334 0.098900 -0.546522 255 125 0 66 14
0.804947 0.072712 -0.563057 255 125 0 66 14
0.824886 0.099182 -0.553057 255 125 0 66 14
0.810207 0.068601 -0.546901 255 125 0 66 14
0.818231 0.115968 -0.562092 255 125 0 66 14
0.812053 0.072298 -0.575057 255 125 0 66 14
0.820016 0.133990 -0.571672 255 125 0 66 14
0.817228 0.130493 -0.555906 255 125 0 66 14
0.792868 0.068197 -0.571057 255 125 0 66 14
0.825082 0.128962 -0.551057 255 125 0 66 14
0.820112 0.076719 -0.546489 255 125 0 66 14
0.820714 0.108415 -0.553057 255 125 0 66 14
0.816408 0.075461 -0.567057 255 125 0 66 14
0.817320 0.121303 -0.575057 255 125 0 66 14
0.795266 0.065642 -0.562009 255 125 0 66 14
0.813052 0.096622 -0.553057 255 125 0 66 14
0.824732 0.069602 -0.576014 255 125 0 66 14
0.812778 0.119171 -0.550041 255 125 0 66 14
0.817734 0.123248 -0.555057 255 125 0 66 14
0.834052 0.094203 -0.547914 255 125 0 66 14
0.818183 0.144603 -0.568403 255 125 0 66 14
0.819488 0.073783 -0.561057 255 125 0 66 14
0.793016 0.074299 -0.551991 255 125 0 66 14
0.800841 0.072636 -0.578038 255 125 0 66 14
0.800898 0.068535 -0.547057 255 125 0 66 14
0.829095 0.090126 -0.577057 255 125 0 66 14
0.825447 0.077630 -0.571057 255 125 0 66 14
0.835003 0.098680 -0.567057 255 125 0 66 14
0.828475 0.087209 -0.546819 255 125 0 66 14
0.827048 0.124317 -0.565057 255 125 0 66 14
0.831387 0.100903 -0.575910 255 125 0 66 14
0.813859 0.105023 -0.547057 255 125 0 66 14
0.823861 0.065498 -0.549057 255 125 0 66 14
0.835045 0.075589 -0.565057 255 125 0 66 14
0.835226 0.079640 -0.555057 255 125 0 66 14
0.835093 0.089892 -0.557057 255 125 0 66 14
0.801381 0.084790 -0.546935 255 125 0 66 14
0.827137 0.120209 -0.555057 255 125 0 66 14
0.796050 0.098191 -0.546834 255 125 0 66 14
0.803473 0.065776 -0.559057 255 125 0 66 14
0.811531 0.113302 -0.554048 255 125 0 66 14
0.807372 0.093739 -0.546615 255 125 0 66 14
0.799130 0.093446 -0.554052 255 125 0 66 14
0.826417 0.091736 -0.555057 255 125 0 66 14
0.825572 0.087826 -0.563057 255 125 0 66 14
0.819109 0.091245 -0.546656 255 125 0 66 14
0.809035 0.101565 -0.553989 255 125 0 66 14
0.814517 0.065639 -0.565057 255 125 0 66 14
0.809103 0.087238 -0.553057 255 125 0 66 14
0.792261 0.109220 -0.548473 255 125 0 66 14
0.826981 0.103884 -0.563057 255 125 0 66 14
0.813529 0.127191 -0.581057 255 125 0 66 14
0.831973 0.084421 -0.575865 255 125 0 66 14
0.823244 0.125125 -0.575057 255 125 0 66 14
0.788640 0.101810 -0.553992 255 125 0 66 14
0.814314 0.131113 -0.575057 255 125 0 66 14
0.801258 0.064973 -0.571057 255 125 0 66 14
0.807508 0.065520 -0.567057 255 125 0 66 14
0.815443 0.112471 -0.579959 255 125 0 66 14
0.826936 0.112073 -0.559057 255 125 0 66 14
0.796700 0.072390 -0.573057 255 125 0 66 14
0.835265 0.071453 -0.553057 255 125 0 66 14
0.828351 0.077009 -0.547057 255 125 0 66 14
0.806417 0.079630 -0.546522 255 125 0 66 14
0.817351 0.140691 -0.550500 255 125 0 66 14
0.825177 0.085865 -0.569057 255 125 0 66 14
0.789227 0.085328 -0.551954 255 125 0 66 14
0.814270 0.145435 -0.556030 255 125 0 66 14
0.822191 0.086500 -0.551925 255 125 0 66 14
0.801673 0.076549 -0.551936 255 125 0 66 14
0.806897 0.072265 -0.557057 255 125 0 66 14
0.816936 0.138734 -0.566372 255 125 0 66 14
0.827025 0.116143 -0.567057 255 125 0 66 14
0.814909 0.143254 -0.573057 255 125 0 66 14
1.072461 0.624217 -0.565057 255 0 0 73 15
1.008479 0.611236 -0.575057 255 0 0 73 15
1.034432 0.642523 -0.560275 255 0 0 73 15
1.041711 0.609434 -0.565057 255 0 0 73 15
1.021709 0.622736 -0.559057 255 0 0 73 15
1.057476 0.641715 -0.561057 255 0 0 73 15
1.011738 0.631954 -0.575057 255 0 0 73 15
1.058786 0.612810 -0.576028 255 0 0 73 15
1.079335 0.642142 -0.563057 255 0 0 73 15
1.054582 0.621883 -0.559216 255 0 0 73 15
1.026655 0.615551 -0.576003 255 0 0 73 15
1.064192 0.638242 -0.578021 255 0 0 73 15
1.080721 0.610193 -0.560463 255 0 0 73 15
1.017055 0.642128 -0.563057 255 0 0 73 15
1.039347 0.627166 -0.563935 255 0 0 73 15
1.064559 0.609539 -0.561057 255 0 0 73 15
1.019169 0.609195 -0.565057 255 0 0 73 15
1.041595 0.618509 -0.576021 255 0 0 73 15
1.082886 0.629990 -0.559057 255 0 0 73 15
1.072861 0.611864 -0.571057 255 0 0 73 15
1.030151 0.612763 -0.558680 255 0 0 73 15
1.045754 0.638072 -0.566041 255 0 0 73 15
1.069645 0.635038 -0.558794 255 0 0 73 15
1.026484 0.633989 -0.563990 255 0 0 73 15
1.052086 0.610145 -0.559404 255 0 0 73 15
1.065055 0.627835 -0.573057 255 0 0 73 15
1.017068 0.618549 -0.571057 255 0 0 73 15
1.072651 0.636444 -0.571057 255 0 0 73 15
1.050041 0.619759 -0.569057 255 0 0 73 15
1.058617 0.631249 -0.563918 255 0 0 73 15
1.031593 0.619550 -0.567057 255 0 0 73 15
