ply
format ascii 1.0
element vertex 1096
property float x
property float y
property float z
property uchar red
property uchar green
property uchar blue
property uchar semantic_label
property uchar instance_label
end_header
-0.635504 0.029971 -0.044891 206 195 165 23 15
-0.645354 0.039509 -0.049236 206 191 165 14 7
-0.648060 0.021276 -0.038997 207 194 169 23 15
-0.663135 0.035354 -0.049459 197 184 160 23 15
-0.136503 -0.164803 -0.077752 201 177 138 14 7
-0.138048 -0.156482 -0.063474 204 180 142 14 7
-0.123765 -0.157750 -0.072309 176 153 118 14 7
-0.137121 -0.137458 -0.057633 221 198 159 14 7
-0.367362 -0.138869 -0.052884 234 225 215 14 7
-0.372977 -0.123410 -0.049739 228 223 216 14 7
0.262584 0.235975 -0.058963 187 166 136 14 7
0.263013 0.272574 -0.059207 185 166 139 14 7
-0.131470 0.169829 -0.035142 56 57 53 40 13
-0.125291 0.144775 -0.036600 47 48 45 40 13
-0.119935 0.155915 -0.035447 49 51 48 40 13
-0.109981 0.143460 -0.037588 53 53 52 40 13
0.278545 0.200633 -0.058186 186 167 137 14 7
0.246688 0.174827 -0.058789 188 167 136 14 7
0.008720 0.228767 -0.045502 173 153 126 14 7
0.022713 0.262611 -0.048889 171 151 126 14 7
0.036383 0.273716 -0.052087 171 151 126 14 7
0.317607 -0.180186 0.095461 101 102 104 5 5
0.148011 0.258751 -0.059322 203 185 162 14 7
-0.039087 0.212587 -0.045529 99 88 76 40 13
-0.040194 0.197221 -0.044828 103 95 81 40 13
-0.046142 0.190986 -0.044019 89 82 71 40 13
-0.408449 -0.043240 -0.049830 230 225 220 14 7
-0.237655 0.116301 -0.037179 38 38 37 40 13
-0.242407 0.096089 -0.041089 38 40 39 14 7
-0.249460 0.108151 -0.036216 36 37 35 40 13
-0.517176 -0.093739 -0.059285 208 186 148 14 7
0.122922 0.028859 -0.058237 196 179 146 14 7
0.101610 0.060885 -0.058195 176 160 139 14 7
0.096513 0.027919 -0.058425 205 188 162 14 7
0.403188 -0.174158 0.145452 121 122 132 5 5
0.386312 -0.154380 0.140360 177 164 142 5 5
0.383719 -0.176276 0.144270 103 107 120 5 5
0.368501 -0.165055 0.143745 190 173 144 5 5
0.354285 -0.165313 -0.059910 30 31 31 5 5
-0.616444 -0.007031 -0.032448 207 196 169 23 15
-0.592794 0.016259 -0.050555 183 167 138 23 15
-0.611293 0.010868 -0.041188 203 192 163 23 15
0.408245 -0.226303 -0.268061 47 47 45 5 5
-0.031911 0.088450 -0.057627 208 185 152 14 7
0.184602 -0.052123 -0.057139 193 171 139 14 7
0.200381 -0.036633 -0.056895 193 171 140 14 7
0.188385 -0.026399 -0.057512 196 172 140 14 7
-0.111480 0.096937 -0.054325 105 98 79 40 13
-0.099578 0.085701 -0.057368 197 177 144 40 13
0.155782 0.213218 -0.059132 189 171 142 14 7
0.320201 -0.182292 0.083697 34 34 33 5 5
0.233915 -0.072314 -0.042157 136 121 102 5 5
0.234805 -0.072762 -0.025715 100 92 84 5 5
-0.502983 -0.011050 -0.058164 197 178 142 14 7
-0.414814 -0.012426 -0.052158 211 195 173 14 7
-0.437124 -0.023504 -0.051812 209 189 158 14 7
0.359275 -0.186517 0.115411 54 69 100 5 5
0.377205 -0.183670 0.134677 72 86 108 5 5
0.344679 -0.177741 0.132617 79 93 112 5 5
0.373913 -0.186920 0.127436 69 82 105 5 5
0.368594 -0.175288 0.143035 84 96 113 5 5
0.212386 0.112005 -0.058424 195 177 146 14 7
0.208544 0.134200 -0.058803 195 177 148 14 7
0.190625 0.085441 -0.057979 194 178 145 14 7
0.173494 -0.120672 -0.242863 28 30 32 5 5
0.152083 -0.054434 -0.057958 232 210 174 14 7
0.146787 -0.047172 -0.057157 230 209 173 14 7
0.132897 -0.017393 -0.058429 205 187 161 14 7
-0.221150 -0.132993 -0.057103 184 165 139 14 7
-0.199415 -0.121010 -0.057175 214 191 159 14 7
-0.377635 0.127754 -0.033525 49 49 47 40 13
-0.374543 0.140350 -0.032183 43 38 35 40 13
-0.394344 0.147308 -0.031473 52 51 46 40 13
0.117636 -0.067399 -0.065230 211 188 154 14 7
0.089046 -0.072839 -0.065455 203 180 145 14 7
0.118074 -0.071623 -0.076603 187 164 131 14 7
-0.584647 -0.134855 -0.058448 175 154 124 14 7
-0.609096 -0.126606 -0.054240 144 128 106 14 7
-0.615441 -0.120580 -0.050323 156 143 123 23 15
0.027226 0.092366 -0.057823 219 199 164 14 7
0.230316 -0.153219 -0.254897 48 54 67 5 5
0.241090 -0.161179 -0.267572 50 56 60 5 5
-0.416882 -0.253768 -0.097673 132 122 108 14 7
-0.396800 -0.244573 -0.098787 123 112 98 14 7
-0.415100 -0.272667 -0.082144 131 117 100 14 7
-0.174202 -0.128215 -0.056612 220 200 165 14 7
-0.475345 0.047086 -0.057495 179 160 131 14 7
-0.050850 -0.110348 -0.093579 157 139 114 14 7
-0.093392 -0.131610 -0.094499 142 128 106 14 7
0.322746 -0.175875 -0.219208 49 56 56 5 5
-0.302603 -0.230509 -0.081477 160 141 113 14 7
-0.334596 -0.232242 -0.062904 212 190 152 14 7
0.086492 0.212215 -0.057263 150 133 109 14 7
-0.209603 0.104847 -0.040285 51 51 50 40 13
-0.190946 0.119217 -0.036876 50 51 48 40 13
-0.218717 0.129228 -0.035671 54 52 48 40 13
-0.225029 0.118778 -0.036261 49 48 48 40 13
0.271804 -0.139326 -0.031241 33 37 44 5 5
0.265342 -0.135455 -0.020114 34 37 41 5 5
-0.557694 0.050050 -0.059027 183 169 143 14 7
0.305852 -0.122737 0.126943 120 120 119 5 5
0.295230 -0.110232 0.118726 74 68 59 5 5
0.285551 -0.140084 0.135547 101 104 108 5 5
0.292110 -0.118885 0.125780 125 124 119 5 5
-0.161100 0.069168 -0.058149 212 190 154 14 7
-0.000017 0.149189 -0.059097 139 125 100 14 7
0.008696 0.155678 -0.058407 185 173 147 14 7
-0.160378 -0.174563 -0.077133 166 146 114 14 7
-0.155737 -0.167519 -0.066279 195 170 134 14 7
-0.155488 -0.157072 -0.059287 219 196 159 14 7
-0.156267 -0.162759 -0.061402 218 194 155 14 7
-0.177201 -0.179977 -0.082008 165 145 114 14 7
0.216829 0.003578 -0.057378 190 172 140 14 7
0.216571 0.027114 -0.058025 194 176 145 14 7
-0.168803 -0.143934 -0.102983 83 67 50 14 7
-0.010295 -0.093959 -0.058186 233 214 179 14 7
-0.017549 -0.106853 -0.060382 226 206 172 14 7
-0.054151 -0.098519 -0.057440 227 208 173 14 7
-0.002572 -0.080749 -0.057063 232 212 176 14 7
-0.536011 -0.289237 -0.090425 142 125 102 14 7
-0.555221 -0.290148 -0.088306 138 121 98 14 7
0.205514 0.271997 -0.054313 180 158 130 14 7
0.194863 0.283511 -0.053536 174 157 132 14 7
0.038249 -0.095426 -0.072921 171 150 117 14 7
0.056286 -0.088706 -0.075639 171 150 117 14 7
-0.070296 -0.119261 -0.058120 223 204 168 14 7
0.219047 0.181058 -0.058810 186 168 136 14 7
0.389467 -0.215959 -0.232747 58 58 59 5 5
-0.235823 0.183560 -0.033334 134 125 111 40 13
-0.547000 -0.043972 -0.059110 188 167 136 14 7
-0.527777 -0.012529 -0.058650 195 175 140 14 7
-0.290449 -0.214041 -0.061575 221 198 160 14 7
-0.313753 -0.204770 -0.057693 220 198 160 14 7
-0.116695 0.105933 -0.050806 58 59 53 40 13
-0.140270 0.106245 -0.049796 56 56 51 40 13
-0.547411 0.016112 -0.058697 156 141 115 14 7
0.007277 -0.760740 -0.262172 22 23 25 5 3
0.000971 0.187535 -0.053400 177 167 142 14 7
0.005910 0.170773 -0.055647 180 168 141 14 7
0.178203 -0.135970 -0.264351 31 31 33 5 5
0.173767 -0.124125 -0.260014 32 32 36 5 5
0.184343 -0.145172 -0.258950 29 29 29 5 5
0.188354 -0.143608 -0.245749 26 27 31 5 5
0.180268 -0.131622 -0.243115 34 34 36 5 5
0.032248 0.117875 -0.059354 203 185 154 14 7
0.029032 0.144004 -0.057890 129 117 94 14 7
0.020387 0.129875 -0.059699 200 178 145 14 7
-0.298924 -0.210979 -0.097079 119 104 87 14 7
-0.342144 -0.227799 -0.097180 134 117 98 14 7
-0.315205 -0.217008 -0.097462 121 107 88 14 7
0.364328 -0.192067 -0.224527 54 55 56 5 5
0.340853 -0.185894 -0.234091 58 60 59 5 5
0.347080 -0.183143 -0.218247 55 57 57 5 5
0.358759 -0.181314 -0.206999 56 60 60 5 5
-0.020428 0.017568 -0.057778 227 208 172 14 7
-0.043091 0.052162 -0.058473 223 203 168 14 7
-0.567502 -0.112284 -0.059097 183 163 131 14 7
-0.472446 -0.288805 -0.078212 161 142 109 14 7
-0.466919 -0.285958 -0.073398 176 154 126 14 7
-0.450164 -0.276508 -0.064838 216 198 161 14 7
-0.108595 -0.153266 -0.079131 172 150 116 14 7
-0.088731 -0.131796 -0.060952 220 198 159 14 7
-0.108586 -0.140074 -0.059694 221 199 161 14 7
-0.103156 -0.146005 -0.064606 213 190 151 14 7
0.031329 0.258604 -0.044388 173 155 129 14 7
-0.085200 0.098203 -0.056984 93 85 70 40 13
-0.058658 0.109379 -0.054675 105 97 79 40 13
-0.059877 0.081678 -0.058182 193 170 141 14 7
0.378858 -0.172936 -0.044802 26 30 32 5 5
-0.091340 0.134636 -0.038494 57 58 56 40 13
-0.068358 0.121744 -0.046561 53 53 51 40 13
-0.080398 0.127141 -0.042244 52 54 52 40 13
-0.353695 0.067762 -0.049913 58 59 56 14 7
-0.345966 0.044996 -0.053456 63 63 55 14 7
0.136314 0.031636 -0.057936 196 178 146 14 7
0.144163 0.009607 -0.058398 195 178 147 14 7
-0.482197 -0.084266 -0.055744 207 186 153 14 7
-0.464335 -0.104587 -0.057404 214 193 160 14 7
-0.161639 -0.050945 -0.057527 213 190 156 14 7
-0.424669 0.082257 -0.039613 78 75 66 40 13
-0.452890 0.099340 -0.044168 137 123 103 40 13
-0.139289 0.203024 -0.030101 117 110 96 40 13
-0.604621 -0.178801 -0.059798 163 142 110 14 7
-0.274294 0.149617 -0.032234 53 51 51 40 13
-0.288762 0.157584 -0.032266 46 46 45 40 13
-0.259824 0.151802 -0.033249 44 43 40 40 13
-0.251330 0.159650 -0.032032 45 45 40 40 13
0.146779 0.053791 -0.058172 194 174 144 14 7
0.132723 0.074472 -0.057836 196 177 145 14 7
0.187378 0.149374 -0.058860 191 168 141 14 7
-0.217052 0.008521 -0.057958 210 189 156 14 7
0.057729 -0.068681 -0.093455 110 102 85 14 7
0.049244 -0.072892 -0.091846 127 115 95 14 7
0.015116 -0.067838 -0.096056 164 140 111 14 7
0.048360 -0.083880 -0.084171 120 110 92 14 7
0.216886 -0.126992 -0.160501 57 64 74 5 5
0.213354 -0.132301 -0.179949 43 51 66 5 5
0.231735 -0.128725 -0.161618 53 58 68 5 5
0.373218 -0.194419 0.086498 58 58 59 5 5
0.393366 -0.196731 0.089682 103 107 110 5 5
0.286949 -0.157837 -0.195593 56 58 59 5 5
-0.589579 -0.030462 -0.053460 168 154 133 23 15
-0.581349 -0.005174 -0.052586 157 145 125 23 15
-0.575400 -0.024907 -0.056391 125 113 91 14 7
-0.562932 -0.008657 -0.056387 124 113 93 14 7
0.244607 0.251345 -0.059051 183 163 133 14 7
0.208357 0.247302 -0.058536 103 119 93 14 7
0.241355 0.146361 -0.058228 188 168 137 14 7
0.227413 0.152135 -0.058758 190 166 138 14 7
0.291806 -0.152483 -0.008027 34 34 37 5 5
0.325616 -0.168729 0.013209 31 32 34 5 5
0.280134 -0.148168 0.004631 38 40 41 5 5
0.310430 -0.163811 0.007859 32 36 36 5 5
-0.517302 -0.120746 -0.059283 212 191 154 14 7
0.240585 -0.137694 0.031587 92 89 92 5 5
0.229659 -0.133297 0.032196 98 93 92 5 5
0.357417 -0.198056 -0.259999 53 55 55 5 5
0.350822 -0.191645 -0.244829 59 60 62 5 5
0.328044 -0.193549 -0.269029 57 58 58 5 5
-0.252115 -0.133131 -0.055798 160 144 121 14 7
0.398327 -0.172351 -0.069081 26 28 29 5 5
-0.244238 0.068866 -0.055981 82 74 62 40 13
-0.262150 0.082718 -0.050165 53 54 51 14 7
-0.262077 0.068471 -0.055264 57 58 54 40 13
-0.362370 0.074366 -0.041776 29 31 32 14 7
-0.353948 0.079875 -0.037481 42 43 43 40 13
-0.378568 0.069088 -0.043566 50 49 48 14 7
-0.369570 0.083233 -0.036970 39 40 39 40 13
-0.163721 0.080799 -0.056967 101 87 71 40 13
0.082442 0.049228 -0.058433 225 209 175 14 7
0.013449 -0.056546 -0.097353 163 136 100 14 7
0.277612 0.327446 -0.058495 170 151 119 14 7
0.261536 0.318035 -0.059066 171 147 116 14 7
0.242755 0.303026 -0.058887 173 151 122 14 7
0.276658 -0.149879 0.026877 40 45 50 5 5
0.260301 -0.142112 0.029543 38 42 51 5 5
0.252671 -0.142008 0.055149 41 46 54 5 5
-0.366140 -0.175923 -0.058155 215 193 154 14 7
-0.334689 -0.204041 -0.057836 217 194 156 14 7
-0.533435 -0.062390 -0.059505 196 174 139 14 7
-0.569110 -0.082599 -0.059331 183 160 128 14 7
-0.489274 0.017328 -0.058169 206 185 150 14 7
-0.459678 0.014273 -0.056144 205 184 149 14 7
0.396731 -0.191160 0.041282 32 34 35 5 5
0.399741 -0.185985 0.017141 29 32 31 5 5
0.367476 -0.180542 0.013415 33 35 35 5 5
0.193747 -0.119897 0.113770 129 111 96 5 5
0.201449 -0.124019 0.119532 184 172 153 5 5
0.209489 -0.131911 0.127344 169 159 141 5 5
0.294606 -0.147191 -0.091573 29 33 31 5 5
0.287670 -0.142074 -0.066858 31 34 32 5 5
0.310051 -0.154679 -0.065500 27 29 29 5 5
0.305210 -0.155588 -0.043235 29 31 31 5 5
0.005991 0.222104 -0.049092 169 151 124 14 7
-0.323905 -0.113144 -0.047486 234 230 226 14 7
-0.102539 -0.112638 -0.100834 157 136 109 14 7
-0.126441 -0.129173 -0.100810 98 85 74 14 7
-0.109314 -0.103603 -0.101063 152 132 102 14 7
-0.117106 -0.112111 -0.102175 173 148 110 14 7
-0.184468 0.108341 -0.041484 50 50 48 40 13
-0.158879 0.110364 -0.041960 52 50 49 40 13
-0.172317 0.117175 -0.038867 51 49 47 40 13
0.269170 -0.145452 -0.184869 53 60 59 5 5
0.247284 -0.139095 -0.193044 53 60 62 5 5
0.237882 -0.130842 -0.009857 93 89 91 5 5
0.219072 -0.121176 -0.006657 186 171 148 5 5
0.213886 -0.120341 0.016752 186 174 149 5 5
0.198133 -0.111771 -0.100281 49 52 62 5 5
-0.367607 -0.114154 -0.048136 231 229 224 14 7
0.191678 -0.152747 -0.256283 30 30 33 5 5
0.203859 -0.157231 -0.272925 39 44 56 5 5
0.195847 -0.148477 -0.243541 37 42 56 5 5
0.246556 -0.155700 0.108573 143 141 136 5 5
0.258190 -0.155376 0.087246 133 133 123 5 5
0.217022 -0.144769 0.093592 156 150 137 5 5
0.232145 0.208578 -0.059280 187 166 136 14 7
0.207615 0.191842 -0.059265 187 167 138 14 7
0.205450 0.233930 -0.059512 180 162 137 14 7
-0.334456 -0.031906 -0.051490 230 227 224 14 7
-0.058119 -0.081127 -0.096505 180 148 108 14 7
-0.183305 -0.184820 -0.075970 171 149 115 14 7
-0.214917 -0.177600 -0.059191 221 196 158 14 7
-0.159708 -0.152460 -0.057913 219 196 157 14 7
-0.207563 -0.161525 -0.057351 219 197 157 14 7
-0.184638 -0.177830 -0.065287 218 193 154 14 7
-0.215687 -0.185881 -0.062348 220 195 157 14 7
0.353945 -0.189268 0.080996 35 37 39 5 5
0.383992 -0.191360 0.104300 77 86 95 5 5
0.242105 0.054394 -0.057333 189 169 138 14 7
0.230159 0.068723 -0.058387 192 171 140 14 7
0.255723 0.080310 -0.058033 187 168 143 14 7
-0.324905 -0.238645 -0.082362 144 128 106 14 7
-0.314170 -0.222042 -0.093238 144 128 106 14 7
0.420568 -0.192750 0.124651 50 66 92 5 5
0.417211 -0.189301 0.132989 55 73 98 5 5
-0.512603 -0.236044 -0.058412 222 202 169 14 7
-0.360304 0.119430 -0.032887 44 44 42 40 13
-0.367714 0.103764 -0.035603 42 44 43 40 13
-0.449710 -0.150128 -0.058470 215 192 156 14 7
-0.479672 -0.180410 -0.058281 220 199 163 14 7
0.204778 -0.119339 0.098238 140 133 125 5 5
0.205200 -0.138875 0.089405 147 139 124 5 5
0.204300 -0.120169 0.080003 150 144 133 5 5
0.194703 -0.126517 0.087362 110 109 104 5 5
0.197859 -0.132077 0.107562 151 137 117 5 5
0.195213 -0.123587 0.099221 137 129 116 5 5
0.190787 -0.125694 0.103474 159 151 128 5 5
0.203049 -0.140430 0.108521 158 144 125 5 5
0.255194 -0.132492 -0.014453 50 54 64 5 5
0.265506 -0.139211 -0.007649 38 41 47 5 5
0.254130 -0.136539 0.002613 53 58 65 5 5
0.072977 0.190811 -0.055457 144 128 103 14 7
0.078566 0.210459 -0.054255 152 136 110 14 7
0.069780 0.216700 -0.052613 156 141 114 14 7
0.069440 0.200520 -0.048045 148 132 108 14 7
0.185716 0.119803 -0.058717 193 175 144 14 7
0.433979 -0.197801 -0.217986 36 37 34 5 5
-0.188284 0.055131 -0.058470 181 163 137 14 7
-0.207586 0.058049 -0.058613 168 151 126 14 7
0.275940 0.144812 -0.057299 186 167 141 14 7
0.263728 0.144545 -0.058249 189 169 137 14 7
0.291962 0.134527 -0.058249 186 168 138 14 7
-0.306204 0.170912 -0.030771 73 66 56 40 13
-0.322072 0.153526 -0.032827 90 79 68 40 13
-0.329710 0.141107 -0.032040 64 59 53 40 13
0.206877 -0.110473 0.116484 124 115 108 5 5
0.215766 -0.122885 0.130971 152 145 132 5 5
0.224502 -0.138860 0.126049 165 157 139 5 5
0.208630 -0.111522 0.125434 168 162 147 5 5
0.180055 0.155314 -0.059027 189 169 138 14 7
0.176238 0.192618 -0.059035 189 170 139 14 7
-0.237305 0.038629 -0.058554 207 185 151 14 7
0.234772 -0.131350 0.003314 109 102 99 5 5
0.212138 -0.122627 0.027157 185 168 147 5 5
0.210117 -0.105922 0.025913 115 107 102 5 5
0.212179 -0.128964 0.045138 138 126 115 5 5
0.203294 -0.112470 0.046763 91 87 86 5 5
0.234555 -0.068247 -0.068466 142 124 102 5 5
0.231404 -0.075252 -0.053306 132 117 96 5 5
0.222469 -0.092513 -0.165317 15 18 19 5 5
0.204825 -0.085036 -0.159003 32 31 36 5 5
0.229308 -0.090960 -0.166421 13 15 18 5 5
-0.006123 0.056868 -0.058168 225 202 168 14 7
-0.024712 0.050378 -0.058721 221 200 164 14 7
0.377351 -0.182314 -0.194945 54 55 55 5 5
0.370574 -0.179518 -0.184977 50 54 52 5 5
-0.794288 -0.327875 -0.291359 25 21 27 5 4
-0.770998 -0.341636 -0.286649 16 11 17 5 4
-0.778529 -0.336363 -0.278244 15 13 17 5 4
-0.762001 -0.219982 -0.737944 35 35 32 2 6
-0.749145 -0.219289 -0.750021 33 33 29 2 6
-0.770846 -0.208598 -0.749174 34 33 29 2 6
-0.704880 -0.275376 -0.700518 13 14 15 5 4
-0.710745 -0.269405 -0.701068 16 17 19 5 4
-0.704421 -0.283834 -0.692527 16 17 18 5 4
-0.709716 -0.266819 -0.687564 23 23 27 5 4
-0.924723 -0.184992 -0.413520 32 36 39 0 0
-0.905947 -0.194074 -0.402056 41 44 48 0 0
-0.922508 -0.180417 -0.396590 58 60 63 0 0
-0.918266 -0.185822 -0.405185 41 44 48 0 0
-0.789341 -0.325319 -0.666423 25 26 29 5 4
-0.798823 -0.319879 -0.685197 24 25 28 5 4
-0.774304 -0.321323 -0.670470 24 24 26 5 4
-0.801130 -0.329528 -0.663728 28 28 30 5 4
-0.820682 -0.308285 -0.669622 38 38 41 5 4
-0.780151 -0.317024 -0.683177 24 24 26 5 4
-0.776377 -0.312898 -0.656245 30 30 32 5 4
-0.794745 -0.324297 -0.660340 28 28 31 5 4
-0.891877 -0.228502 -0.420717 61 59 59 0 0
-0.905405 -0.223763 -0.427253 63 63 63 0 0
-0.900327 -0.019851 -0.398414 29 31 37 0 0
-0.893810 -0.024564 -0.404112 29 31 37 0 0
-0.868195 -0.184645 -0.456367 28 30 34 0 0
-0.873409 -0.166641 -0.442621 28 33 34 0 0
-0.886261 -0.144591 -0.434909 29 34 36 0 0
-0.799164 -0.203548 -0.759355 28 29 31 2 6
-0.824799 -0.209979 -0.760050 29 30 32 2 6
-0.864510 -0.055206 -0.320707 25 27 31 0 0
-0.868718 -0.040402 -0.330894 28 32 36 0 0
-0.772854 -0.321525 -0.663657 25 26 28 5 4
-0.502864 -0.757814 -0.284088 36 38 41 5 3
-0.497742 -0.738337 -0.299365 47 49 51 5 3
-0.499078 -0.751044 -0.293198 38 40 40 5 3
-0.508675 -0.750014 -0.293848 38 40 43 5 3
-0.484318 -0.754734 -0.288695 30 31 34 5 3
-0.497967 -0.760404 -0.289580 32 35 38 5 3
-0.764528 -0.378705 -0.415657 54 38 42 5 4
-0.762005 -0.363971 -0.408753 55 40 44 5 4
-0.750638 -0.380456 -0.412127 27 23 26 5 4
-0.919660 -0.176668 -0.291063 22 23 29 5 4
-0.922441 -0.164930 -0.284932 25 28 34 5 4
-0.919670 -0.189801 -0.287715 22 23 30 5 4
-0.937311 -0.172617 -0.279339 31 31 35 5 4
-0.935544 -0.179081 -0.283413 26 25 35 5 4
-0.934522 -0.168222 -0.285363 32 35 44 5 4
-0.893635 -0.206962 -0.279244 50 47 48 5 4
-0.902875 -0.203279 -0.284517 23 22 26 5 4
-0.639195 -0.068669 -0.752802 33 37 36 2 6
-0.890382 -0.177441 -0.278965 41 40 43 5 4
-0.810765 -0.548580 -0.312012 15 18 19 5 4
-0.971414 -0.089041 -0.282722 21 24 34 0 0
-0.944321 -0.093251 -0.290709 22 25 34 0 0
-0.963083 -0.076258 -0.299810 22 25 35 0 0
-0.731318 -0.435570 -0.371725 25 16 19 5 4
-0.717404 -0.410934 -0.385287 28 28 30 5 4
-0.734243 -0.438865 -0.378196 23 18 21 5 4
-0.729916 -0.406325 -0.397025 21 15 19 5 4
-0.810220 -0.291193 -0.333055 32 32 36 5 4
-0.821925 -0.294987 -0.327836 28 28 33 5 4
-0.830158 -0.268683 -0.333216 35 37 41 5 4
-0.837964 -0.283859 -0.321364 14 13 18 5 4
-0.831046 -0.299974 -0.315259 13 12 16 5 4
-0.838579 -0.293632 -0.308107 12 12 17 5 4
-0.841465 -0.277292 -0.310694 15 15 19 5 4
-0.809037 -0.288652 -0.337115 35 38 41 5 4
-0.875744 0.001287 -0.752412 31 36 35 2 6
-0.887245 -0.001169 -0.747510 32 36 37 2 6
-0.647805 -0.101991 -0.753293 33 37 36 2 6
-0.890259 -0.032496 -0.676431 30 33 36 2 6
-0.866874 -0.039787 -0.664101 33 34 37 0 0
-0.872355 -0.038451 -0.679335 34 37 39 0 0
-0.885869 -0.025863 -0.331739 17 20 23 0 0
-0.888778 -0.033968 -0.321009 15 17 19 0 0
-0.747193 -0.471972 -0.385720 15 16 18 5 4
-0.750982 -0.487892 -0.383610 14 17 19 5 4
-0.736490 -0.452309 -0.372869 15 16 19 5 4
-0.740264 -0.437162 -0.385727 19 20 22 5 4
-0.756692 -0.485169 -0.393602 14 16 18 5 4
-0.762938 -0.504509 -0.389616 12 15 15 5 4
-0.767726 -0.515777 -0.393027 14 15 17 5 4
-0.768062 -0.509061 -0.379083 15 16 18 5 4
-0.746172 -0.469134 -0.368289 15 16 19 5 4
-0.738739 0.008091 -0.752782 30 32 32 2 6
-0.734808 0.028479 -0.753366 31 34 33 2 6
-0.877832 -0.066388 -0.657395 15 16 18 14 7
-0.713363 -0.397949 -0.336464 25 18 22 5 4
-0.883629 -0.189328 -0.461887 13 14 18 0 0
-0.879686 -0.202435 -0.459723 19 19 23 0 0
-0.825389 -0.253833 -0.284593 17 20 23 5 4
-0.828734 -0.274553 -0.289912 17 18 23 5 4
-0.833271 -0.245260 -0.296261 18 21 24 5 4
-0.932822 -0.028967 -0.298007 20 21 26 0 0
-0.929828 -0.041625 -0.298084 22 22 27 0 0
-0.950069 -0.021383 -0.298918 22 23 29 0 0
-0.923030 -0.013488 -0.300343 19 20 22 0 0
-0.932405 -0.021695 -0.288621 24 23 28 0 0
-0.923031 -0.018569 -0.286337 26 24 26 0 0
-0.932942 -0.021922 -0.276560 29 27 30 0 0
-0.902964 -0.026529 -0.615780 34 35 37 0 0
-0.906171 -0.044259 -0.601768 39 39 40 14 7
-0.915950 -0.032651 -0.604015 34 35 35 0 0
-0.911246 -0.037615 -0.593068 37 34 37 14 7
-0.910628 -0.037718 -0.601676 30 30 33 14 7
-0.898488 -0.046817 -0.621571 49 47 46 14 7
-0.896726 -0.030632 -0.600601 33 33 35 0 0
-0.889175 -0.034771 -0.590176 34 36 36 0 0
-0.903718 -0.043962 -0.617216 42 42 42 14 7
-0.909650 -0.029285 -0.598701 31 31 33 0 0
-0.915725 -0.031889 -0.617932 10 11 12 0 0
-0.898176 -0.052827 -0.603745 38 38 39 14 7
-0.535000 -0.740938 -0.283166 23 27 31 5 3
-0.527231 -0.741848 -0.289681 36 41 43 5 3
-0.525578 -0.740700 -0.303392 42 44 47 5 3
-0.829625 -0.296142 -0.416108 61 61 61 0 0
-0.822109 -0.285190 -0.425408 13 13 17 0 0
-0.835502 -0.280655 -0.427387 21 20 25 0 0
-0.803177 -0.294338 -0.414577 10 9 14 0 0
-0.831484 -0.275928 -0.404528 29 30 33 0 0
-0.846763 -0.274823 -0.404539 48 48 48 0 0
-0.884394 -0.031384 -0.497434 37 42 44 0 0
-0.873992 -0.036900 -0.477268 36 38 42 0 0
-0.872724 -0.040368 -0.486272 40 43 45 0 0
-0.706726 -0.077355 -0.753000 31 32 31 2 6
-0.896681 -0.207721 -0.363685 29 26 29 5 4
-0.912390 -0.195993 -0.364395 32 31 31 5 4
-0.791820 0.028426 -0.753715 30 33 31 2 6
-0.911054 -0.167139 -0.338058 27 26 29 0 0
-0.912291 -0.052649 -0.297895 19 22 26 0 0
-0.940703 -0.053973 -0.312701 20 22 27 0 0
-0.940591 -0.047475 -0.311009 22 24 29 0 0
-0.945481 -0.041220 -0.301248 20 23 28 0 0
-0.810089 -0.114694 -0.754242 20 22 21 2 6
-0.668829 -0.157150 -0.758648 22 24 22 2 6
-0.643195 -0.152957 -0.756326 20 21 23 2 6
-0.656410 -0.187096 -0.760831 42 43 37 2 6
-0.653438 -0.170532 -0.760161 21 22 23 2 6
-0.922698 -0.025405 -0.593412 26 29 30 14 7
-0.918125 -0.022606 -0.606182 30 31 33 0 0
-0.830686 -0.135736 -0.295758 13 15 20 0 0
-0.831850 -0.155841 -0.283158 16 17 23 5 4
-0.837497 -0.151965 -0.294102 13 14 21 5 4
-0.842436 -0.162130 -0.293752 11 12 19 5 4
-0.832367 -0.240561 -0.439682 13 15 18 0 0
-0.822690 -0.261687 -0.434516 25 30 31 0 0
-0.843916 -0.243064 -0.442041 35 35 36 0 0
-0.853554 -0.253212 -0.439137 37 36 37 0 0
-0.894651 -0.019389 -0.356907 39 42 44 0 0
-0.889795 -0.023465 -0.350412 28 30 34 0 0
-0.903957 -0.011729 -0.346359 26 28 32 0 0
-0.909048 -0.010989 -0.357556 24 26 31 0 0
-0.902887 -0.016912 -0.369784 24 26 30 0 0
-0.918504 -0.004225 -0.347767 19 21 25 0 0
-0.917651 -0.017306 -0.357352 18 18 22 0 0
-0.860597 -0.104300 -0.326322 15 15 18 0 0
-0.855711 -0.093997 -0.311700 14 15 19 0 0
-0.869725 -0.091751 -0.340042 14 15 19 0 0
-0.858889 -0.078051 -0.312449 14 15 19 0 0
-0.854982 -0.108810 -0.321458 13 15 19 0 0
-0.851176 -0.096579 -0.304444 15 18 20 0 0
-0.718865 -0.367928 -0.346292 12 14 16 5 4
-0.733816 -0.356586 -0.370147 10 11 15 5 4
-0.738130 -0.352575 -0.362123 12 13 16 5 4
-0.727648 -0.354951 -0.341145 22 24 26 5 4
-0.757664 -0.339462 -0.319126 25 19 22 5 4
-0.805421 -0.042897 -0.754786 45 47 44 2 6
-0.767045 -0.465383 -0.281887 15 16 18 5 4
-0.910571 -0.109336 -0.422435 22 24 27 0 0
-0.899711 -0.126941 -0.436374 25 27 27 0 0
-0.933159 -0.101926 -0.425835 22 25 28 0 0
-0.893407 -0.110011 -0.409127 22 23 26 0 0
-0.913909 -0.101393 -0.411368 21 24 27 0 0
-0.820549 -0.087587 -0.753824 18 20 21 2 6
-0.832772 -0.102070 -0.753546 14 15 16 2 6
-0.725038 -0.251657 -0.717321 24 24 27 5 4
-0.726699 -0.249039 -0.695840 35 34 32 5 4
-0.670021 -0.133914 -0.756939 23 24 24 2 6
-0.786614 -0.514710 -0.324811 16 17 19 5 4
-0.771650 -0.492590 -0.324688 15 16 18 5 4
-0.784089 -0.503127 -0.296378 16 17 19 5 4
-0.756130 -0.089496 -0.755548 22 24 24 2 6
-0.733534 -0.098945 -0.755243 25 27 25 2 6
-0.863977 -0.112797 -0.349182 14 18 21 0 0
-0.867053 -0.124409 -0.366780 14 18 21 0 0
-0.857310 -0.113326 -0.333737 13 17 20 0 0
-0.863771 -0.119639 -0.344265 14 18 21 0 0
-0.885628 -0.136257 -0.346671 10 14 17 0 0
-0.871455 -0.128204 -0.343549 10 14 17 0 0
-0.896016 -0.215510 -0.418415 21 24 24 0 0
-0.893297 -0.187884 -0.410462 13 16 19 0 0
-0.903210 -0.194136 -0.410506 20 21 25 0 0
-0.874382 -0.192444 -0.418280 12 17 17 0 0
-0.894359 -0.199720 -0.416304 15 19 22 0 0
-0.713498 -0.375889 -0.340894 27 28 30 5 4
-0.802101 -0.446668 -0.414446 39 38 43 5 4
-0.715435 -0.207492 -0.759088 38 40 36 2 6
-0.723712 -0.191164 -0.760589 36 39 34 2 6
-0.783797 -0.064968 -0.755315 24 26 25 2 6
-0.808230 -0.064684 -0.756243 23 24 25 2 6
-0.926070 0.003237 -0.738926 28 31 33 2 6
-0.916540 -0.027589 -0.739447 32 32 33 2 6
-0.922601 -0.009326 -0.725694 24 27 30 2 6
-0.904213 -0.013014 -0.728384 28 32 33 2 6
-0.916803 -0.016340 -0.716425 31 34 36 2 6
-0.904522 0.003082 -0.744837 34 35 39 2 6
-0.814053 -0.022940 -0.753493 30 35 35 2 6
-0.837349 0.004239 -0.753790 32 34 35 2 6
-0.847147 -0.015977 -0.753384 31 36 34 2 6
-0.879931 -0.105977 -0.288215 18 20 26 0 0
-0.895018 -0.084663 -0.298245 18 22 26 0 0
-0.867371 -0.085741 -0.296050 16 20 24 0 0
-0.935358 -0.148434 -0.357628 34 36 39 0 0
-0.918569 -0.161094 -0.347705 36 37 41 0 0
-0.926741 -0.161806 -0.357444 38 40 42 0 0
-0.929008 -0.150259 -0.348121 37 38 40 0 0
-0.745685 -0.428978 -0.306075 30 19 22 5 4
-0.751585 -0.450348 -0.303326 20 17 20 5 4
-0.800816 -0.545860 -0.347350 15 16 18 5 4
-0.803977 -0.543725 -0.335956 14 15 17 5 4
-0.893206 -0.109738 -0.284918 19 22 29 0 0
-0.859188 -0.127579 -0.280239 15 18 23 0 0
-0.862799 -0.048830 -0.585901 34 37 39 0 0
-0.873727 -0.036490 -0.614034 35 36 39 2 6
-0.884569 -0.035176 -0.613939 34 35 38 0 0
-0.819899 -0.249304 -0.431919 11 14 16 0 0
-0.818397 -0.264747 -0.410094 11 12 15 0 0
-0.810525 -0.257220 -0.421030 10 12 14 0 0
-0.818646 -0.251479 -0.417706 11 12 14 0 0
-0.915396 -0.023114 -0.534124 26 26 29 0 0
-0.927207 -0.017579 -0.551069 24 23 27 0 0
-0.919083 -0.023441 -0.543144 24 26 28 0 0
-0.904516 -0.025221 -0.540011 32 35 36 0 0
-0.867106 -0.175042 -0.431677 31 35 38 0 0
-0.872802 -0.162694 -0.421706 23 27 29 0 0
-0.867668 -0.180033 -0.421769 21 25 27 0 0
-0.886802 -0.022256 -0.339000 29 34 38 0 0
-0.873968 -0.037380 -0.347955 32 36 40 0 0
-0.781277 -0.037810 -0.754574 38 40 39 2 6
-0.685389 -0.073615 -0.751742 27 29 28 2 6
-0.680452 -0.098054 -0.754040 28 31 31 2 6
-0.743086 -0.443332 -0.347129 20 16 20 5 4
-0.867360 -0.049332 -0.694022 26 28 29 0 0
-0.859447 -0.069426 -0.716173 21 23 23 2 6
-0.861462 -0.059454 -0.702769 23 24 25 2 6
-0.868847 -0.068005 -0.708942 20 20 21 14 7
-0.855030 -0.067738 -0.720529 22 23 23 2 6
-0.862942 -0.051732 -0.712865 26 28 30 2 6
-0.816144 -0.544391 -0.288543 20 20 21 5 4
-0.985799 -0.083243 -0.283136 21 23 31 0 0
-1.001948 -0.060675 -0.292962 25 26 36 0 0
-1.007157 -0.051064 -0.289286 26 28 37 0 0
-0.988129 -0.070549 -0.292360 20 22 32 0 0
-0.988789 -0.062730 -0.296515 24 27 36 0 0
-0.981795 -0.063572 -0.302063 22 25 35 0 0
-1.002867 -0.070364 -0.289481 22 22 32 0 0
-0.501799 -0.655403 -0.310309 14 16 15 5 3
-0.834341 -0.285520 -0.362602 45 33 38 5 4
-0.836733 -0.270442 -0.359161 29 27 30 5 4
-0.820256 -0.289305 -0.356263 27 23 28 5 4
-0.814509 -0.281335 -0.342453 37 40 43 5 4
-0.833039 -0.259083 -0.339621 37 39 43 5 4
-0.775556 -0.292859 -0.716317 20 20 22 5 4
-0.754982 -0.298564 -0.698161 15 15 16 5 4
-0.749102 -0.291374 -0.717282 14 14 16 5 4
-0.916962 -0.066507 -0.414160 23 24 28 14 7
-0.923798 -0.085575 -0.407876 33 34 35 0 0
-0.935282 -0.082870 -0.403872 35 36 39 0 0
-0.651772 -0.219765 -0.755596 38 40 38 2 6
-0.639006 -0.219388 -0.755746 43 46 41 2 6
-0.887313 -0.157279 -0.452751 37 41 44 0 0
-0.886715 -0.173011 -0.459491 21 22 26 0 0
-0.893498 -0.182538 -0.464388 31 30 33 0 0
-0.899568 -0.173490 -0.464381 22 21 25 0 0
-0.902378 -0.157472 -0.453981 28 32 34 0 0
-0.899992 -0.026690 -0.503546 32 37 39 0 0
-0.891350 -0.034083 -0.515117 36 39 40 0 0
-0.894628 -0.030958 -0.523787 36 39 40 0 0
-0.911965 -0.053911 -0.502831 49 49 48 14 7
-0.884872 -0.034360 -0.514562 38 40 42 0 0
-0.920559 -0.171341 -0.354308 43 43 46 0 0
-0.921598 -0.177008 -0.360497 33 34 32 0 0
-0.923850 -0.171258 -0.348526 35 35 36 0 0
-0.904847 -0.191832 -0.363219 47 46 50 5 4
-0.908358 -0.184802 -0.373807 50 51 53 0 0
-0.915276 -0.183377 -0.363961 44 45 47 0 0
-0.865705 -0.119731 -0.754927 22 25 26 2 6
-0.874505 -0.145129 -0.755648 25 28 30 2 6
-0.485477 -0.637538 -0.291158 33 38 44 5 3
-0.497189 -0.619944 -0.302529 56 57 60 5 3
-0.864054 -0.073678 -0.303544 17 18 21 0 0
-0.861892 -0.192091 -0.426764 13 14 16 0 0
-0.860383 -0.185982 -0.437009 26 31 32 0 0
-0.851781 -0.207505 -0.430634 22 26 29 0 0
-0.682065 0.036364 -0.751752 28 30 30 2 6
-0.667323 0.011527 -0.752702 29 30 30 2 6
-0.890242 -0.090684 -0.752512 15 19 19 2 6
-0.873510 -0.093072 -0.751638 14 18 18 2 6
-0.916218 -0.027724 -0.568879 24 24 26 0 0
-0.907565 -0.024016 -0.574688 28 32 34 0 0
-0.917445 -0.028493 -0.593300 21 21 23 14 7
-0.909115 -0.024721 -0.556965 30 33 34 0 0
-0.917276 -0.021227 -0.582618 23 23 25 0 0
-0.771355 -0.330740 -0.339669 31 22 27 5 4
-0.771611 -0.339901 -0.343949 41 39 40 5 4
-0.766357 -0.331212 -0.346676 30 23 28 5 4
-0.780405 -0.323794 -0.336038 23 18 24 5 4
-0.787319 -0.327510 -0.348158 39 24 31 5 4
-0.737178 -0.420476 -0.306796 33 20 24 5 4
-0.725938 -0.411098 -0.317192 31 18 23 5 4
-0.659599 -0.208945 -0.759242 42 43 40 2 6
-0.641305 -0.206554 -0.759694 43 46 41 2 6
-0.916028 -0.059469 -0.306257 20 23 27 0 0
-0.593679 -0.212100 -0.759452 53 55 50 2 6
-0.863341 -0.079423 -0.395105 19 22 25 0 0
-0.855210 -0.063822 -0.391874 32 33 38 0 0
-0.856888 -0.065604 -0.376051 31 34 37 0 0
-0.861440 -0.051942 -0.383839 33 35 40 0 0
-0.862486 -0.076646 -0.364940 19 24 25 0 0
-0.707785 -0.380278 -0.354802 43 45 47 5 4
-0.707375 -0.393944 -0.348168 38 37 41 5 4
-0.710699 -0.389209 -0.338105 16 16 19 5 4
-0.705943 -0.397395 -0.366858 47 47 51 5 4
-0.706919 -0.391172 -0.372787 47 48 51 5 4
-0.494045 -0.668033 -0.298317 34 40 53 5 3
-0.494919 -0.644623 -0.298355 20 25 32 5 3
-0.475588 -0.659216 -0.285937 34 43 54 5 3
-0.499406 -0.635395 -0.305851 31 30 33 5 3
-0.463381 -0.670048 -0.282773 28 36 45 5 3
-1.046078 -0.041386 -0.292688 40 35 36 0 0
-1.055806 -0.045075 -0.296070 36 32 35 0 0
-0.852974 -0.065961 -0.481676 36 39 42 0 0
-0.853240 -0.074425 -0.481402 28 31 34 14 7
-0.852528 -0.073934 -0.465379 25 29 31 0 0
-0.856223 -0.060896 -0.491058 32 36 37 0 0
-0.876318 -0.130398 -0.387895 19 22 23 0 0
-0.878791 -0.135040 -0.371547 17 19 23 0 0
-0.876347 -0.134565 -0.379537 16 19 22 0 0
-0.880099 -0.151567 -0.394453 13 19 19 0 0
-0.849707 -0.064313 -0.574121 34 35 38 0 0
-0.848459 -0.066834 -0.558402 31 32 33 0 0
-0.906918 -0.158292 -0.369177 14 18 21 0 0
-0.890833 -0.141536 -0.362913 12 15 18 0 0
-0.894446 -0.150475 -0.381063 13 18 19 0 0
-0.875068 -0.150811 -0.403904 19 23 24 0 0
-0.882509 -0.130994 -0.410152 23 24 26 0 0
-0.877606 -0.145900 -0.413656 21 24 25 0 0
-0.734017 -0.219744 -0.756580 32 31 34 2 6
-0.744558 -0.211023 -0.755553 31 32 30 2 6
-0.799421 -0.324634 -0.298723 15 12 17 5 4
-0.762363 -0.485002 -0.351840 15 16 18 5 4
-0.833981 -0.329575 -0.653691 35 35 37 5 4
-0.861880 -0.079740 -0.616192 15 17 19 14 7
-0.847964 -0.078894 -0.619326 17 20 21 14 7
-0.857338 -0.082906 -0.599066 20 21 23 14 7
-0.848890 -0.079559 -0.603272 20 22 24 14 7
-0.912601 -0.021512 -0.707232 28 31 32 14 7
-0.911017 -0.022703 -0.688107 28 30 33 14 7
-0.925377 -0.018185 -0.449386 26 28 30 0 0
-0.929586 -0.013758 -0.430227 28 29 33 0 0
-0.782511 -0.282014 -0.750362 17 18 20 5 4
-0.805881 0.010142 -0.753646 34 35 33 2 6
-0.765287 -0.301012 -0.654846 28 28 31 5 4
-0.775126 -0.309301 -0.649776 35 35 38 5 4
-0.872198 -0.081751 -0.550416 17 18 20 14 7
-0.822347 -0.304990 -0.360276 36 25 29 5 4
-0.809460 -0.311239 -0.355256 35 25 28 5 4
-0.916465 -0.147069 -0.450763 19 21 25 0 0
-0.910031 -0.164676 -0.460572 23 22 24 0 0
-0.924587 -0.136927 -0.454174 16 18 21 0 0
-0.924829 -0.145529 -0.458050 20 20 24 0 0
-0.659630 -0.084585 -0.752751 33 37 37 2 6
-0.645487 -0.082542 -0.753434 34 38 36 2 6
-0.829204 -0.036347 -0.754367 38 41 38 2 6
-0.847809 -0.194121 -0.754131 39 42 39 2 6
-0.843806 -0.174045 -0.756146 37 38 35 2 6
-0.912743 -0.070160 -0.748105 16 19 18 2 6
-0.922176 -0.073840 -0.751392 18 21 20 2 6
-0.909242 -0.188502 -0.389338 33 36 39 0 0
-0.913853 -0.181281 -0.381145 56 57 60 0 0
-0.925167 -0.173278 -0.381788 58 57 58 0 0
-0.784105 -0.324263 -0.377550 64 60 62 5 4
-0.790449 -0.311450 -0.395012 11 12 16 0 0
-0.793765 -0.318881 -0.394955 46 48 51 0 0
-0.791676 -0.311926 -0.383718 67 66 67 5 4
-0.789703 -0.305138 -0.394904 35 37 38 5 4
-0.784750 -0.323501 -0.385659 45 46 48 5 4
-0.804411 -0.303836 -0.385571 65 66 66 0 0
-0.850424 -0.080885 -0.566877 24 28 29 14 7
-0.857253 -0.082558 -0.542145 17 19 22 14 7
-0.847716 -0.076479 -0.554892 24 28 29 0 0
-0.848385 -0.078735 -0.532122 26 27 30 0 0
-0.881111 -0.162816 -0.314023 19 20 24 5 4
-0.908627 -0.167953 -0.341899 25 25 29 5 4
-0.895857 -0.171996 -0.326521 29 29 32 5 4
-0.491705 -0.716994 -0.296737 39 43 54 5 3
-0.493109 -0.704359 -0.298178 40 46 55 5 3
-0.465856 -0.723288 -0.283648 35 39 50 5 3
-0.477653 -0.727904 -0.287979 39 41 48 5 3
-0.753806 -0.441101 -0.396612 18 19 21 5 4
-0.749321 -0.425450 -0.397516 27 27 28 5 4
-0.672710 -0.117246 -0.755993 20 23 22 2 6
-0.765444 -0.341652 -0.304118 22 16 19 5 4
-0.847047 -0.079785 -0.585384 21 23 25 0 0
-0.856383 -0.082951 -0.580288 16 19 21 14 7
-0.510014 -0.737305 -0.308753 15 15 15 5 3
-0.847772 -0.204745 -0.437014 13 14 18 0 0
-0.864110 -0.199467 -0.455948 24 24 29 0 0
-0.862498 -0.188519 -0.453054 24 26 30 0 0
-0.809638 -0.262313 -0.426924 22 26 25 0 0
-0.816361 -0.272676 -0.429848 10 11 13 0 0
-0.802064 -0.281056 -0.419995 13 15 16 0 0
-0.795511 -0.280171 -0.411098 13 15 16 0 0
-0.800781 -0.271986 -0.418952 21 25 27 0 0
-0.792051 -0.301216 -0.403625 13 16 17 0 0
-0.795910 -0.283920 -0.406021 11 14 15 0 0
-0.880187 -0.083083 -0.484181 41 41 43 14 7
-0.876148 -0.082331 -0.500901 16 17 19 14 7
-0.910466 -0.021125 -0.423294 26 29 34 0 0
-0.904173 -0.019869 -0.426237 33 37 40 0 0
-0.896344 -0.024569 -0.418507 34 38 43 0 0
-0.920036 -0.017166 -0.406938 36 35 35 0 0
-0.913537 -0.018731 -0.405459 26 29 33 0 0
-0.856769 -0.062124 -0.362953 33 34 40 0 0
-0.863039 -0.050845 -0.350215 31 34 38 0 0
-0.857351 -0.062471 -0.341817 25 29 30 0 0
-0.781651 -0.203784 -0.751242 36 36 34 2 6
-0.842875 -0.261670 -0.310409 26 30 31 5 4
-0.836476 -0.272678 -0.327078 27 27 31 5 4
-0.843938 -0.265434 -0.320682 27 29 33 5 4
-0.841340 -0.249954 -0.337027 30 33 37 5 4
-0.850477 -0.240817 -0.323736 29 32 35 5 4
-0.769599 -0.492608 -0.402923 11 14 15 5 4
-0.914589 -0.057618 -0.457726 35 36 37 14 7
-0.921572 -0.056137 -0.443467 29 30 33 14 7
-0.678677 -0.166486 -0.760475 25 26 24 2 6
-0.692814 -0.179555 -0.760074 40 39 36 2 6
-0.900287 -0.032920 -0.305036 16 18 20 0 0
-0.900578 -0.029536 -0.316828 16 18 19 0 0
-0.907304 -0.019398 -0.332094 16 19 22 0 0
-0.897114 -0.028230 -0.482049 28 32 34 0 0
-0.718374 -0.396866 -0.310479 28 18 23 5 4
-0.893144 -0.172907 -0.400663 12 15 18 0 0
-0.877467 -0.168606 -0.411906 15 17 19 0 0
-0.876848 -0.163569 -0.409418 18 19 22 0 0
-0.906070 -0.180673 -0.400656 18 20 24 0 0
-0.863693 -0.229579 -0.424883 11 12 15 0 0
-0.879763 -0.209803 -0.424513 10 11 15 0 0
-0.880469 -0.228310 -0.422588 48 48 49 0 0
-0.862005 -0.248954 -0.417629 45 46 47 0 0
-0.875182 -0.247367 -0.416005 56 54 56 0 0
-0.594757 -0.168027 -0.756957 23 24 25 2 6
-0.467644 -0.770402 -0.288503 17 18 23 5 3
-0.939267 -0.056245 -0.397817 39 39 42 14 7
-0.909956 -0.211191 -0.425478 29 30 32 0 0
-0.915767 -0.203203 -0.419309 37 40 43 0 0
-0.900122 -0.209011 -0.412982 37 40 43 0 0
-0.748946 -0.463864 -0.344360 14 16 19 5 4
-0.745726 -0.464506 -0.359262 16 17 19 5 4
-0.828338 -0.236049 -0.427945 10 12 15 0 0
-0.847209 -0.253170 -0.416387 11 13 16 0 0
-0.835561 -0.235981 -0.424168 10 11 15 0 0
-0.835910 -0.265481 -0.431633 33 32 35 0 0
-0.740717 -0.388874 -0.407658 24 17 20 5 4
-0.925120 -0.077840 -0.303636 19 23 30 0 0
-0.726283 -0.148539 -0.757294 21 22 22 2 6
-0.731434 -0.165214 -0.759618 35 37 34 2 6
-0.719624 -0.390909 -0.297940 33 30 33 5 4
-0.714480 -0.378562 -0.316494 32 29 32 5 4
-0.726149 -0.403186 -0.288837 35 25 30 5 4
-0.861289 -0.223478 -0.336691 38 42 43 5 4
-0.847146 -0.232619 -0.312661 25 29 32 5 4
-0.841269 -0.222589 -0.305526 25 30 33 5 4
-0.845589 -0.210178 -0.305611 21 25 27 5 4
-0.867166 -0.210113 -0.325015 25 28 31 5 4
-0.854747 -0.232478 -0.330940 32 36 38 5 4
-0.905603 -0.039142 -0.726649 19 20 22 14 7
-0.912057 -0.031201 -0.733645 23 25 26 14 7
-0.907582 -0.047801 -0.733166 17 18 20 2 6
-0.924239 -0.015369 -0.567153 24 23 27 0 0
-0.923666 -0.022406 -0.581845 23 24 26 14 7
-0.930207 -0.020094 -0.580350 44 45 45 14 7
-0.920748 -0.029191 -0.569557 25 26 27 14 7
-0.931622 -0.014146 -0.571976 23 23 26 0 0
-0.934458 -0.022290 -0.564272 46 46 46 14 7
-0.761435 -0.288586 -0.721672 16 16 18 5 4
-0.932670 -0.102502 -0.284315 21 25 35 0 0
-0.890891 -0.128669 -0.425166 24 26 26 0 0
-0.851973 -0.070902 -0.497676 32 35 35 0 0
-0.859462 -0.055981 -0.512890 36 41 41 0 0
-0.849570 -0.072514 -0.515094 32 37 38 0 0
-0.778950 -0.162165 -0.757483 23 26 25 2 6
-0.785585 -0.182664 -0.757369 32 32 31 2 6
-0.796098 -0.162624 -0.757169 22 24 26 2 6
-0.873575 -0.036430 -0.381115 36 40 44 0 0
-0.876796 -0.034977 -0.365847 39 43 46 0 0
-0.717847 -0.027903 -0.753500 30 32 31 2 6
-0.745103 -0.196462 -0.757221 35 36 32 2 6
-0.759350 -0.202352 -0.756055 36 37 33 2 6
-0.486908 -0.733003 -0.293043 33 34 37 5 3
-0.840434 -0.072321 -0.744805 36 38 37 2 6
-0.843988 -0.062152 -0.742162 30 32 32 2 6
-0.826963 -0.067744 -0.752757 25 26 28 2 6
-0.832349 -0.055235 -0.753163 32 34 35 2 6
-0.850876 -0.045823 -0.743344 41 44 43 2 6
-0.920255 -0.020127 -0.521215 26 28 30 0 0
-0.912864 -0.023882 -0.504411 23 26 28 0 0
-0.909973 -0.024499 -0.517998 36 35 37 0 0
-0.754186 -0.463354 -0.323967 15 16 18 5 4
-0.762235 -0.475263 -0.314997 16 17 19 5 4
-0.764268 -0.483804 -0.334589 16 17 19 5 4
-0.721896 -0.242693 -0.746624 27 27 29 2 6
-0.711572 -0.374113 -0.360096 47 50 51 5 4
-0.805662 -0.310132 -0.404451 11 12 16 0 0
-0.879538 -0.083156 -0.462662 18 18 21 14 7
-0.887487 -0.081252 -0.450348 31 33 34 14 7
-0.903365 -0.067944 -0.455359 22 25 26 14 7
-0.896056 -0.076638 -0.448583 28 30 31 14 7
-0.966231 -0.034936 -0.298211 24 27 34 0 0
-0.968251 -0.022391 -0.299688 23 25 32 0 0
-0.912198 -0.056047 -0.472564 27 28 30 14 7
-0.917487 -0.047889 -0.487913 61 63 62 14 7
-0.809872 -0.317718 -0.296346 18 15 20 5 4
-0.804626 -0.321253 -0.296887 16 14 20 5 4
-0.813941 -0.313802 -0.279408 13 11 17 5 4
-0.806172 -0.319469 -0.275858 15 14 19 5 4
-0.751545 -0.348679 -0.377631 22 22 26 5 4
-0.759228 -0.359705 -0.401726 33 33 37 5 4
-0.737229 -0.367394 -0.393330 27 25 30 5 4
-0.748673 -0.356665 -0.388615 44 36 40 5 4
-0.722682 -0.375479 -0.383577 45 47 49 5 4
-0.761711 -0.354355 -0.389636 33 27 32 5 4
-0.721042 -0.248970 -0.734528 23 24 27 5 4
-0.712894 -0.259878 -0.730141 10 10 11 5 4
-0.926682 -0.050514 -0.739244 16 17 18 2 6
-0.922727 -0.043434 -0.739356 17 17 18 2 6
-0.945274 -0.041850 -0.740712 15 16 18 2 6
-0.925933 -0.031096 -0.739042 23 23 25 2 6
-0.853366 -0.080796 -0.523086 19 23 25 14 7
-0.856689 -0.083490 -0.503531 20 24 25 14 7
-0.862206 -0.084362 -0.484205 17 20 21 14 7
-0.869603 -0.085349 -0.475621 18 21 22 14 7
-0.860284 -0.085767 -0.491189 26 27 29 14 7
-0.913544 -0.156154 -0.357993 20 21 25 0 0
-0.910444 -0.161254 -0.348297 26 27 31 5 4
-0.899138 -0.146873 -0.342312 11 14 18 0 0
-0.905691 -0.151525 -0.345250 14 15 18 0 0
-0.905742 -0.157633 -0.338982 31 33 36 5 4
-0.903454 -0.151566 -0.355480 17 21 23 0 0
-0.730416 -0.273213 -0.666852 35 34 31 5 4
-0.749142 -0.259835 -0.682441 34 33 31 5 4
-0.738245 -0.250919 -0.687470 36 35 32 5 4
-0.832917 -0.124259 -0.288034 18 20 24 0 0
-0.832885 -0.123147 -0.298342 13 14 18 0 0
-0.830994 -0.138508 -0.284218 18 21 25 0 0
-0.842071 -0.109271 -0.299002 15 18 22 0 0
-0.904661 -0.017743 -0.381508 23 25 29 0 0
-0.918553 -0.015616 -0.376107 21 21 25 0 0
-0.915345 -0.017886 -0.390121 27 29 33 0 0
-0.644755 -0.012850 -0.751817 28 30 29 2 6
-0.781635 -0.472814 -0.415112 26 27 29 5 4
-0.787723 -0.465952 -0.415848 18 19 21 5 4
-0.765861 -0.474052 -0.402584 18 20 22 5 4
-0.858773 -0.064213 -0.675362 23 27 28 0 0
-0.862111 -0.056220 -0.681424 23 26 28 0 0
-0.862384 -0.063788 -0.687895 23 26 28 2 6
-0.865010 -0.065800 -0.679107 24 27 29 14 7
-0.853363 -0.057355 -0.655532 28 31 36 0 0
-0.856369 -0.069151 -0.665340 21 25 26 14 7
-0.870229 -0.072809 -0.648217 21 24 25 14 7
-0.871430 -0.041507 -0.714112 27 28 31 2 6
-0.876912 -0.037420 -0.696948 29 31 34 2 6
-0.972701 -0.043706 -0.302812 23 26 36 0 0
-0.946981 -0.061066 -0.311435 19 23 31 0 0
-0.964241 -0.049222 -0.310654 20 25 32 0 0
-0.856877 -0.260095 -0.411034 73 75 76 0 0
-0.860268 -0.271783 -0.411160 56 58 57 0 0
-0.863072 -0.257486 -0.410102 38 37 39 0 0
-0.871416 -0.266014 -0.417356 40 38 41 0 0
-0.774289 -0.508857 -0.404741 12 13 15 5 4
-0.775413 -0.525398 -0.403641 12 13 15 5 4
-0.799814 -0.507777 -0.425048 29 29 32 5 4
-0.807552 -0.492446 -0.424522 24 24 26 5 4
-0.789724 -0.506389 -0.418095 22 22 26 5 4
-0.761412 0.004878 -0.753488 33 36 34 2 6
-0.772985 -0.010855 -0.754497 37 37 36 2 6
-0.851087 -0.239697 -0.345384 47 46 49 5 4
-0.901605 -0.032608 -0.692632 32 35 35 14 7
-0.909094 -0.030274 -0.681494 40 41 41 14 7
-0.888588 -0.053126 -0.675739 20 22 24 14 7
-0.890444 -0.051368 -0.697626 20 22 24 14 7
-0.895379 -0.039859 -0.681170 25 29 30 14 7
-0.897237 -0.028051 -0.683657 28 30 32 2 6
-0.912158 -0.024102 -0.660320 32 33 33 14 7
-0.896272 -0.028161 -0.661436 28 30 31 2 6
-0.894611 -0.046065 -0.656031 45 46 44 14 7
-0.902934 -0.037973 -0.666005 22 22 22 14 7
-0.913662 -0.064068 -0.435838 31 31 34 14 7
-0.925505 -0.064140 -0.402792 55 57 58 14 7
-0.922774 -0.057552 -0.421604 58 61 62 14 7
-0.928078 -0.050989 -0.429202 61 63 64 14 7
-0.850511 -0.142189 -0.756724 19 22 23 2 6
-0.822346 -0.156201 -0.756065 20 23 24 2 6
-0.813491 -0.338142 -0.664276 29 29 32 5 4
-0.796858 -0.522382 -0.294941 15 16 18 5 4
-0.796711 -0.516008 -0.276652 16 17 19 5 4
-0.805877 -0.532028 -0.286108 16 17 19 5 4
-0.894149 -0.074131 -0.490968 46 47 49 14 7
-0.905132 -0.062935 -0.499851 41 41 43 14 7
-0.908395 -0.060757 -0.486745 38 38 38 14 7
-0.895557 -0.073882 -0.470415 44 48 47 14 7
-0.906499 -0.062541 -0.462970 24 25 27 14 7
-0.951406 -0.030222 -0.743944 15 16 18 2 6
-0.778861 -0.519576 -0.369730 15 16 18 5 4
-0.789116 -0.531080 -0.350914 14 15 17 5 4
-0.793701 -0.543374 -0.367414 15 16 18 5 4
-0.869107 -0.085039 -0.378807 17 18 22 0 0
-0.872376 -0.092299 -0.360718 15 17 21 0 0
-0.905782 -0.057587 -0.732450 15 16 17 2 6
-0.875994 -0.080220 -0.744120 16 18 18 2 6
-0.905001 -0.067440 -0.743508 15 18 17 2 6
-0.788048 -0.296540 -0.714067 20 20 22 5 4
-0.780215 -0.306380 -0.698491 21 21 23 5 4
-0.796124 -0.299802 -0.715721 18 18 19 5 4
-0.768374 -0.311201 -0.684341 20 20 22 5 4
-0.791553 -0.304727 -0.706822 20 21 22 5 4
-0.788350 -0.307685 -0.701500 22 22 24 5 4
-0.743518 -0.296641 -0.705163 15 15 17 5 4
-0.740591 -0.299634 -0.697080 15 15 17 5 4
-0.724007 -0.300642 -0.691787 18 18 20 5 4
-0.873144 -0.225002 -0.360947 41 42 45 5 4
-0.894050 -0.195280 -0.359423 39 41 45 5 4
-0.887057 -0.222298 -0.363981 32 29 33 5 4
-0.889763 -0.208304 -0.359828 47 45 48 5 4
-0.877256 -0.212913 -0.349355 33 35 38 5 4
-0.870216 -0.210498 -0.338113 42 43 46 5 4
-0.609223 -0.216097 -0.758690 45 45 42 2 6
-0.915277 -0.017317 -0.486872 25 28 29 0 0
-0.754997 -0.339237 -0.353756 33 36 39 5 4
-0.754367 -0.338096 -0.333681 49 48 48 5 4
-0.747329 -0.342374 -0.359058 24 28 31 5 4
-0.763785 -0.333730 -0.365508 30 33 36 5 4
-0.881532 -0.031168 -0.424011 38 44 48 0 0
-0.872758 -0.039693 -0.436797 38 43 45 0 0
-0.877383 -0.034618 -0.401455 36 40 44 0 0
-0.782811 -0.533071 -0.380695 14 15 17 5 4
-0.783217 -0.541928 -0.395249 13 15 17 5 4
-0.788435 -0.542118 -0.383586 13 15 17 5 4
-0.819411 -0.236150 -0.275083 14 18 21 5 4
-0.807262 -0.536865 -0.304078 16 16 18 5 4
-0.488693 -0.697765 -0.294977 42 50 63 5 3
-0.497487 -0.676693 -0.302586 49 48 51 5 3
-0.455279 -0.697879 -0.284555 40 48 64 5 3
-0.469915 -0.691714 -0.284505 35 41 53 5 3
-0.479696 -0.689292 -0.289090 39 44 55 5 3
-0.486553 -0.677035 -0.292702 27 33 41 5 3
-0.734754 -0.380555 -0.402651 28 26 29 5 4
-0.883314 -0.086257 -0.432660 18 21 23 14 7
-0.884823 -0.086704 -0.419652 21 24 27 14 7
-0.891113 -0.083860 -0.422987 22 25 27 14 7
-0.874672 -0.085005 -0.404374 18 21 23 0 0
-0.887086 -0.093167 -0.409539 21 24 27 14 7
-0.881562 -0.096684 -0.404402 20 24 26 0 0
-0.897192 -0.092207 -0.392411 19 23 25 0 0
-0.711433 -0.294998 -0.690455 18 18 20 5 4
-0.730620 -0.305231 -0.679522 21 21 23 5 4
-0.734342 -0.306377 -0.668665 24 25 27 5 4
-0.742796 -0.296840 -0.662381 32 31 34 5 4
-0.713492 -0.293228 -0.680161 23 21 25 5 4
-0.716196 -0.285271 -0.669774 31 31 33 5 4
-0.720336 -0.278600 -0.664811 33 33 34 5 4
-0.719970 -0.286144 -0.663132 27 27 29 5 4
-0.719616 -0.298239 -0.672117 25 25 27 5 4
-0.737595 -0.287469 -0.656281 34 35 34 5 4
-0.724084 -0.295872 -0.663949 28 29 31 5 4
-0.759268 -0.423540 -0.401775 28 29 30 5 4
-0.864928 -0.081040 -0.444901 19 23 24 0 0
-0.853857 -0.065107 -0.446458 31 33 36 0 0
-0.860887 -0.052426 -0.465367 32 34 37 0 0
-0.861552 -0.080462 -0.456185 20 23 26 14 7
-0.854203 -0.070632 -0.445419 31 33 33 0 0
-0.860930 -0.055350 -0.432953 41 43 41 0 0
-0.857329 -0.062612 -0.425202 34 36 34 0 0
-0.903540 -0.027761 -0.590513 29 30 32 0 0
-0.909250 -0.047989 -0.562385 42 41 42 14 7
-0.905453 -0.046308 -0.588359 53 54 54 14 7
-0.906567 -0.052489 -0.563753 51 52 51 14 7
-0.899189 -0.055720 -0.584808 39 39 39 14 7
-0.916736 -0.034421 -0.588048 22 23 25 14 7
-0.699580 -0.147396 -0.758021 24 26 26 2 6
-0.711164 -0.102849 -0.754367 23 25 24 2 6
-0.707039 -0.123575 -0.754982 23 25 24 2 6
-0.937632 -0.086929 -0.416734 25 25 29 0 0
-0.947266 -0.083687 -0.413927 24 23 27 0 0
-0.740795 -0.077443 -0.755002 33 35 31 2 6
-0.765214 -0.065187 -0.754277 35 37 34 2 6
-0.833945 -0.285314 -0.292897 14 14 21 5 4
-0.823421 -0.282892 -0.274626 14 15 21 5 4
-0.827122 -0.302524 -0.275492 14 13 18 5 4
-0.820738 -0.311053 -0.298344 12 11 15 5 4
-0.832124 -0.298300 -0.292634 14 14 19 5 4
-0.900491 -0.114268 -0.755553 19 22 21 2 6
-0.842953 -0.207188 -0.757087 43 43 44 2 6
-0.834660 -0.215203 -0.758551 27 27 29 2 6
-1.029931 -0.057390 -0.291698 34 33 39 0 0
-1.027186 -0.047814 -0.292282 38 35 37 0 0
-1.023412 -0.038441 -0.288303 24 25 36 0 0
-1.017061 -0.054323 -0.293251 30 30 34 0 0
-0.866389 -0.076270 -0.734855 17 20 21 2 6
-0.853434 -0.061675 -0.725729 23 26 26 2 6
-0.859342 -0.045232 -0.732498 25 29 28 2 6
-0.878541 -0.048411 -0.312842 17 18 20 0 0
-0.894417 -0.067956 -0.300058 18 20 24 0 0
-0.880652 -0.082743 -0.296463 16 18 23 0 0
-0.878347 -0.061286 -0.299522 18 18 21 0 0
-0.881531 -0.067388 -0.298788 19 19 22 0 0
-0.895648 -0.051620 -0.290973 20 20 24 0 0
-0.794474 -0.304367 -0.660067 38 38 42 5 4
-0.794333 -0.315796 -0.652992 34 33 36 5 4
-0.889246 -0.025921 -0.374717 31 34 39 0 0
-0.914333 -0.087551 -0.391162 47 47 47 0 0
-0.907570 -0.074218 -0.396119 56 56 59 14 7
-0.925105 -0.077573 -0.388797 49 49 52 0 0
-0.904978 -0.084662 -0.390776 51 53 53 14 7
-0.911040 -0.091786 -0.400999 31 34 36 0 0
-0.935844 -0.076461 -0.390489 39 38 40 0 0
-0.926855 -0.081328 -0.398816 50 50 53 0 0
-0.929930 -0.063239 -0.390691 53 55 56 14 7
-0.931892 -0.070047 -0.380942 33 34 35 14 7
-0.925795 -0.068692 -0.395100 58 60 61 14 7
-0.809104 -0.481145 -0.420707 36 35 39 5 4
-0.791811 -0.493289 -0.422442 21 24 24 5 4
-0.800392 -0.475985 -0.419659 21 22 25 5 4
-0.802876 -0.467551 -0.417068 33 33 37 5 4
-0.886793 -0.151843 -0.447466 32 35 39 0 0
-0.918355 -0.118000 -0.433423 22 24 26 0 0
-0.920842 -0.131291 -0.444808 27 29 31 0 0
-0.905407 -0.141815 -0.447558 33 38 41 0 0
-0.500190 -0.642693 -0.312378 27 28 25 5 3
-0.500418 -0.625544 -0.310050 34 34 35 5 3
-0.898693 -0.063563 -0.527400 28 28 28 14 7
-0.889600 -0.071772 -0.542744 28 31 32 14 7
-0.901409 -0.058288 -0.542454 46 47 46 14 7
-0.872680 -0.081602 -0.536103 14 17 18 14 7
-0.926241 -0.026773 -0.555781 35 35 37 14 7
-0.845513 -0.040729 -0.749448 33 36 36 2 6
-0.860355 -0.022167 -0.748685 31 35 35 2 6
-0.877859 -0.029438 -0.730344 27 30 29 2 6
