ply
format ascii 1.0
element vertex 1071
property float x
property float y
property float z
property uchar red
property uchar green
property uchar blue
property uchar semantic_label
property uchar instance_label
end_header
0.222582 0.430471 -0.204721 255 125 0 57 11
0.182726 0.307229 -0.244721 255 125 0 57 11
0.136145 0.285961 -0.201161 255 125 0 57 11
0.212715 0.438823 -0.162721 255 125 0 57 11
0.149991 0.353992 -0.127480 255 125 0 57 11
0.205522 0.328223 -0.226721 255 125 0 57 11
0.092149 0.354315 -0.182721 255 125 0 57 11
0.203138 0.341452 -0.120721 255 125 0 57 11
0.092700 0.358401 -0.218721 255 125 0 57 11
0.155150 0.293973 -0.240721 255 125 0 57 11
0.196490 0.374007 -0.118721 255 125 0 57 11
0.093983 0.346847 -0.240721 255 125 0 57 11
0.132459 0.295704 -0.120721 255 125 0 57 11
0.144549 0.284780 -0.233139 255 125 0 57 11
0.136760 0.295114 -0.146721 255 125 0 57 11
0.202759 0.337139 -0.244721 255 125 0 57 11
0.162046 0.350555 -0.120721 255 125 0 57 11
0.201248 0.428873 -0.214721 255 125 0 57 11
0.203012 0.360067 -0.178721 255 125 0 57 11
0.091628 0.374947 -0.200721 255 125 0 57 11
0.121354 0.282327 -0.237604 255 125 0 57 11
0.085648 0.333053 -0.170721 255 125 0 57 11
0.136729 0.295156 -0.200721 255 125 0 57 11
0.092164 0.332955 -0.120721 255 125 0 57 11
0.204384 0.358246 -0.218721 255 125 0 57 11
0.200665 0.409708 -0.113863 255 125 0 57 11
0.203770 0.326903 -0.216721 255 125 0 57 11
0.112927 0.293508 -0.215986 255 125 0 57 11
0.144313 0.344909 -0.122721 255 125 0 57 11
0.213443 0.419337 -0.208195 255 125 0 57 11
0.088000 0.366468 -0.220721 255 125 0 57 11
0.115479 0.403114 -0.112063 255 125 0 57 11
0.093561 0.364060 -0.184721 255 125 0 57 11
0.122850 0.288464 -0.232721 255 125 0 57 11
0.092919 0.359940 -0.170721 255 125 0 57 11
0.130178 0.287232 -0.152721 255 125 0 57 11
0.109626 0.296028 -0.166721 255 125 0 57 11
0.157213 0.344408 -0.127441 255 125 0 57 11
0.100475 0.316680 -0.173920 255 125 0 57 11
0.201622 0.340310 -0.212721 255 125 0 57 11
0.206969 0.338198 -0.188721 255 125 0 57 11
0.221232 0.438909 -0.190721 255 125 0 57 11
0.102307 0.390683 -0.228939 255 125 0 57 11
0.088942 0.322016 -0.150721 255 125 0 57 11
0.177266 0.336981 -0.124721 255 125 0 57 11
0.197258 0.324499 -0.245706 255 125 0 57 11
0.086441 0.331147 -0.138721 255 125 0 57 11
0.162073 0.288110 -0.158721 255 125 0 57 11
0.101851 0.382828 -0.200721 255 125 0 57 11
0.169234 0.293365 -0.112721 255 125 0 57 11
0.150543 0.286794 -0.243179 255 125 0 57 11
0.170114 0.306549 -0.122721 255 125 0 57 11
0.200036 0.334106 -0.127569 255 125 0 57 11
0.115109 0.390314 -0.127702 255 125 0 57 11
0.161956 0.290385 -0.244721 255 125 0 57 11
0.202625 0.358596 -0.120721 255 125 0 57 11
0.117886 0.399920 -0.127522 255 125 0 57 11
0.088758 0.322259 -0.240721 255 125 0 57 11
0.152335 0.294385 -0.216721 255 125 0 57 11
0.196490 0.323920 -0.216721 255 125 0 57 11
0.196669 0.325282 -0.138721 255 125 0 57 11
0.090222 0.373490 -0.162721 255 125 0 57 11
0.196705 0.391699 -0.127720 255 125 0 57 11
0.196476 0.323911 -0.228721 255 125 0 57 11
0.132889 0.363393 -0.118721 255 125 0 57 11
0.162095 0.308020 -0.124859 255 125 0 57 11
0.186887 0.311676 -0.123295 255 125 0 57 11
0.176122 0.296052 -0.111887 255 125 0 57 11
0.182711 0.307247 -0.218721 255 125 0 57 11
0.098461 0.322675 -0.245635 255 125 0 57 11
0.161667 0.411609 -0.120721 255 125 0 57 11
0.124125 0.408258 -0.120721 255 125 0 57 11
0.120672 0.289327 -0.186721 255 125 0 57 11
0.207136 0.347947 -0.168721 255 125 0 57 11
0.131891 0.397951 -0.127621 255 125 0 57 11
0.135604 0.285553 -0.120721 255 125 0 57 11
0.100638 0.386253 -0.188721 255 125 0 57 11
0.155159 0.293960 -0.128721 255 125 0 57 11
0.128136 0.289943 -0.111782 255 125 0 57 11
0.195131 0.380495 -0.111800 255 125 0 57 11
0.092800 0.326865 -0.114721 255 125 0 57 11
0.119127 0.301897 -0.122721 255 125 0 57 11
0.084495 0.352219 -0.118721 255 125 0 57 11
0.201633 0.335309 -0.151758 255 125 0 57 11
0.085103 0.343725 -0.194721 255 125 0 57 11
0.091583 0.318510 -0.196721 255 125 0 57 11
0.201171 0.362509 -0.127570 255 125 0 57 11
0.206799 0.406817 -0.122721 255 125 0 57 11
0.190949 0.304720 -0.224721 255 125 0 57 11
0.204004 0.418568 -0.136721 255 125 0 57 11
0.121633 0.290051 -0.164721 255 125 0 57 11
0.198000 0.350101 -0.123770 255 125 0 57 11
0.089135 0.323160 -0.190721 255 125 0 57 11
0.127744 0.287140 -0.218721 255 125 0 57 11
0.179945 0.374060 -0.124039 255 125 0 57 11
0.087597 0.330447 -0.200721 255 125 0 57 11
0.085520 0.355496 -0.190721 255 125 0 57 11
0.101230 0.317248 -0.140721 255 125 0 57 11
0.201475 0.322670 -0.110721 255 125 0 57 11
0.194203 0.307172 -0.230721 255 125 0 57 11
0.181578 0.325205 -0.124721 255 125 0 57 11
0.085199 0.350245 -0.171403 255 125 0 57 11
0.199363 0.315060 -0.238721 255 125 0 57 11
0.187216 0.301907 -0.116721 255 125 0 57 11
0.124346 0.298297 -0.204721 255 125 0 57 11
0.172769 0.363644 -0.123724 255 125 0 57 11
0.142186 0.267975 -0.232348 255 125 0 57 11
0.086032 0.335847 -0.183181 255 125 0 57 11
0.106290 0.312287 -0.162721 255 125 0 57 11
0.198485 0.327929 -0.222721 255 125 0 57 11
0.085580 0.353062 -0.202721 255 125 0 57 11
0.189161 0.311981 -0.228721 255 125 0 57 11
0.173509 0.302843 -0.154721 255 125 0 57 11
0.145148 0.293952 -0.124721 255 125 0 57 11
0.165571 0.296760 -0.236721 255 125 0 57 11
0.095322 0.366721 -0.208721 255 125 0 57 11
0.092667 0.358377 -0.140721 255 125 0 57 11
0.088670 0.368903 -0.140721 255 125 0 57 11
0.189154 0.311992 -0.170721 255 125 0 57 11
0.219590 0.427795 -0.190721 255 125 0 57 11
0.111721 0.401455 -0.120721 255 125 0 57 11
0.188684 0.400680 -0.124721 255 125 0 57 11
0.205279 0.333048 -0.200721 255 125 0 57 11
0.136230 0.285848 -0.140721 255 125 0 57 11
0.221211 0.438937 -0.160721 255 125 0 57 11
0.120543 0.290049 -0.218721 255 125 0 57 11
0.208532 0.343013 -0.116721 255 125 0 57 11
0.084802 0.339928 -0.156721 255 125 0 57 11
0.105108 0.390291 -0.247679 255 125 0 57 11
0.112091 0.394317 -0.168721 255 125 0 57 11
0.102211 0.390812 -0.162721 255 125 0 57 11
0.135310 0.295349 -0.160721 255 125 0 57 11
0.095193 0.335238 -0.238721 255 125 0 57 11
0.091611 0.345060 -0.247684 255 125 0 57 11
0.086841 0.331449 -0.212511 255 125 0 57 11
0.097515 0.387073 -0.126963 255 125 0 57 11
0.201620 0.335327 -0.112721 255 125 0 57 11
0.092744 0.358436 -0.128721 255 125 0 57 11
0.209412 0.436334 -0.202721 255 125 0 57 11
0.087211 0.329223 -0.164721 255 125 0 57 11
0.097697 0.307073 -0.203302 255 125 0 57 11
0.212688 0.438802 -0.170721 255 125 0 57 11
0.097285 0.384396 -0.134721 255 125 0 57 11
0.204457 0.328239 -0.144721 255 125 0 57 11
0.211241 0.412288 -0.218721 255 125 0 57 11
0.206587 0.335382 -0.160721 255 125 0 57 11
0.225411 0.433364 -0.194964 255 125 0 57 11
0.134064 0.321956 -0.127567 255 125 0 57 11
0.108416 0.395871 -0.180721 255 125 0 57 11
0.192693 0.317264 -0.152721 255 125 0 57 11
0.100402 0.321633 -0.122721 255 125 0 57 11
0.171535 0.375236 -0.116721 255 125 0 57 11
0.115213 0.292726 -0.114721 255 125 0 57 11
0.113186 0.356309 -0.121616 255 125 0 57 11
0.221476 0.425390 -0.138721 255 125 0 57 11
0.116082 0.292644 -0.138721 255 125 0 57 11
0.136816 0.285070 -0.128721 255 125 0 57 11
0.190659 0.304501 -0.236721 255 125 0 57 11
0.167147 0.297993 -0.120721 255 125 0 57 11
0.124298 0.394734 -0.127707 255 125 0 57 11
0.137875 0.403304 -0.118721 255 125 0 57 11
0.113687 0.395521 -0.116721 255 125 0 57 11
0.094980 0.333943 -0.198721 255 125 0 57 11
0.207520 0.349762 -0.160721 255 125 0 57 11
0.176289 0.398852 -0.127603 255 125 0 57 11
0.187053 0.308132 -0.114721 255 125 0 57 11
0.097020 0.327912 -0.226721 255 125 0 57 11
0.104994 0.300713 -0.192721 255 125 0 57 11
0.148864 0.285528 -0.162721 255 125 0 57 11
0.160235 0.287225 -0.168721 255 125 0 57 11
0.100430 0.336680 -0.122945 255 125 0 57 11
0.089987 0.370477 -0.214721 255 125 0 57 11
0.181702 0.305264 -0.183687 255 125 0 57 11
0.207227 0.341179 -0.130721 255 125 0 57 11
0.135015 0.353926 -0.126721 255 125 0 57 11
0.203927 0.382115 -0.121701 255 125 0 57 11
0.174063 0.322046 -0.123699 255 125 0 57 11
0.179237 0.393561 -0.116721 255 125 0 57 11
0.086796 0.361418 -0.226721 255 125 0 57 11
0.127399 0.286883 -0.198721 255 125 0 57 11
0.101854 0.321496 -0.188721 255 125 0 57 11
0.203736 0.375723 -0.114721 255 125 0 57 11
0.129026 0.341936 -0.122721 255 125 0 57 11
0.170754 0.289884 -0.196721 255 125 0 57 11
0.202026 0.338110 -0.133691 255 125 0 57 11
0.150654 0.261834 -0.238721 255 125 0 57 11
0.098856 0.325476 -0.207716 255 125 0 57 11
0.148971 0.368249 -0.122721 255 125 0 57 11
0.120490 0.301711 -0.192721 255 125 0 57 11
0.206986 0.359377 -0.236721 255 125 0 57 11
0.202859 0.323712 -0.240878 255 125 0 57 11
0.087997 0.362371 -0.160721 255 125 0 57 11
0.095832 0.382661 -0.232721 255 125 0 57 11
0.176088 0.343608 -0.120721 255 125 0 57 11
0.193446 0.394251 -0.120721 255 125 0 57 11
0.124805 0.347535 -0.121660 255 125 0 57 11
0.090393 0.319099 -0.116721 255 125 0 57 11
0.154283 0.285154 -0.224721 255 125 0 57 11
0.107171 0.390878 -0.224721 255 125 0 57 11
0.088570 0.339126 -0.118721 255 125 0 57 11
0.086574 0.328481 -0.114721 255 125 0 57 11
0.100243 0.303696 -0.166721 255 125 0 57 11
0.195525 0.383295 -0.125356 255 125 0 57 11
0.157854 0.364927 -0.122721 255 125 0 57 11
0.203201 0.351517 -0.180721 255 125 0 57 11
0.135533 0.285500 -0.208721 255 125 0 57 11
0.215899 0.419399 -0.138721 255 125 0 57 11
0.175695 0.395900 -0.110721 255 125 0 57 11
0.215434 0.423342 -0.126721 255 125 0 57 11
0.190481 0.303584 -0.174721 255 125 0 57 11
0.085604 0.335525 -0.130721 255 125 0 57 11
0.204494 0.328190 -0.136721 255 125 0 57 11
0.094458 0.324666 -0.123688 255 125 0 57 11
0.129067 0.408345 -0.111960 255 125 0 57 11
0.199302 0.315140 -0.128721 255 125 0 57 11
0.142182 0.284596 -0.152721 255 125 0 57 11
0.148424 0.322839 -0.122721 255 125 0 57 11
0.194584 0.311432 -0.242721 255 125 0 57 11
0.095409 0.310358 -0.194721 255 125 0 57 11
0.115222 0.340314 -0.116995 255 125 0 57 11
0.143117 0.386377 -0.127594 255 125 0 57 11
0.177483 0.294245 -0.188721 255 125 0 57 11
0.105505 0.300436 -0.114721 255 125 0 57 11
0.187481 0.300918 -0.132721 255 125 0 57 11
0.195479 0.403296 -0.127636 255 125 0 57 11
0.143344 0.286377 -0.112430 255 125 0 57 11
0.104215 0.391475 -0.178721 255 125 0 57 11
0.169967 0.364038 -0.116972 255 125 0 57 11
0.209901 0.369087 -0.120721 255 125 0 57 11
0.165595 0.296729 -0.194721 255 125 0 57 11
0.174810 0.291147 -0.148721 255 125 0 57 11
0.163997 0.295527 -0.154721 255 125 0 57 11
0.206380 0.358921 -0.111018 255 125 0 57 11
0.179727 0.294592 -0.174721 255 125 0 57 11
0.167118 0.288060 -0.180721 255 125 0 57 11
0.092912 0.376565 -0.176721 255 125 0 57 11
0.158119 0.295006 -0.118721 255 125 0 57 11
0.088471 0.322641 -0.126721 255 125 0 57 11
0.182966 0.296939 -0.166721 255 125 0 57 11
0.092901 0.376082 -0.150721 255 125 0 57 11
0.124361 0.298275 -0.130721 255 125 0 57 11
0.155532 0.285544 -0.114721 255 125 0 57 11
0.156477 0.293769 -0.164721 255 125 0 57 11
0.098431 0.327661 -0.170721 255 125 0 57 11
0.189765 0.304533 -0.208721 255 125 0 57 11
0.109933 0.296260 -0.138721 255 125 0 57 11
0.127935 0.287287 -0.142721 255 125 0 57 11
0.152883 0.313599 -0.124936 255 125 0 57 11
0.093475 0.313908 -0.146721 255 125 0 57 11
0.135729 0.293159 -0.113397 255 125 0 57 11
0.184642 0.298039 -0.234721 255 125 0 57 11
0.092510 0.315686 -0.212721 255 125 0 57 11
0.113207 0.346309 -0.117302 255 125 0 57 11
0.207136 0.351270 -0.188721 255 125 0 57 11
0.156306 0.335641 -0.118721 255 125 0 57 11
0.179243 0.295233 -0.136721 255 125 0 57 11
0.182837 0.297111 -0.216721 255 125 0 57 11
0.194371 0.318361 -0.160721 255 125 0 57 11
0.105639 0.333091 -0.123051 255 125 0 57 11
0.150664 0.409594 -0.127673 255 125 0 57 11
0.177977 0.360056 -0.127493 255 125 0 57 11
0.176398 0.292363 -0.208721 255 125 0 57 11
0.123995 0.351933 -0.116930 255 125 0 57 11
0.173141 0.300008 -0.192721 255 125 0 57 11
0.093908 0.336774 -0.154721 255 125 0 57 11
0.173143 0.300005 -0.224721 255 125 0 57 11
0.093164 0.341222 -0.166721 255 125 0 57 11
0.182696 0.297299 -0.144721 255 125 0 57 11
0.186750 0.371676 -0.127585 255 125 0 57 11
0.141240 0.332373 -0.127602 255 125 0 57 11
0.157954 0.370010 -0.117265 255 125 0 57 11
0.111188 0.307222 -0.202721 255 125 0 57 11
0.095168 0.335219 -0.176721 255 125 0 57 11
0.174785 0.301151 -0.160721 255 125 0 57 11
0.177972 0.303565 -0.146721 255 125 0 57 11
0.101842 0.302683 -0.146721 255 125 0 57 11
0.176340 0.302409 -0.124721 255 125 0 57 11
0.100044 0.318859 -0.152721 255 125 0 57 11
0.133162 0.366354 -0.127659 255 125 0 57 11
0.185107 0.390472 -0.127624 255 125 0 57 11
0.150741 0.293177 -0.230721 255 125 0 57 11
0.162284 0.400821 -0.127581 255 125 0 57 11
0.201684 0.411677 -0.126721 255 125 0 57 11
0.181142 0.306007 -0.194721 255 125 0 57 11
0.084618 0.344369 -0.118721 255 125 0 57 11
0.222812 0.440135 -0.184721 255 125 0 57 11
0.114077 0.306895 -0.134721 255 125 0 57 11
0.177949 0.303596 -0.206721 255 125 0 57 11
0.106478 0.313690 -0.240721 255 125 0 57 11
0.184350 0.308396 -0.226721 255 125 0 57 11
0.128498 0.297728 -0.222721 255 125 0 57 11
0.174749 0.301197 -0.232721 255 125 0 57 11
0.111259 0.307276 -0.146721 255 125 0 57 11
0.150036 0.333992 -0.127543 255 125 0 57 11
0.199186 0.315294 -0.140721 255 125 0 57 11
0.116819 0.341517 -0.125677 255 125 0 57 11
0.218999 0.438549 -0.141762 255 125 0 57 11
0.096426 0.333663 -0.160721 255 125 0 57 11
0.191678 0.315287 -0.223685 255 125 0 57 11
0.125645 0.298083 -0.146721 255 125 0 57 11
0.144344 0.285050 -0.212721 255 125 0 57 11
0.207266 0.324511 -0.112721 255 125 0 57 11
0.153716 0.285907 -0.124721 255 125 0 57 11
0.180392 0.303679 -0.114721 255 125 0 57 11
0.095607 0.310507 -0.134721 255 125 0 57 11
0.122375 0.360730 -0.119043 255 125 0 57 11
0.133562 0.286518 -0.184721 255 125 0 57 11
0.101240 0.332281 -0.127551 255 125 0 57 11
0.150687 0.399594 -0.123220 255 125 0 57 11
0.086956 0.364091 -0.136721 255 125 0 57 11
0.204677 0.322577 -0.118721 255 125 0 57 11
0.198697 0.389056 -0.114721 255 125 0 57 11
0.172792 0.353645 -0.117496 255 125 0 57 11
0.196773 0.361699 -0.122813 255 125 0 57 11
0.119130 0.290668 -0.128721 255 125 0 57 11
0.160702 0.286605 -0.126721 255 125 0 57 11
0.090881 0.374561 -0.130721 255 125 0 57 11
0.176448 0.328852 -0.123659 255 125 0 57 11
0.138719 0.385567 -0.123218 255 125 0 57 11
0.131327 0.289030 -0.242721 255 125 0 57 11
0.105502 0.393092 -0.111560 255 125 0 57 11
0.200846 0.329708 -0.116665 255 125 0 57 11
0.132871 0.285998 -0.222721 255 125 0 57 11
0.091288 0.375397 -0.228721 255 125 0 57 11
0.109916 0.296248 -0.220721 255 125 0 57 11
0.085480 0.335431 -0.144721 255 125 0 57 11
0.156705 0.391608 -0.125184 255 125 0 57 11
0.223420 0.429360 -0.144548 255 125 0 57 11
0.211389 0.338980 -0.120721 255 125 0 57 11
0.212477 0.436139 -0.190721 255 125 0 57 11
0.201819 0.341710 -0.140721 255 125 0 57 11
0.090561 0.349776 -0.122721 255 125 0 57 11
0.207485 0.347485 -0.236721 255 125 0 57 11
0.150271 0.406793 -0.111316 255 125 0 57 11
0.095347 0.366688 -0.158721 255 125 0 57 11
0.092372 0.365667 -0.246721 255 125 0 57 11
0.103229 0.303056 -0.238721 255 125 0 57 11
0.088807 0.320409 -0.156721 255 125 0 57 11
0.144692 0.397581 -0.127636 255 125 0 57 11
0.104061 0.388358 -0.138721 255 125 0 57 11
0.179597 0.351259 -0.127662 255 125 0 57 11
0.113638 0.294043 -0.198721 255 125 0 57 11
0.196316 0.312456 -0.170721 255 125 0 57 11
0.133208 0.346354 -0.121584 255 125 0 57 11
0.103484 0.385800 -0.118721 255 125 0 57 11
0.187212 0.344477 -0.124895 255 125 0 57 11
0.084763 0.342403 -0.162721 255 125 0 57 11
0.171583 0.298751 -0.132721 255 125 0 57 11
0.092174 0.354282 -0.240721 255 125 0 57 11
0.149288 0.293360 -0.152721 255 125 0 57 11
0.190226 0.406849 -0.116721 255 125 0 57 11
0.207280 0.342069 -0.206721 255 125 0 57 11
0.104169 0.392087 -0.234721 255 125 0 57 11
0.227829 0.437691 -0.174721 255 125 0 57 11
0.110280 0.340224 -0.126721 255 125 0 57 11
0.117667 0.302088 -0.176721 255 125 0 57 11
0.167139 0.298002 -0.224721 255 125 0 57 11
0.206170 0.332612 -0.174721 255 125 0 57 11
0.188326 0.382879 -0.123325 255 125 0 57 11
0.086183 0.333457 -0.156721 255 125 0 57 11
0.115706 0.303114 -0.114134 255 125 0 57 11
0.152328 0.294395 -0.172721 255 125 0 57 11
0.203275 0.323161 -0.148721 255 125 0 57 11
0.216184 0.433923 -0.150721 255 125 0 57 11
0.097923 0.374859 -0.170721 255 125 0 57 11
0.216442 0.435297 -0.198721 255 125 0 57 11
0.110772 0.294388 -0.184721 255 125 0 57 11
0.161770 0.357860 -0.116721 255 125 0 57 11
0.092986 0.349881 -0.148721 255 125 0 57 11
0.115311 0.366782 -0.126721 255 125 0 57 11
0.108898 0.391908 -0.156721 255 125 0 57 11
0.130059 0.323947 -0.123347 255 125 0 57 11
0.196534 0.323954 -0.144721 255 125 0 57 11
0.203281 0.341560 -0.170721 255 125 0 57 11
0.124495 0.299719 -0.168721 255 125 0 57 11
0.140384 0.356770 -0.127600 255 125 0 57 11
0.094018 0.365127 -0.122721 255 125 0 57 11
0.099688 0.311078 -0.111539 255 125 0 57 11
0.147943 0.293567 -0.182721 255 125 0 57 11
0.203347 0.341609 -0.158721 255 125 0 57 11
0.093305 0.381396 -0.122721 255 125 0 57 11
0.092996 0.349867 -0.196721 255 125 0 57 11
0.179198 0.295865 -0.242721 255 125 0 57 11
0.099900 0.378853 -0.162721 255 125 0 57 11
0.132723 0.383553 -0.122795 255 125 0 57 11
0.106696 0.298829 -0.206721 255 125 0 57 11
0.203964 0.325570 -0.170721 255 125 0 57 11
0.204579 0.361310 -0.146721 255 125 0 57 11
0.099896 0.378850 -0.236721 255 125 0 57 11
0.107943 0.297264 -0.160721 255 125 0 57 11
0.203836 0.355649 -0.224721 255 125 0 57 11
0.194380 0.318350 -0.236721 255 125 0 57 11
0.099694 0.306073 -0.116721 255 125 0 57 11
0.161308 0.338974 -0.126721 255 125 0 57 11
0.138165 0.284978 -0.234721 255 125 0 57 11
0.189665 0.321282 -0.123276 255 125 0 57 11
0.109107 0.368262 -0.122721 255 125 0 57 11
0.138348 0.372766 -0.127508 255 125 0 57 11
0.177235 0.334454 -0.119168 255 125 0 57 11
0.213897 0.427192 -0.132721 255 125 0 57 11
0.204715 0.325111 -0.158721 255 125 0 57 11
0.165873 0.406029 -0.112107 255 125 0 57 11
0.129226 0.338345 -0.127643 255 125 0 57 11
0.198396 0.313020 -0.182721 255 125 0 57 11
0.194717 0.321224 -0.174721 255 125 0 57 11
0.147615 0.292100 -0.220721 255 125 0 57 11
0.122813 0.298452 -0.160721 255 125 0 57 11
0.158254 0.310133 -0.118721 255 125 0 57 11
0.150466 0.293541 -0.114721 255 125 0 57 11
0.195873 0.406097 -0.220336 255 125 0 57 11
0.095913 0.370840 -0.228721 255 125 0 57 11
0.093584 0.354060 -0.168721 255 125 0 57 11
0.093316 0.332827 -0.142721 255 125 0 57 11
0.200718 0.333200 -0.182721 255 125 0 57 11
0.161240 0.332417 -0.123713 255 125 0 57 11
0.136426 0.293685 -0.230721 255 125 0 57 11
0.171953 0.290405 -0.228721 255 125 0 57 11
0.187976 0.360079 -0.127587 255 125 0 57 11
0.202678 0.403712 -0.219984 255 125 0 57 11
0.086773 0.361449 -0.242910 255 125 0 57 11
0.143579 0.292713 -0.212721 255 125 0 57 11
0.099243 0.305735 -0.124721 255 125 0 57 11
0.205512 0.333485 -0.230721 255 125 0 57 11
0.168731 0.299213 -0.152721 255 125 0 57 11
0.209837 0.341040 -0.110721 255 125 0 57 11
0.092691 0.328344 -0.138721 255 125 0 57 11
0.203624 0.339315 -0.221741 255 125 0 57 11
0.092753 0.358442 -0.232721 255 125 0 57 11
0.143718 0.294171 -0.234721 255 125 0 57 11
0.201819 0.341710 -0.176721 255 125 0 57 11
0.121931 0.290276 -0.118721 255 125 0 57 11
0.222853 0.440082 -0.170721 255 125 0 57 11
0.085650 0.335559 -0.234721 255 125 0 57 11
0.156528 0.286294 -0.188721 255 125 0 57 11
0.115827 0.293188 -0.158721 255 125 0 57 11
0.087774 0.329648 -0.194721 255 125 0 57 11
0.212599 0.347344 -0.126721 255 125 0 57 11
0.161128 0.296010 -0.240721 255 125 0 57 11
0.205356 0.330369 -0.126721 255 125 0 57 11
0.085689 0.333085 -0.118721 255 125 0 57 11
0.090217 0.318966 -0.174721 255 125 0 57 11
0.215182 0.433169 -0.166721 255 125 0 57 11
0.206244 0.418920 -0.221692 255 125 0 57 11
0.100067 0.380364 -0.190721 255 125 0 57 11
0.156347 0.285739 -0.212721 255 125 0 57 11
0.194710 0.321234 -0.134721 255 125 0 57 11
0.200047 0.329106 -0.192721 255 125 0 57 11
0.144927 0.403914 -0.120721 255 125 0 57 11
0.211958 0.363124 -0.126721 255 125 0 57 11
0.168675 0.289317 -0.136721 255 125 0 57 11
0.089968 0.363856 -0.111815 255 125 0 57 11
0.164851 0.327626 -0.117515 255 125 0 57 11
0.208684 0.413247 -0.224721 255 125 0 57 11
0.198670 0.329273 -0.166721 255 125 0 57 11
-0.114522 0.498969 -0.090721 255 255 0 65 12
-0.184285 0.475234 -0.247676 255 255 0 65 12
-0.111404 0.464921 -0.182721 255 255 0 65 12
-0.188008 0.484950 -0.140721 255 255 0 65 12
-0.168119 0.447347 -0.078721 255 255 0 65 12
-0.178172 0.512396 -0.078721 255 255 0 65 12
-0.107503 0.483008 -0.245711 255 255 0 65 12
-0.172810 0.511428 -0.196721 255 255 0 65 12
-0.126246 0.448061 -0.124721 255 255 0 65 12
-0.170991 0.450192 -0.188721 255 255 0 65 12
-0.142034 0.442425 -0.234721 255 255 0 65 12
-0.143917 0.484805 -0.048721 255 255 0 65 12
-0.113327 0.497384 -0.142721 255 255 0 65 12
-0.120236 0.453378 -0.078327 255 255 0 65 12
-0.166352 0.446176 -0.144721 255 255 0 65 12
-0.173173 0.513658 -0.237679 255 255 0 65 12
-0.187224 0.478028 -0.098721 255 255 0 65 12
-0.170801 0.515447 -0.120721 255 255 0 65 12
-0.142034 0.527106 -0.080721 255 255 0 65 12
-0.150304 0.483311 -0.087375 255 255 0 65 12
-0.187285 0.477983 -0.208721 255 255 0 65 12
-0.137971 0.443683 -0.168721 255 255 0 65 12
-0.115057 0.459798 -0.218721 255 255 0 65 12
-0.179741 0.482495 -0.174721 255 255 0 65 12
-0.173173 0.513658 -0.155655 255 255 0 65 12
-0.157117 0.442503 -0.110721 255 255 0 65 12
-0.108137 0.475018 -0.114721 255 255 0 65 12
-0.172828 0.451312 -0.224721 255 255 0 65 12
-0.110975 0.464352 -0.148721 255 255 0 65 12
-0.141045 0.452724 -0.200721 255 255 0 65 12
-0.171886 0.467047 -0.122721 255 255 0 65 12
-0.121684 0.458624 -0.246721 255 255 0 65 12
-0.108321 0.482392 -0.204721 255 255 0 65 12
-0.164240 0.455279 -0.249712 255 255 0 65 12
-0.142124 0.442547 -0.088721 255 255 0 65 12
-0.107449 0.476289 -0.078721 255 255 0 65 12
-0.179448 0.458844 -0.163974 255 255 0 65 12
-0.125611 0.460511 -0.102721 255 255 0 65 12
-0.185253 0.493133 -0.228721 255 255 0 65 12
-0.141169 0.451250 -0.144721 255 255 0 65 12
-0.113544 0.500994 -0.115677 255 255 0 65 12
-0.171878 0.472062 -0.080164 255 255 0 65 12
-0.183936 0.494708 -0.116721 255 255 0 65 12
-0.177009 0.455674 -0.100721 255 255 0 65 12
-0.137549 0.502940 -0.080403 255 255 0 65 12
-0.107111 0.480799 -0.164721 255 255 0 65 12
-0.186641 0.490989 -0.078721 255 255 0 65 12
-0.161150 0.445086 -0.168721 255 255 0 65 12
-0.130282 0.473356 -0.081477 255 255 0 65 12
-0.149257 0.461982 -0.080721 255 255 0 65 12
-0.185801 0.493861 -0.192721 255 255 0 65 12
-0.173074 0.468657 -0.144721 255 255 0 65 12
-0.176276 0.507807 -0.100721 255 255 0 65 12
-0.154952 0.442953 -0.214721 255 255 0 65 12
-0.121831 0.518638 -0.080721 255 255 0 65 12
-0.158752 0.504492 -0.085675 255 255 0 65 12
-0.179265 0.505126 -0.174721 255 255 0 65 12
-0.176714 0.473427 -0.226721 255 255 0 65 12
-0.171152 0.462591 -0.206721 255 255 0 65 12
-0.178235 0.503760 -0.136721 255 255 0 65 12
-0.184675 0.467428 -0.188721 255 255 0 65 12
-0.119605 0.453854 -0.198721 255 255 0 65 12
-0.163384 0.527254 -0.080721 255 255 0 65 12
-0.119732 0.453759 -0.166721 255 255 0 65 12
-0.151395 0.477480 -0.066721 255 255 0 65 12
-0.155225 0.453284 -0.128721 255 255 0 65 12
-0.176216 0.507727 -0.216721 255 255 0 65 12
-0.120426 0.466925 -0.130721 255 255 0 65 12
-0.130552 0.445606 -0.216721 255 255 0 65 12
-0.179541 0.493835 -0.156721 255 255 0 65 12
-0.152483 0.443000 -0.186721 255 255 0 65 12
-0.135815 0.444144 -0.108184 255 255 0 65 12
-0.114831 0.476116 -0.096721 255 255 0 65 12
-0.112340 0.499397 -0.161656 255 255 0 65 12
-0.179584 0.493803 -0.246721 255 255 0 65 12
-0.130771 0.454066 -0.182721 255 255 0 65 12
-0.108218 0.479965 -0.136721 255 255 0 65 12
-0.186712 0.475910 -0.158721 255 255 0 65 12
-0.110530 0.468206 -0.234721 255 255 0 65 12
-0.159500 0.453842 -0.094721 255 255 0 65 12
-0.122917 0.450291 -0.148721 255 255 0 65 12
-0.179783 0.458592 -0.240721 255 255 0 65 12
-0.187433 0.475366 -0.116721 255 255 0 65 12
-0.156651 0.453487 -0.232721 255 255 0 65 12
-0.172030 0.449409 -0.118721 255 255 0 65 12
-0.169517 0.488868 -0.085676 255 255 0 65 12
-0.113847 0.458194 -0.116692 255 255 0 65 12
-0.138232 0.452339 -0.248721 255 255 0 65 12
-0.177702 0.455153 -0.134721 255 255 0 65 12
-0.125118 0.489767 -0.080490 255 255 0 65 12
-0.127621 0.456533 -0.230721 255 255 0 65 12
-0.151735 0.442163 -0.154721 255 255 0 65 12
-0.142109 0.442526 -0.128721 255 255 0 65 12
-0.158026 0.453678 -0.200721 255 255 0 65 12
-0.185626 0.470366 -0.132721 255 255 0 65 12
-0.102536 0.493033 -0.080721 255 255 0 65 12
-0.180140 0.458323 -0.084721 255 255 0 65 12
-0.164689 0.457445 -0.156721 255 255 0 65 12
-0.179767 0.492499 -0.210721 255 255 0 65 12
-0.109869 0.489471 -0.104721 255 255 0 65 12
-0.109887 0.476203 -0.219701 255 255 0 65 12
-0.184057 0.494871 -0.094721 255 255 0 65 12
-0.172348 0.464195 -0.178721 255 255 0 65 12
-0.113106 0.461256 -0.090721 255 255 0 65 12
-0.126179 0.447972 -0.092721 255 255 0 65 12
-0.174289 0.470246 -0.106721 255 255 0 65 12
-0.114543 0.467686 -0.204721 255 255 0 65 12
-0.153014 0.443704 -0.077057 255 255 0 65 12
-0.135838 0.454144 -0.079499 255 255 0 65 12
-0.113877 0.483214 -0.150721 255 255 0 65 12
-0.187273 0.472552 -0.080721 255 255 0 65 12
-0.113279 0.487350 -0.122721 255 255 0 65 12
-0.152780 0.516506 -0.077912 255 255 0 65 12
-0.179527 0.483828 -0.126721 255 255 0 65 12
-0.144002 0.451685 -0.222721 255 255 0 65 12
-0.133603 0.454501 -0.158721 255 255 0 65 12
-0.146410 0.491253 -0.070721 255 255 0 65 12
-0.155646 0.443874 -0.244721 255 255 0 65 12
-0.115951 0.504189 -0.076635 255 255 0 65 12
-0.161858 0.457076 -0.110721 255 255 0 65 12
-0.145453 0.451906 -0.116721 255 255 0 65 12
-0.114501 0.467718 -0.164721 255 255 0 65 12
-0.182039 0.461901 -0.218721 255 255 0 65 12
-0.149630 0.452507 -0.174721 255 255 0 65 12
-0.145235 0.453322 -0.098721 255 255 0 65 12
-0.178715 0.479433 -0.196721 255 255 0 65 12
-0.161853 0.457078 -0.216721 255 255 0 65 12
-0.182766 0.461354 -0.114721 255 255 0 65 12
-0.185563 0.469263 -0.172721 255 255 0 65 12
-0.136322 0.491342 -0.089696 255 255 0 65 12
-0.151810 0.442107 -0.139489 255 255 0 65 12
-0.129181 0.455281 -0.136721 255 255 0 65 12
-0.168273 0.462257 -0.232721 255 255 0 65 12
-0.137608 0.443200 -0.190721 255 255 0 65 12
-0.170681 0.465452 -0.092721 255 255 0 65 12
-0.187640 0.479686 -0.234721 255 255 0 65 12
-0.179108 0.456597 -0.148721 255 255 0 65 12
-0.171885 0.467048 -0.248721 255 255 0 65 12
-0.111286 0.465131 -0.104721 255 255 0 65 12
-0.163454 0.460881 -0.080143 255 255 0 65 12
-0.171576 0.514863 -0.141762 255 255 0 65 12
-0.179527 0.483828 -0.108721 255 255 0 65 12
-0.167748 0.447628 -0.238721 255 255 0 65 12
-0.137522 0.487934 -0.060721 255 255 0 65 12
-0.128021 0.447095 -0.240721 255 255 0 65 12
-0.126012 0.457720 -0.210721 255 255 0 65 12
-0.183855 0.465543 -0.202721 255 255 0 65 12
-0.118268 0.467384 -0.079039 255 255 0 65 12
-0.154857 0.486029 -0.056721 255 255 0 65 12
-0.174285 0.470250 -0.158721 255 255 0 65 12
-0.157480 0.472894 -0.082000 255 255 0 65 12
-0.169155 0.449071 -0.206721 255 255 0 65 12
-0.185617 0.493618 -0.168721 255 255 0 65 12
-0.127241 0.459351 -0.116721 255 255 0 65 12
-0.164444 0.458873 -0.136721 255 255 0 65 12
-0.172661 0.451439 -0.174721 255 255 0 65 12
-0.172337 0.464203 -0.192721 255 255 0 65 12
-0.155230 0.453293 -0.146721 255 255 0 65 12
-0.187553 0.480285 -0.186721 255 255 0 65 12
-0.108829 0.487017 -0.090721 255 255 0 65 12
-0.149929 0.442932 -0.200721 255 255 0 65 12
-0.178715 0.479433 -0.088721 255 255 0 65 12
-0.134377 0.515347 -0.083578 255 255 0 65 12
-0.170743 0.500465 -0.079538 255 255 0 65 12
-0.179003 0.506760 -0.114721 255 255 0 65 12
-0.160662 0.455472 -0.182721 255 255 0 65 12
-0.155017 0.442195 -0.090721 255 255 0 65 12
-0.110487 0.476998 -0.176721 255 255 0 65 12
-0.122399 0.462896 -0.154721 255 255 0 65 12
-0.129820 0.446158 -0.200814 255 255 0 65 12
-0.167884 0.446822 -0.130721 255 255 0 65 12
-0.187897 0.483348 -0.220721 255 255 0 65 12
-0.147598 0.497870 -0.086721 255 255 0 65 12
-0.112479 0.472996 -0.192721 255 255 0 65 12
-0.183413 0.465874 -0.094721 255 255 0 65 12
-0.178206 0.503722 -0.230721 255 255 0 65 12
-0.116314 0.456334 -0.136721 255 255 0 65 12
-0.168108 0.447356 -0.104721 255 255 0 65 12
-0.179575 0.503826 -0.204721 255 255 0 65 12
-0.178773 0.479388 -0.148721 255 255 0 65 12
-0.146231 0.451320 -0.161724 255 255 0 65 12
-0.143083 0.473728 -0.083021 255 255 0 65 12
-0.171806 0.449579 -0.090721 255 255 0 65 12
-0.125635 0.460544 -0.088721 255 255 0 65 12
-0.123973 0.448369 -0.106721 255 255 0 65 12
-0.180995 0.494130 -0.180721 255 255 0 65 12
-0.178978 0.504746 -0.088721 255 255 0 65 12
-0.108650 0.471237 -0.126721 255 255 0 65 12
-0.176880 0.472051 -0.212721 255 255 0 65 12
-0.166489 0.514759 -0.082721 255 255 0 65 12
-0.142606 0.443185 -0.212721 255 255 0 65 12
-0.115294 0.456791 -0.232721 255 255 0 65 12
-0.118509 0.454681 -0.184721 255 255 0 65 12
-0.151840 0.442147 -0.226721 255 255 0 65 12
-0.112754 0.501591 -0.102721 255 255 0 65 12
-0.119495 0.478982 -0.085611 255 255 0 65 12
-0.137972 0.443683 -0.154721 255 255 0 65 12
-0.178271 0.503808 -0.188721 255 255 0 65 12
-0.157526 0.492895 -0.081454 255 255 0 65 12
-0.179684 0.505682 -0.148721 255 255 0 65 12
-0.183996 0.494789 -0.130721 255 255 0 65 12
-0.185424 0.469368 -0.146721 255 255 0 65 12
-0.125557 0.506967 -0.083673 255 255 0 65 12
-0.122060 0.465770 -0.142721 255 255 0 65 12
-0.132032 0.455740 -0.170721 255 255 0 65 12
-0.154136 0.442858 -0.122721 255 255 0 65 12
-0.131709 0.445342 -0.228721 255 255 0 65 12
-0.170814 0.515436 -0.108721 255 255 0 65 12
-0.179252 0.505109 -0.162721 255 255 0 65 12
-0.179555 0.493824 -0.144721 255 255 0 65 12
-0.148226 0.442304 -0.102721 255 255 0 65 12
-0.163809 0.445588 -0.156721 255 255 0 65 12
-0.176699 0.473437 -0.238721 255 255 0 65 12
-0.167073 0.460658 -0.168721 255 255 0 65 12
-0.137435 0.452939 -0.125718 255 255 0 65 12
-0.133577 0.444497 -0.138721 255 255 0 65 12
-0.118670 0.469584 -0.112721 255 255 0 65 12
-0.110750 0.495587 -0.130721 255 255 0 65 12
-0.179933 0.496044 -0.105669 255 255 0 65 12
-0.119652 0.462574 -0.174721 255 255 0 65 12
-0.182855 0.463792 -0.230721 255 255 0 65 12
-0.149634 0.452512 -0.208721 255 255 0 65 12
-0.112411 0.486823 -0.078721 255 255 0 65 12
-0.149630 0.452507 -0.192721 255 255 0 65 12
-0.179338 0.505224 -0.244721 255 255 0 65 12
-0.144163 0.441928 -0.178721 255 255 0 65 12
-0.164694 0.457441 -0.122721 255 255 0 65 12
-0.145682 0.510410 -0.084721 255 255 0 65 12
-0.170856 0.464058 -0.220721 255 255 0 65 12
-0.172438 0.514213 -0.176721 255 255 0 65 12
-0.175714 0.454145 -0.198721 255 255 0 65 12
-0.149032 0.451713 -0.087739 255 255 0 65 12
-0.146825 0.452108 -0.238721 255 255 0 65 12
-0.135838 0.454144 -0.091726 255 255 0 65 12
-0.138005 0.453696 -0.212721 255 255 0 65 12
-0.130598 0.526948 -0.080721 255 255 0 65 12
-0.179527 0.483828 -0.162721 255 255 0 65 12
-0.113870 0.468194 -0.245550 255 255 0 65 12
-0.186053 0.487549 -0.202721 255 255 0 65 12
-0.129842 0.456157 -0.193720 255 255 0 65 12
-0.177154 0.505650 -0.125730 255 255 0 65 12
-0.186909 0.501978 -0.080721 255 255 0 65 12
-0.173173 0.513658 -0.225661 255 255 0 65 12
-0.121360 0.451548 -0.222721 255 255 0 65 12
-0.149025 0.441734 -0.168721 255 255 0 65 12
-0.177959 0.474993 -0.182721 255 255 0 65 12
-0.164829 0.446090 -0.218721 255 255 0 65 12
-0.108593 0.471161 -0.088721 255 255 0 65 12
-0.110340 0.466834 -0.136721 255 255 0 65 12
-0.110281 0.473401 -0.155018 255 255 0 65 12
-0.172665 0.466460 -0.133720 255 255 0 65 12
-0.186660 0.485966 -0.152721 255 255 0 65 12
-0.137021 0.443234 -0.078721 255 255 0 65 12
-0.145956 0.477541 -0.056721 255 255 0 65 12
-0.178896 0.478051 -0.136721 255 255 0 65 12
-0.164013 0.445433 -0.196721 255 255 0 65 12
-0.181891 0.462013 -0.126721 255 255 0 65 12
-0.145453 0.451907 -0.134721 255 255 0 65 12
-0.179554 0.483807 -0.228721 255 255 0 65 12
-0.179785 0.458592 -0.184721 255 255 0 65 12
-0.109900 0.493724 -0.152721 255 255 0 65 12
-0.113810 0.461468 -0.192721 255 255 0 65 12
-0.185073 0.469632 -0.105874 255 255 0 65 12
-0.128170 0.447292 -0.164721 255 255 0 65 12
-0.178970 0.498088 -0.220721 255 255 0 65 12
-0.161392 0.444904 -0.180721 255 255 0 65 12
-0.135861 0.464144 -0.083523 255 255 0 65 12
-0.175557 0.454265 -0.214721 255 255 0 65 12
-0.187661 0.496329 -0.238721 255 255 0 65 12
-0.168265 0.462264 -0.102721 255 255 0 65 12
-0.173139 0.451078 -0.158721 255 255 0 65 12
-0.152691 0.451461 -0.106721 255 255 0 65 12
-0.144757 0.482482 -0.076721 255 255 0 65 12
-0.137626 0.443223 -0.118721 255 255 0 65 12
-0.156689 0.453457 -0.162721 255 255 0 65 12
-0.133623 0.454528 -0.106721 255 255 0 65 12
-0.183730 0.465635 -0.156721 255 255 0 65 12
-0.113743 0.458056 -0.158721 255 255 0 65 12
-0.177110 0.485650 -0.078913 255 255 0 65 12
-0.186531 0.471566 -0.218721 255 255 0 65 12
-0.142667 0.451501 -0.184721 255 255 0 65 12
-0.135815 0.444144 -0.097154 255 255 0 65 12
-0.175489 0.471845 -0.170721 255 255 0 65 12
-0.180949 0.484098 -0.242721 255 255 0 65 12
-0.118575 0.454497 -0.096721 255 255 0 65 12
-0.186845 0.488600 -0.102721 255 255 0 65 12
-0.131156 0.482714 -0.086721 255 255 0 65 12
-0.178304 0.482246 -0.214721 255 255 0 65 12
-0.133866 0.444880 -0.178721 255 255 0 65 12
-0.115072 0.474800 -0.142721 255 255 0 65 12
-0.173674 0.514323 -0.130721 255 255 0 65 12
-0.187110 0.485628 -0.087978 255 255 0 65 12
-0.124661 0.449282 -0.174721 255 255 0 65 12
-0.114486 0.478981 -0.106721 255 255 0 65 12
-0.130426 0.456932 -0.220721 255 255 0 65 12
-0.161585 0.445108 -0.228721 255 255 0 65 12
-0.132025 0.455731 -0.146721 255 255 0 65 12
-0.138259 0.452319 -0.232721 255 255 0 65 12
-0.165817 0.479133 -0.084721 255 255 0 65 12
-0.106941 0.502202 -0.082721 255 255 0 65 12
-0.118486 0.454698 -0.126721 255 255 0 65 12
-0.120454 0.466963 -0.096721 255 255 0 65 12
-0.128037 0.447115 -0.082721 255 255 0 65 12
-0.176705 0.473434 -0.096721 255 255 0 65 12
-0.155838 0.454098 -0.080041 255 255 0 65 12
-0.167064 0.460664 -0.146721 255 255 0 65 12
-0.177939 0.475007 -0.120721 255 255 0 65 12
-0.180900 0.460254 -0.174721 255 255 0 65 12
-0.164735 0.457410 -0.192721 255 255 0 65 12
-0.153993 0.451650 -0.220721 255 255 0 65 12
-0.146514 0.441725 -0.112721 255 255 0 65 12
-0.159234 0.455283 -0.172721 255 255 0 65 12
-0.175481 0.471851 -0.202721 255 255 0 65 12
-0.116115 0.457880 -0.208721 255 255 0 65 12
-0.187605 0.485253 -0.114721 255 255 0 65 12
-0.184580 0.467499 -0.240721 255 255 0 65 12
-0.181503 0.462305 -0.140721 255 255 0 65 12
-0.186694 0.478428 -0.168721 255 255 0 65 12
-0.110745 0.467370 -0.224721 255 255 0 65 12
-0.155485 0.451859 -0.116721 255 255 0 65 12
-0.141345 0.517947 -0.076721 255 255 0 65 12
-0.145641 0.443890 -0.244721 255 255 0 65 12
-0.112318 0.489397 -0.161661 255 255 0 65 12
-0.169465 0.463862 -0.112721 255 255 0 65 12
-0.175662 0.454186 -0.110721 255 255 0 65 12
-0.173173 0.513658 -0.165623 255 255 0 65 12
-0.178729 0.494446 -0.083653 255 255 0 65 12
-0.144224 0.442009 -0.146721 255 255 0 65 12
-0.172643 0.456461 -0.078480 255 255 0 65 12
-0.114394 0.468890 -0.214721 255 255 0 65 12
-0.117521 0.456423 -0.106721 255 255 0 65 12
-0.116476 0.474977 -0.120721 255 255 0 65 12
-0.159924 0.443506 -0.100721 255 255 0 65 12
-0.147126 0.490714 -0.060721 255 255 0 65 12
-0.156664 0.453475 -0.242721 255 255 0 65 12
-0.179319 0.485258 -0.184721 255 255 0 65 12
-0.121328 0.451505 -0.116721 255 255 0 65 12
-0.153661 0.525858 -0.080721 255 255 0 65 12
-0.180044 0.466281 -0.078721 255 255 0 65 12
-0.173567 0.510858 -0.207756 255 255 0 65 12
-0.188233 0.482276 -0.130721 255 255 0 65 12
-0.171576 0.514863 -0.187739 255 255 0 65 12
-0.179910 0.486044 -0.095704 255 255 0 65 12
-0.109237 0.488632 -0.142721 255 255 0 65 12
-0.158668 0.444561 -0.204721 255 255 0 65 12
-0.108550 0.484724 -0.114721 255 255 0 65 12
-0.140213 0.443334 -0.202743 255 255 0 65 12
-0.141923 0.442280 -0.222721 255 255 0 65 12
-0.170791 0.515453 -0.098721 255 255 0 65 12
-0.142723 0.489867 -0.082721 255 255 0 65 12
-0.126275 0.448101 -0.188721 255 255 0 65 12
-0.132036 0.455746 -0.240721 255 255 0 65 12
-0.145028 0.449722 -0.079358 255 255 0 65 12
-0.186297 0.473718 -0.196721 255 255 0 65 12
-0.141059 0.452713 -0.170721 255 255 0 65 12
-0.180825 0.495371 -0.200721 255 255 0 65 12
-0.163494 0.455841 -0.226721 255 255 0 65 12
-0.115010 0.474847 -0.132721 255 255 0 65 12
-0.174846 0.452295 -0.234721 255 255 0 65 12
-0.142882 0.481391 -0.066721 255 255 0 65 12
-0.157646 0.443205 -0.146721 255 255 0 65 12
-0.119590 0.462492 -0.226721 255 255 0 65 12
-0.164058 0.445066 -0.116721 255 255 0 65 12
-0.164218 0.445279 -0.087518 255 255 0 65 12
-0.128245 0.457361 -0.127729 255 255 0 65 12
-0.168710 0.459426 -0.242721 255 255 0 65 12
-0.118638 0.454583 -0.087420 255 255 0 65 12
-0.135212 0.453314 -0.116721 255 255 0 65 12
-0.132039 0.455749 -0.202721 255 255 0 65 12
-0.116680 0.495185 -0.078721 255 255 0 65 12
-0.109263 0.468728 -0.172721 255 255 0 65 12
-0.148366 0.450829 -0.152721 255 255 0 65 12
-0.121462 0.464976 -0.121723 255 255 0 65 12
-0.127458 0.462962 -0.079806 255 255 0 65 12
-0.161198 0.444596 -0.136721 255 255 0 65 12
-0.151240 0.442537 -0.236721 255 255 0 65 12
-0.111580 0.467415 -0.118721 255 255 0 65 12
-0.108147 0.475011 -0.210721 255 255 0 65 12
-0.107185 0.480743 -0.124721 255 255 0 65 12
-0.179971 0.491007 -0.236721 255 255 0 65 12
-0.188145 0.489856 -0.176721 255 255 0 65 12
-0.129572 0.445829 -0.114721 255 255 0 65 12
-0.180405 0.488175 -0.136721 255 255 0 65 12
-0.157435 0.452894 -0.137668 255 255 0 65 12
-0.123431 0.450973 -0.157827 255 255 0 65 12
-0.179448 0.458844 -0.207526 255 255 0 65 12
-0.119602 0.462508 -0.238721 255 255 0 65 12
-0.186299 0.481229 -0.078135 255 255 0 65 12
-0.186172 0.473812 -0.090721 255 255 0 65 12
-0.115058 0.456478 -0.146721 255 255 0 65 12
-0.126103 0.497722 -0.084721 255 255 0 65 12
-0.186715 0.488428 -0.123671 255 255 0 65 12
-0.113256 0.487320 -0.134721 255 255 0 65 12
-0.187234 0.475822 -0.178721 255 255 0 65 12
-0.108684 0.474606 -0.240819 255 255 0 65 12
-0.110084 0.493585 -0.096721 255 255 0 65 12
-0.181138 0.460076 -0.194721 255 255 0 65 12
-0.121213 0.451353 -0.236721 255 255 0 65 12
-0.169778 0.448601 -0.166721 255 255 0 65 12
-0.108509 0.474373 -0.200721 255 255 0 65 12
-0.176228 0.454571 -0.124721 255 255 0 65 12
-0.165876 0.459054 -0.088721 255 255 0 65 12
-0.144612 0.442524 -0.161005 255 255 0 65 12
-0.112668 0.463276 -0.126721 255 255 0 65 12
-0.186640 0.475963 -0.226721 255 255 0 65 12
-0.126410 0.448280 -0.208721 255 255 0 65 12
-0.133127 0.493750 -0.081054 255 255 0 65 12
-0.110224 0.493265 -0.112721 255 255 0 65 12
-0.117874 0.470184 -0.149718 255 255 0 65 12
-0.136042 0.443972 -0.242721 255 255 0 65 12
-0.129820 0.446158 -0.152418 255 255 0 65 12
-0.107763 0.483353 -0.098721 255 255 0 65 12
-0.119256 0.465371 -0.186721 255 255 0 65 12
-0.165535 0.496877 -0.085687 255 255 0 65 12
-0.133486 0.444376 -0.128721 255 255 0 65 12
-0.174414 0.452163 -0.142721 255 255 0 65 12
-0.158970 0.484293 -0.082721 255 255 0 65 12
-0.128775 0.514560 -0.076841 255 255 0 65 12
-0.152629 0.443194 -0.176721 255 255 0 65 12
-0.116368 0.511388 -0.081645 255 255 0 65 12
-0.108356 0.474169 -0.102721 255 255 0 65 12
-0.109745 0.466293 -0.080721 255 255 0 65 12
-0.172326 0.464211 -0.152721 255 255 0 65 12
-0.187466 0.477846 -0.146721 255 255 0 65 12
-0.180345 0.488221 -0.220721 255 255 0 65 12
-0.152253 0.484346 -0.072721 255 255 0 65 12
-0.183980 0.467952 -0.120721 255 255 0 65 12
-0.122644 0.449927 -0.138721 255 255 0 65 12
-0.165235 0.507119 -0.078721 255 255 0 65 12
-0.118454 0.470953 -0.088721 255 255 0 65 12
-0.151553 0.504908 -0.080858 255 255 0 65 12
-0.187769 0.486503 -0.162721 255 255 0 65 12
-0.179146 0.501645 -0.076931 255 255 0 65 12
-0.117919 0.490184 -0.085651 255 255 0 65 12
-0.152683 0.451467 -0.184721 255 255 0 65 12
-0.186369 0.486186 -0.212721 255 255 0 65 12
-0.182660 0.461433 -0.104721 255 255 0 65 12
-0.154612 0.442501 -0.131354 255 255 0 65 12
-0.141833 0.452130 -0.107719 255 255 0 65 12
-0.141810 0.442131 -0.137949 255 255 0 65 12
-0.109487 0.474001 -0.184721 255 255 0 65 12
-0.161182 0.517686 -0.076633 255 255 0 65 12
-0.133528 0.444433 -0.088721 255 255 0 65 12
-0.187839 0.485077 -0.194721 255 255 0 65 12
-0.139100 0.481736 -0.083710 255 255 0 65 12
-0.181923 0.502008 -0.212721 255 255 0 65 12
-0.175494 0.471842 -0.190721 255 255 0 65 12
-0.187303 0.479237 -0.108721 255 255 0 65 12
-0.178737 0.479415 -0.206721 255 255 0 65 12
-0.108101 0.477549 -0.146721 255 255 0 65 12
-0.164720 0.457424 -0.204721 255 255 0 65 12
-0.173807 0.513181 -0.086721 255 255 0 65 12
-0.179134 0.486628 -0.116721 255 255 0 65 12
-0.138250 0.452326 -0.192721 255 255 0 65 12
-0.167068 0.460661 -0.184721 255 255 0 65 12
-0.136763 0.452049 -0.134721 255 255 0 65 12
-0.147215 0.520698 -0.082721 255 255 0 65 12
-0.126031 0.457747 -0.162721 255 255 0 65 12
-0.114650 0.459259 -0.080721 255 255 0 65 12
-0.155444 0.443606 -0.162721 255 255 0 65 12
-0.119610 0.462517 -0.198721 255 255 0 65 12
-0.129172 0.455267 -0.096721 255 255 0 65 12
-0.107503 0.483008 -0.156636 255 255 0 65 12
-0.171386 0.521259 -0.080721 255 255 0 65 12
-0.185206 0.469532 -0.210721 255 255 0 65 12
-0.150629 0.450510 -0.247676 255 255 0 65 12
-0.178743 0.499445 -0.238721 255 255 0 65 12
-0.181796 0.501839 -0.098721 255 255 0 65 12
-0.114240 0.460401 -0.168721 255 255 0 65 12
-0.178290 0.477247 -0.078974 255 255 0 65 12
-0.178535 0.457028 -0.226721 255 255 0 65 12
-0.178988 0.498114 -0.122721 255 255 0 65 12
-0.109768 0.493822 -0.084721 255 255 0 65 12
-0.171258 0.449991 -0.150721 255 255 0 65 12
-0.172387 0.464166 -0.084721 255 255 0 65 12
-0.175988 0.468964 -0.114721 255 255 0 65 12
-0.185436 0.493376 -0.216721 255 255 0 65 12
-0.178747 0.499442 -0.168721 255 255 0 65 12
-0.110521 0.467073 -0.096721 255 255 0 65 12
-0.163488 0.455845 -0.236721 255 255 0 65 12
-0.174743 0.467398 -0.232721 255 255 0 65 12
-0.135489 0.443711 -0.146721 255 255 0 65 12
-0.178617 0.456967 -0.092721 255 255 0 65 12
-0.183604 0.465732 -0.180721 255 255 0 65 12
-0.124418 0.458929 -0.180721 255 255 0 65 12
-0.139628 0.452527 -0.152721 255 255 0 65 12
-0.171174 0.462575 -0.160721 255 255 0 65 12
-0.179187 0.476572 -0.112721 255 255 0 65 12
-0.160664 0.455469 -0.102721 255 255 0 65 12
-0.175508 0.471830 -0.088721 255 255 0 65 12
-0.184383 0.467648 -0.164721 255 255 0 65 12
-0.176738 0.473408 -0.128721 255 255 0 65 12
-0.165872 0.459058 -0.176721 255 255 0 65 12
-0.173498 0.465832 -0.240721 255 255 0 65 12
-0.146892 0.442227 -0.192721 255 255 0 65 12
-0.186610 0.475986 -0.138721 255 255 0 65 12
-0.129032 0.451759 -0.247424 255 255 0 65 12
-0.180373 0.488198 -0.196721 255 255 0 65 12
-0.133907 0.444934 -0.208721 255 255 0 65 12
-0.157571 0.512894 -0.083483 255 255 0 65 12
-0.139539 0.498935 -0.087605 255 255 0 65 12
-0.180912 0.502818 -0.196721 255 255 0 65 12
-0.114844 0.466163 -0.156721 255 255 0 65 12
-0.125785 0.480682 -0.080721 255 255 0 65 12
-0.158359 0.452198 -0.192721 255 255 0 65 12
-0.149630 0.452507 -0.228721 255 255 0 65 12
-0.123453 0.460972 -0.135722 255 255 0 65 12
-0.149923 0.491111 -0.052721 255 255 0 65 12
-0.120858 0.464174 -0.210721 255 255 0 65 12
-0.149865 0.451086 -0.200721 255 255 0 65 12
-0.125050 0.459768 -0.147682 255 255 0 65 12
-0.146804 0.452080 -0.124721 255 255 0 65 12
-0.176211 0.508865 -0.182721 255 255 0 65 12
-0.178899 0.478055 -0.156721 255 255 0 65 12
-0.118816 0.468112 -0.104721 255 255 0 65 12
-0.149098 0.441647 -0.084721 255 255 0 65 12
-0.108139 0.480025 -0.086721 255 255 0 65 12
-0.151894 0.485420 -0.064721 255 255 0 65 12
-0.145413 0.441919 -0.120721 255 255 0 65 12
-0.187846 0.485073 -0.228721 255 255 0 65 12
-0.186672 0.475939 -0.124721 255 255 0 65 12
-0.119146 0.501781 -0.083627 255 255 0 65 12
-0.122363 0.509374 -0.076664 255 255 0 65 12
-0.174190 0.452790 -0.242721 255 255 0 65 12
-0.115489 0.476990 -0.078936 255 255 0 65 12
-0.166365 0.446166 -0.096721 255 255 0 65 12
-0.161585 0.445110 -0.124721 255 255 0 65 12
-0.118214 0.454019 -0.176721 255 255 0 65 12
-0.161071 0.444427 -0.188721 255 255 0 65 12
-0.149643 0.442554 -0.208721 255 255 0 65 12
-0.163869 0.468079 -0.083619 255 255 0 65 12
-0.183503 0.465807 -0.086721 255 255 0 65 12
-0.156646 0.453488 -0.154721 255 255 0 65 12
-0.179165 0.476588 -0.104721 255 255 0 65 12
-0.158030 0.453683 -0.208721 255 255 0 65 12
-0.142250 0.459329 -0.083475 255 255 0 65 12
-0.103946 0.483184 -0.080721 255 255 0 65 12
-0.122960 0.458839 -0.190721 255 255 0 65 12
-0.187631 0.492966 -0.208721 255 255 0 65 12
-0.183413 0.497338 -0.150721 255 255 0 65 12
-0.175050 0.459654 -0.247468 255 255 0 65 12
-0.148183 0.442337 -0.094721 255 255 0 65 12
-0.179471 0.468845 -0.247388 255 255 0 65 12
-0.138033 0.453733 -0.178721 255 255 0 65 12
-0.108125 0.487549 -0.128721 255 255 0 65 12
-0.184522 0.495089 -0.138721 255 255 0 65 12
-0.169055 0.461668 -0.127755 255 255 0 65 12
-0.122446 0.462958 -0.110721 255 255 0 65 12
-0.141178 0.451260 -0.086721 255 255 0 65 12
-0.158786 0.444719 -0.236721 255 255 0 65 12
-0.120538 0.453780 -0.214721 255 255 0 65 12
-0.154974 0.442981 -0.194721 255 255 0 65 12
-0.186353 0.488701 -0.184721 255 255 0 65 12
-0.151321 0.491306 -0.088721 255 255 0 65 12
-0.151069 0.467708 -0.085686 255 255 0 65 12
-0.160704 0.443940 -0.080721 255 255 0 65 12
-0.168994 0.448295 -0.230721 255 255 0 65 12
-0.180660 0.503655 -0.106721 255 255 0 65 12
-0.165940 0.446485 -0.174721 255 255 0 65 12
-0.128222 0.447361 -0.143999 255 255 0 65 12
-0.160788 0.520487 -0.083708 255 255 0 65 12
-0.186735 0.491778 -0.146721 255 255 0 65 12
-0.179102 0.456601 -0.156721 255 255 0 65 12
-0.178829 0.499379 -0.112721 255 255 0 65 12
-0.185741 0.470519 -0.232721 255 255 0 65 12
-0.159228 0.455273 -0.086721 255 255 0 65 12
-0.130149 0.446594 -0.102721 255 255 0 65 12
-0.129842 0.456157 -0.083644 255 255 0 65 12
-0.180409 0.478155 -0.220721 255 255 0 65 12
-0.163745 0.445636 -0.210721 255 255 0 65 12
-0.179134 0.486628 -0.152721 255 255 0 65 12
-0.119642 0.462561 -0.162721 255 255 0 65 12
-0.123097 0.458736 -0.220721 255 255 0 65 12
-0.162756 0.446381 -0.244721 255 255 0 65 12
-0.168729 0.459409 -0.214721 255 255 0 65 12
-0.179181 0.476576 -0.164721 255 255 0 65 12
-0.136277 0.471343 -0.085630 255 255 0 65 12
-0.145598 0.450479 -0.214721 255 255 0 65 12
-0.136761 0.508542 -0.085673 255 255 0 65 12
-0.139600 0.452491 -0.240721 255 255 0 65 12
-0.168277 0.462254 -0.198721 255 255 0 65 12
-0.169425 0.448867 -0.180981 255 255 0 65 12
-0.128222 0.447361 -0.133152 255 255 0 65 12
-0.124480 0.468981 -0.084721 255 255 0 65 12
-0.110563 0.473776 -0.166721 255 255 0 65 12
-0.180791 0.485379 -0.144721 255 255 0 65 12
-0.180349 0.488217 -0.168721 255 255 0 65 12
-0.158336 0.497293 -0.087672 255 255 0 65 12
-0.148243 0.442291 -0.218721 255 255 0 65 12
-0.136810 0.452110 -0.224721 255 255 0 65 12
-0.163571 0.453279 -0.078721 255 255 0 65 12
-0.178718 0.479429 -0.234721 255 255 0 65 12
-0.172757 0.506459 -0.083635 255 255 0 65 12
-0.114472 0.478962 -0.114721 255 255 0 65 12
-0.107568 0.475446 -0.094721 255 255 0 65 12
-0.124673 0.457548 -0.202721 255 255 0 65 12
-0.179532 0.493841 -0.188721 255 255 0 65 12
-0.148247 0.452305 -0.142721 255 255 0 65 12
-0.183938 0.498034 -0.087524 255 255 0 65 12
-0.173498 0.480858 -0.083656 255 255 0 65 12
-0.152429 0.452898 -0.096721 255 255 0 65 12
-0.110528 0.467084 -0.196721 255 255 0 65 12
-0.131947 0.502152 -0.085668 255 255 0 65 12
-0.150785 0.482948 -0.050721 255 255 0 65 12
-0.176359 0.453659 -0.168721 255 255 0 65 12
-0.181514 0.501464 -0.156721 255 255 0 65 12
-0.124538 0.457650 -0.170721 255 255 0 65 12
-0.133881 0.444901 -0.160721 255 255 0 65 12
-0.136781 0.452073 -0.098721 255 255 0 65 12
-0.142666 0.466528 -0.081573 255 255 0 65 12
-0.156166 0.464503 -0.080721 255 255 0 65 12
-0.162042 0.455684 -0.144721 255 255 0 65 12
-0.187312 0.475457 -0.240721 255 255 0 65 12
-0.141715 0.488529 -0.054721 255 255 0 65 12
-0.162643 0.456482 -0.129705 255 255 0 65 12
-0.107926 0.482689 -0.106721 255 255 0 65 12
-0.129123 0.491759 -0.087711 255 255 0 65 12
