ply
format ascii 1.0
element vertex 1131
property float x
property float y
property float z
property uchar red
property uchar green
property uchar blue
property uchar semantic_label
property uchar instance_label
end_header
0.168225 0.799718 -0.484540 20 20 27 0 0
0.170945 0.795031 -0.489613 23 23 27 0 0
0.169302 0.812673 -0.487262 23 22 27 0 0
0.172979 0.809848 -0.496743 23 22 26 0 0
0.173816 0.485648 -0.714268 17 17 22 0 0
0.169865 0.482346 -0.728682 17 17 19 0 0
0.105131 0.519591 -0.627013 13 13 20 0 0
0.091642 0.527368 -0.623089 12 13 22 0 0
0.115545 0.527335 -0.626773 10 10 18 0 0
0.117687 0.522716 -0.615936 10 11 21 0 0
0.094987 0.527776 -0.632207 11 11 20 0 0
0.112523 0.528655 -0.637140 11 11 19 0 0
0.107472 0.523223 -0.615550 15 15 22 0 0
0.201649 0.407215 -0.555290 17 19 29 0 0
0.193654 0.427193 -0.563786 13 15 22 0 0
0.196741 0.426411 -0.551223 19 23 33 0 0
0.009784 0.587484 -0.801904 21 20 18 2 2
0.129930 0.610482 -0.711153 19 20 24 0 0
0.141069 0.627954 -0.739456 19 18 23 2 2
0.131949 0.615483 -0.725494 20 19 26 2 2
0.253057 0.444097 -0.461594 17 15 21 0 0
0.267226 0.454356 -0.456506 12 11 16 0 0
0.269432 0.444671 -0.471519 12 11 16 0 0
0.239868 0.435914 -0.471478 11 10 13 0 0
0.254937 0.443959 -0.472308 12 12 15 0 0
0.427951 0.406112 -0.816079 18 17 16 2 2
0.468847 0.413415 -0.822471 32 28 25 2 2
0.450649 0.399564 -0.821861 15 14 17 2 2
0.105655 0.718150 -0.441226 13 13 22 0 0
0.108244 0.730961 -0.447949 13 13 22 0 0
0.115943 0.706182 -0.425402 15 14 23 0 0
0.099380 0.720483 -0.443837 14 14 24 0 0
0.096606 0.714930 -0.445650 15 14 23 0 0
0.092789 0.720297 -0.443650 13 13 23 0 0
0.108194 0.717263 -0.429207 15 14 23 0 0
0.096769 0.722773 -0.427977 15 14 23 0 0
0.099093 0.726476 -0.447142 13 13 21 0 0
0.095976 0.720305 -0.416660 15 14 23 0 0
0.105081 0.714128 -0.437047 14 14 23 0 0
0.115097 0.714643 -0.441454 14 14 23 0 0
0.092607 0.718746 -0.436420 14 13 22 0 0
0.440305 0.668432 -0.454178 41 39 33 0 0
0.383822 0.808342 -0.531225 46 42 41 1 6
0.392121 0.822918 -0.527563 55 50 45 1 6
0.396946 0.798601 -0.529832 32 32 30 1 6
0.374586 0.830963 -0.532945 46 43 41 1 6
0.361678 0.822577 -0.543306 50 48 42 1 6
0.363269 0.810733 -0.539790 39 39 37 1 6
0.374248 0.802222 -0.537007 35 34 34 1 6
0.460020 0.591787 -0.440632 28 23 22 0 0
0.487667 0.604491 -0.438203 35 32 28 0 0
0.471728 0.620241 -0.435372 31 27 24 0 0
0.449709 0.607691 -0.437601 32 28 26 0 0
0.147515 0.554421 -0.730174 20 20 23 0 0
0.134892 0.586445 -0.713805 19 18 23 0 0
0.163851 0.571596 -0.735417 21 21 22 2 2
0.144368 0.560502 -0.723619 18 19 24 0 0
0.394388 0.883570 -0.543146 56 50 46 1 6
0.386391 0.866251 -0.544458 51 45 44 1 6
0.159464 0.518171 -0.706454 19 20 24 0 0
0.157359 0.525012 -0.735735 20 20 22 0 0
0.164533 0.497398 -0.735980 19 20 22 0 0
0.169426 0.497412 -0.712154 20 21 24 0 0
0.110741 0.366662 -0.814184 30 26 24 2 2
0.141222 0.358407 -0.813780 30 27 25 2 2
0.378523 0.856785 -0.538171 58 51 47 1 6
0.390161 0.852776 -0.537579 48 45 40 1 6
0.396463 0.858560 -0.538665 44 41 40 1 6
0.138837 0.749274 -0.402765 6 6 11 0 0
0.158398 0.758808 -0.405038 18 20 28 0 0
0.135332 0.754350 -0.398235 6 6 11 0 0
0.086545 0.532972 -0.645587 23 30 40 0 0
0.095047 0.549460 -0.651415 27 31 43 0 0
0.067983 0.538493 -0.654995 31 36 51 0 0
0.237254 0.827131 -0.392634 58 64 70 1 6
0.235138 0.843230 -0.398481 83 94 106 1 6
0.208927 0.843469 -0.395674 57 63 73 1 6
0.470600 0.571005 -0.456606 41 38 37 0 0
0.480746 0.556729 -0.456218 26 23 20 0 0
0.456210 0.560821 -0.456308 26 23 20 0 0
0.321112 0.483125 -0.456936 15 14 18 0 0
0.531745 0.342947 -0.815798 34 33 32 2 2
0.269193 0.855891 -0.409933 49 49 57 1 6
0.149310 0.692500 -0.419484 14 14 23 0 0
0.163117 0.697438 -0.436772 16 16 25 0 0
0.258036 0.873445 -0.414562 56 58 68 1 6
0.245976 0.878962 -0.412050 47 48 53 1 6
0.235279 0.861964 -0.402864 51 52 58 1 6
0.258674 0.851212 -0.405810 52 52 62 1 6
0.158976 0.682381 -0.435416 14 15 22 0 0
0.102340 0.519395 -0.805008 20 20 20 2 2
0.115921 0.533541 -0.804843 20 20 20 2 2
0.086138 0.582733 -0.657734 10 10 17 0 0
0.089575 0.593500 -0.661237 12 12 19 0 0
0.096334 0.601045 -0.674520 13 13 18 0 0
0.071661 0.591643 -0.671742 10 9 18 0 0
0.078421 0.599017 -0.668070 9 10 18 0 0
0.078087 0.614743 -0.671119 9 12 18 0 0
0.076683 0.602768 -0.664778 13 12 18 0 0
0.085322 0.615260 -0.672814 12 13 22 0 0
0.043482 0.791610 -0.628482 31 31 36 0 0
0.045551 0.791065 -0.637383 26 25 32 0 0
0.171814 0.821915 -0.516456 22 19 23 0 0
0.166108 0.821202 -0.525026 21 18 23 0 0
0.165812 0.810024 -0.510947 21 18 23 0 0
0.168800 0.814818 -0.519786 20 17 22 0 0
0.159109 0.831875 -0.517454 14 12 17 0 0
0.167989 0.830172 -0.535556 22 21 23 0 0
0.164941 0.824478 -0.519626 15 12 18 0 0
0.195068 0.431553 -0.496117 12 13 20 0 0
0.183170 0.462717 -0.502797 12 13 18 0 0
0.193015 0.465009 -0.509286 9 10 14 0 0
0.190157 0.447186 -0.501628 15 18 26 0 0
0.250052 0.905205 -0.402238 72 81 91 1 6
0.262196 0.899561 -0.403556 64 64 71 1 6
0.283294 0.904396 -0.400840 77 76 79 1 6
0.451862 0.903949 -0.498113 109 96 77 1 6
0.447293 0.896206 -0.516510 84 75 62 1 6
0.173473 0.836002 -0.475733 32 32 31 0 0
0.179599 0.854895 -0.479883 34 33 33 1 6
0.178638 0.860894 -0.464416 43 41 44 1 6
0.165224 0.829710 -0.464067 41 40 42 1 6
0.172642 0.842725 -0.472096 35 34 34 0 0
0.137466 0.668747 -0.784664 18 18 23 2 2
0.120834 0.665234 -0.776633 17 17 23 2 2
0.135756 0.666048 -0.775221 19 19 24 2 2
0.499301 0.702529 -0.454888 50 45 38 0 0
0.115937 0.572260 -0.798786 21 19 18 2 2
0.103543 0.586189 -0.799751 21 20 19 2 2
0.129956 0.593198 -0.778921 21 21 21 2 2
0.119196 0.588741 -0.792330 20 20 20 2 2
0.276760 0.485750 -0.450471 13 12 17 0 0
0.262172 0.501649 -0.451784 13 12 17 0 0
0.276329 0.511329 -0.461890 13 13 18 0 0
0.275735 0.499985 -0.455082 13 13 17 0 0
0.028786 0.699867 -0.791613 16 14 16 2 2
0.032211 0.718918 -0.790214 15 13 17 2 2
0.518991 0.397404 -0.820689 23 21 21 2 2
0.502394 0.408512 -0.822164 27 22 19 2 2
0.494995 0.390985 -0.829468 13 14 18 2 2
0.236308 0.875676 -0.550451 34 33 31 1 6
0.214695 0.875721 -0.568113 40 35 30 1 6
0.226872 0.878751 -0.558093 42 36 30 1 6
0.221176 0.870677 -0.562518 38 34 31 1 6
0.222046 0.861303 -0.550143 39 36 25 1 6
0.149213 0.504436 -0.799914 19 19 19 2 2
0.135492 0.542543 -0.797548 19 19 20 2 2
0.130406 0.521487 -0.804725 19 19 19 2 2
0.153143 0.512201 -0.794257 15 15 17 2 2
0.150214 0.533494 -0.783385 16 16 18 2 2
0.275220 0.462304 -0.750885 11 11 14 0 0
0.273508 0.468874 -0.769021 9 10 14 0 0
0.286629 0.457507 -0.741334 11 11 13 0 0
0.283059 0.469279 -0.746918 11 11 12 0 0
0.281239 0.461184 -0.754121 11 11 14 0 0
0.063119 0.764235 -0.456461 13 13 20 0 0
0.069892 0.776884 -0.459369 11 11 17 0 0
0.068167 0.769226 -0.473425 15 14 22 0 0
0.150571 0.511561 -0.570477 23 25 40 0 0
0.170350 0.470352 -0.571075 20 26 37 0 0
0.157739 0.492075 -0.565584 19 25 37 0 0
0.154611 0.507719 -0.560401 23 26 38 0 0
0.061782 0.747682 -0.583280 21 22 26 0 0
0.155800 0.529723 -0.715022 19 20 24 0 0
0.072008 0.715381 -0.655889 8 8 10 0 0
0.081084 0.737685 -0.661319 5 5 7 0 0
0.067550 0.740991 -0.665366 5 5 7 0 0
0.052443 0.727884 -0.666145 8 8 10 0 0
0.078068 0.725863 -0.660038 9 8 15 0 0
0.073733 0.742751 -0.677707 14 11 13 0 0
0.071120 0.730890 -0.660906 8 7 8 0 0
0.319276 0.476686 -0.461652 16 16 19 0 0
0.311947 0.459575 -0.458211 11 10 14 0 0
0.323410 0.472801 -0.462170 11 11 14 0 0
0.321522 0.457497 -0.462053 11 11 12 0 0
0.485441 0.893310 -0.406247 82 73 67 1 6
0.501132 0.895514 -0.420116 131 119 105 1 6
0.348084 0.836951 -0.543371 39 37 40 1 6
0.360424 0.847053 -0.540098 45 43 40 1 6
0.353998 0.831296 -0.541637 45 44 41 1 6
0.342424 0.579373 -0.441205 16 17 23 0 0
0.338432 0.601788 -0.447675 40 36 39 0 0
0.331416 0.593799 -0.451747 40 38 42 0 0
0.361923 0.589745 -0.451378 40 38 40 0 0
0.346249 0.596951 -0.452253 39 37 41 0 0
0.351963 0.590469 -0.442497 40 39 38 0 0
0.194674 0.476294 -0.523314 11 11 15 0 0
0.186602 0.471560 -0.510525 16 18 27 0 0
0.202222 0.854157 -0.523929 46 39 33 1 6
0.188413 0.860719 -0.529825 45 38 32 1 6
0.178208 0.858594 -0.520362 39 37 30 0 0
0.191149 0.862425 -0.542881 39 35 31 1 6
0.205670 0.466860 -0.743416 9 9 14 0 0
0.177457 0.478507 -0.763558 12 12 15 0 0
0.181072 0.469078 -0.744097 12 12 14 0 0
0.099129 0.742166 -0.794036 14 12 19 2 2
0.056959 0.746575 -0.786679 13 13 18 2 2
0.258418 0.452009 -0.804521 16 15 19 2 2
0.258083 0.436231 -0.809415 17 16 20 2 2
0.257081 0.828901 -0.563720 24 29 36 1 6
0.258514 0.821178 -0.561225 23 29 39 1 6
0.147737 0.616392 -0.783064 19 19 24 2 2
0.146696 0.633424 -0.782241 19 20 24 2 2
0.055892 0.738050 -0.701890 11 11 13 0 0
0.053781 0.751174 -0.688897 11 11 13 0 0
0.047592 0.736895 -0.677738 11 11 13 0 0
0.043146 0.748327 -0.692482 13 13 15 0 0
0.250140 0.516752 -0.449912 14 13 18 0 0
0.238066 0.515009 -0.449070 14 12 17 0 0
0.256110 0.810067 -0.407144 82 90 107 1 6
0.237063 0.812487 -0.407854 86 94 112 1 6
0.243313 0.810873 -0.397486 80 87 103 1 6
0.236698 0.805975 -0.385338 80 87 101 1 6
0.198175 0.611690 -0.461375 16 18 25 0 0
0.191776 0.631419 -0.467099 14 15 20 0 0
0.185215 0.625445 -0.470234 4 5 7 0 0
0.173802 0.634789 -0.474757 6 7 12 0 0
0.178175 0.617172 -0.473144 4 5 7 0 0
0.241580 0.907860 -0.571758 42 39 28 1 6
0.223856 0.907978 -0.577505 34 31 25 1 6
0.227034 0.888245 -0.572217 36 34 28 1 6
0.226520 0.897459 -0.568256 42 36 29 1 6
0.231818 0.891524 -0.558115 34 33 26 1 6
0.221262 0.848778 -0.507858 53 48 41 1 6
0.223831 0.846636 -0.493113 70 70 75 1 6
0.200053 0.838085 -0.438208 49 49 48 1 6
0.204655 0.827196 -0.428714 57 57 61 1 6
0.185593 0.831657 -0.438197 44 43 37 1 6
0.081515 0.668542 -0.583818 8 8 14 0 0
0.073306 0.676276 -0.608874 11 11 18 0 0
0.077088 0.669314 -0.603564 11 11 17 0 0
0.039163 0.748644 -0.682078 11 12 14 0 0
0.058761 0.756013 -0.681658 7 7 10 0 0
0.117519 0.599029 -0.539926 28 28 35 0 0
0.120850 0.588826 -0.534763 20 21 28 0 0
0.282707 0.588419 -0.463798 27 34 41 0 0
0.270912 0.612832 -0.463041 30 34 41 0 0
0.302009 0.621749 -0.463033 33 37 47 0 0
0.282831 0.598157 -0.461285 30 35 46 0 0
0.050094 0.720844 -0.658336 10 11 14 0 0
0.057378 0.734722 -0.648229 9 10 14 0 0
0.045606 0.743211 -0.650938 12 12 19 0 0
0.055678 0.748035 -0.641903 10 11 17 0 0
0.046896 0.729157 -0.667031 12 12 14 0 0
0.036864 0.751080 -0.666760 13 13 18 0 0
0.040203 0.749511 -0.655632 15 16 22 0 0
0.054322 0.739936 -0.670045 8 9 12 0 0
0.260274 0.907261 -0.596308 24 29 40 1 6
0.273593 0.907682 -0.571139 28 36 46 1 6
0.269989 0.904039 -0.590597 22 23 27 1 6
0.170612 0.888807 -0.402685 37 35 30 1 6
0.169312 0.896642 -0.393925 37 35 30 1 6
0.176453 0.873812 -0.399442 37 35 32 1 6
0.167296 0.865695 -0.392743 33 31 31 1 6
0.325263 0.901804 -0.553913 33 34 33 1 6
0.324154 0.891946 -0.563008 31 31 37 1 6
0.338065 0.883263 -0.559035 40 40 45 1 6
0.335135 0.896312 -0.566099 33 35 40 1 6
0.313066 0.892411 -0.565835 35 35 37 1 6
0.318699 0.896869 -0.576805 31 31 36 1 6
0.332434 0.893874 -0.573164 32 32 38 1 6
0.410401 0.906576 -0.468997 115 104 88 1 6
0.389085 0.911110 -0.482753 114 101 84 1 6
0.390286 0.905302 -0.466701 117 108 93 1 6
0.401382 0.905043 -0.462145 118 106 93 1 6
0.375972 0.906239 -0.479585 114 104 86 1 6
0.378105 0.536247 -0.796816 11 13 13 2 2
0.388057 0.525586 -0.801893 13 13 14 2 2
0.360030 0.527182 -0.794973 9 10 13 2 2
0.105617 0.625210 -0.496476 12 13 18 0 0
0.093804 0.648960 -0.503528 12 13 19 0 0
0.103815 0.626625 -0.506443 12 12 17 0 0
0.100756 0.644872 -0.493087 13 13 20 0 0
0.130239 0.549987 -0.531129 11 14 24 0 0
0.132517 0.539030 -0.525017 12 16 29 0 0
0.128493 0.551324 -0.518037 21 24 34 0 0
0.397152 0.888567 -0.411332 114 104 93 1 6
0.513588 0.609175 -0.462691 47 40 35 0 0
0.362585 0.503521 -0.804590 16 15 19 2 2
0.364297 0.521118 -0.802804 17 17 20 2 2
0.274896 0.911602 -0.528587 48 46 39 1 6
0.278865 0.909537 -0.536864 53 49 39 1 6
0.272187 0.915901 -0.541264 45 44 37 1 6
0.287523 0.909746 -0.519360 53 50 44 1 6
0.278229 0.917887 -0.523145 42 39 34 1 6
0.274298 0.917090 -0.513441 43 41 37 1 6
0.086734 0.646305 -0.611595 9 9 14 0 0
0.083254 0.652661 -0.589384 9 9 14 0 0
0.098401 0.653764 -0.606304 8 8 13 0 0
0.061428 0.724054 -0.548864 15 15 19 0 0
0.070188 0.737041 -0.522047 33 33 38 0 0
0.071478 0.750273 -0.527557 15 15 22 0 0
0.059986 0.727116 -0.536077 16 17 21 0 0
0.135044 0.506757 -0.612114 13 16 26 0 0
0.141589 0.517957 -0.630434 12 15 25 0 0
0.128988 0.536810 -0.651322 10 12 23 0 0
0.126931 0.525407 -0.627603 11 13 23 0 0
0.135245 0.528301 -0.633966 12 14 25 0 0
0.372419 0.478883 -0.810906 40 38 36 2 2
0.370837 0.438045 -0.812820 33 32 32 2 2
0.354662 0.470003 -0.810349 27 26 27 2 2
0.092178 0.576692 -0.663262 8 9 16 0 0
0.082126 0.574856 -0.658320 9 9 17 0 0
0.076751 0.563905 -0.664061 12 13 21 0 0
0.085988 0.564586 -0.657798 9 10 16 0 0
0.263880 0.576359 -0.454461 21 28 39 0 0
0.249433 0.560755 -0.454639 18 21 31 0 0
0.251662 0.581092 -0.451810 22 28 40 0 0
0.008786 0.558344 -0.802713 24 21 17 2 2
0.298444 0.867396 -0.485107 83 86 96 1 6
0.275980 0.845004 -0.502898 54 50 43 1 6
0.279043 0.860179 -0.505106 64 63 62 1 6
0.285189 0.878690 -0.507219 67 65 66 1 6
0.284710 0.853725 -0.483577 69 67 72 1 6
0.261654 0.831989 -0.458059 66 67 69 1 6
0.245782 0.834904 -0.484767 62 62 65 1 6
0.242746 0.813407 -0.463978 99 116 140 1 6
0.229234 0.831776 -0.457528 98 114 138 1 6
0.260972 0.820691 -0.464901 67 67 68 1 6
0.251528 0.818875 -0.469231 61 61 63 1 6
0.248911 0.831449 -0.474893 62 63 64 1 6
0.240331 0.829435 -0.474135 95 107 127 1 6
0.095519 0.599648 -0.571124 11 11 17 0 0
0.102821 0.595562 -0.566823 11 11 18 0 0
0.097989 0.607589 -0.562891 11 11 17 0 0
0.095943 0.588726 -0.561363 11 11 18 0 0
0.313574 0.462185 -0.808670 18 17 22 2 2
0.211766 0.813270 -0.407060 76 87 98 1 6
0.227010 0.815477 -0.405369 80 92 108 1 6
0.224388 0.809607 -0.396205 75 85 98 1 6
0.205362 0.813198 -0.398403 57 59 64 1 6
0.210476 0.803869 -0.391384 66 73 79 1 6
0.079095 0.783205 -0.789975 11 10 18 2 2
0.084611 0.806148 -0.799202 13 12 16 2 2
0.090265 0.798438 -0.798520 12 11 16 2 2
0.096803 0.792618 -0.788604 14 11 15 2 2
0.134507 0.545387 -0.557467 21 29 45 0 0
0.144489 0.529408 -0.554792 28 34 45 0 0
0.140298 0.531384 -0.569035 25 29 43 0 0
0.322044 0.455097 -0.807967 25 25 25 2 2
0.319954 0.437463 -0.810022 27 26 26 2 2
0.091820 0.666490 -0.614289 9 9 14 0 0
0.085977 0.428087 -0.810262 22 21 19 2 2
0.235604 0.838611 -0.516675 51 47 44 1 6
0.217619 0.852396 -0.524095 47 41 35 1 6
0.214427 0.847204 -0.537788 42 37 31 1 6
0.225168 0.844729 -0.535487 47 42 34 1 6
0.209931 0.428303 -0.635647 10 10 17 0 0
0.091263 0.765546 0.208637 253 243 227 0 0
0.116404 0.763909 0.201973 253 245 232 0 0
0.126245 0.743811 0.207268 254 245 232 0 0
0.185784 0.891529 -0.398426 41 40 38 1 6
0.136663 0.884465 0.355587 252 239 221 1 6
0.220385 0.493903 -0.223596 43 41 41 0 0
0.226588 0.480327 -0.217763 43 42 41 0 0
0.211624 0.469763 -0.214508 46 44 45 0 0
0.253837 0.468188 -0.223584 44 43 42 0 0
0.231331 0.488722 -0.223570 42 42 41 0 0
0.300398 0.653965 -0.083607 138 135 143 0 0
0.292320 0.661034 -0.075892 166 166 178 0 0
0.010445 0.360499 -0.052087 241 230 240 0 0
0.125773 0.749182 -0.230965 64 40 38 0 0
0.120890 0.770389 -0.228783 47 31 31 0 0
0.124609 0.740282 -0.224718 65 41 37 0 0
0.125567 0.752983 -0.220129 45 30 31 0 0
0.487277 0.888338 0.029673 166 152 136 1 6
0.493977 0.889956 0.044325 188 171 154 1 6
0.627959 0.894107 -0.018432 142 128 114 1 6
0.537391 0.893389 -0.224666 157 142 118 1 6
0.541936 0.891989 -0.206264 161 142 123 1 6
0.566392 0.891887 -0.213963 159 141 119 1 6
0.563576 0.892090 -0.195279 161 143 122 1 6
0.347023 0.889576 -0.152662 115 122 131 1 6
0.356713 0.894508 -0.135635 117 124 133 1 6
0.353949 0.892992 -0.115907 121 124 131 1 6
0.357574 0.896680 -0.145780 119 123 133 1 6
0.073843 0.771403 -0.241640 13 11 17 0 0
-0.001368 0.405530 -0.071372 249 240 244 14 5
0.010512 0.427325 -0.068627 229 226 240 14 5
0.402687 0.905379 0.010636 181 170 158 1 6
0.406401 0.890123 0.008084 197 183 172 1 6
0.386230 0.906050 0.000264 172 164 156 1 6
0.132387 0.480616 -0.059194 175 168 182 0 0
0.130287 0.473887 -0.064028 178 172 186 14 5
0.108407 0.470483 -0.059562 174 168 182 0 0
0.140732 0.451414 -0.065073 198 192 204 14 5
0.560352 0.900360 -0.085400 178 156 131 1 6
0.568070 0.896005 -0.063262 178 155 131 1 6
0.328506 0.881087 -0.163286 112 119 132 1 6
0.327880 0.875552 -0.149479 111 118 130 1 6
0.337569 0.883024 -0.147372 113 120 129 1 6
0.337008 0.880178 -0.130803 115 119 127 1 6
0.318058 0.860533 -0.162358 114 119 135 1 6
0.328746 0.872444 -0.129446 110 115 123 1 6
0.170478 0.601102 0.204104 255 253 250 0 0
0.186918 0.607939 0.204215 254 252 249 0 0
0.123092 0.851752 -0.233838 33 32 37 0 0
0.134884 0.846410 -0.223241 32 34 39 0 0
0.226044 0.588068 0.195113 255 254 251 0 0
0.093351 0.780366 0.206950 253 242 229 0 0
0.270932 0.817050 0.158326 191 190 191 0 0
0.290142 0.810933 0.184717 253 245 248 0 0
0.269819 0.811508 0.190695 254 249 252 0 0
0.452854 0.891965 0.015743 193 178 159 1 6
0.468248 0.891006 0.062111 198 185 169 1 6
0.458009 0.891760 0.043239 199 181 165 1 6
0.473246 0.891655 0.028996 194 178 163 1 6
0.550456 0.894227 -0.246405 156 138 117 1 6
0.303280 0.905914 -0.311867 89 87 86 1 6
0.228287 0.644908 -0.115208 109 115 132 0 0
0.220249 0.630210 -0.118762 97 105 122 0 0
0.219619 0.643464 -0.119119 111 117 135 0 0
0.236712 0.884312 0.211362 255 253 254 1 6
0.292599 0.772564 0.062953 116 100 89 0 0
0.238992 0.882235 -0.177973 101 108 126 1 6
0.227728 0.870647 -0.174814 96 105 123 1 6
0.215349 0.847213 -0.176140 87 95 109 1 6
0.226165 0.881492 -0.185098 91 102 117 1 6
0.218168 0.857887 -0.183807 83 90 108 1 6
0.351495 0.897290 -0.301291 101 101 104 1 6
0.357423 0.892635 -0.305190 103 101 102 1 6
0.369988 0.890610 -0.319864 108 106 107 1 6
0.059716 0.797900 -0.256720 18 14 19 0 0
0.061672 0.786705 -0.247093 18 16 20 0 0
0.050871 0.808658 -0.259727 20 17 20 0 0
0.057452 0.839542 0.207868 255 241 223 0 0
0.063058 0.821989 0.197375 253 246 233 0 0
0.053707 0.815787 0.201670 253 240 226 0 0
0.050819 0.824442 0.194944 252 243 229 0 0
0.652431 0.290483 0.124951 54 47 49 5 7
0.166800 0.886924 0.290710 253 239 222 1 6
0.151378 0.885902 0.312506 252 239 222 1 6
0.460040 0.892524 -0.015280 194 178 152 1 6
0.453160 0.893976 -0.030550 194 173 155 1 6
0.255676 0.885331 0.452665 251 236 216 1 6
0.243920 0.882226 0.466803 251 236 216 1 6
0.295841 0.781023 0.073064 139 124 120 0 0
0.289665 0.782778 0.080770 121 105 91 0 0
0.303924 0.850263 0.032267 118 104 83 0 0
0.385843 0.907747 0.068925 200 186 177 1 6
0.363139 0.898120 0.031773 197 184 174 1 6
0.381304 0.905285 0.015095 188 178 169 1 6
0.709682 0.262615 0.126018 59 54 56 5 7
0.448237 0.885591 0.186406 237 229 242 1 6
0.210278 0.865433 0.197963 254 243 228 0 0
0.168830 0.843459 0.199033 252 243 227 0 0
0.385911 0.891354 0.379451 243 227 211 1 6
0.377695 0.889226 -0.294334 107 107 112 1 6
0.358381 0.889685 -0.289962 106 106 110 1 6
0.372238 0.887292 -0.278388 109 113 122 1 6
0.355453 0.893520 -0.267406 105 108 115 1 6
0.342634 0.899288 -0.284897 101 104 110 1 6
0.124029 0.668047 0.198717 255 254 249 0 0
0.124249 0.648299 0.194106 255 255 255 0 0
0.751053 0.279708 0.120627 113 101 100 5 7
0.752843 0.256492 0.120736 39 37 41 5 7
0.732302 0.274843 0.122800 135 122 120 5 7
0.032581 0.396967 -0.077581 168 183 200 14 5
0.019668 0.398858 -0.081159 187 194 213 14 5
0.010538 0.394466 -0.075224 177 182 202 14 5
0.386111 0.889457 0.486259 244 228 211 1 6
0.378903 0.887818 0.511810 247 228 211 1 6
0.393477 0.888682 0.496488 245 227 209 1 6
0.113619 0.885157 0.344784 250 238 221 1 6
0.076172 0.883655 0.343761 250 238 221 1 6
0.184179 0.484909 -0.114483 90 68 69 0 0
0.182495 0.479639 -0.120441 83 67 67 0 0
0.289096 0.595827 -0.007017 204 201 220 0 0
0.281095 0.586302 0.013949 213 214 234 0 0
0.278888 0.587608 -0.008244 214 215 235 0 0
0.298767 0.605139 0.011159 191 188 202 0 0
0.159553 0.882647 0.443448 252 237 218 1 6
0.179861 0.879407 0.460710 253 238 219 1 6
0.367037 0.900534 0.092735 202 189 177 1 6
0.097270 0.886463 0.232362 254 244 225 1 6
0.080899 0.885505 0.249665 254 244 224 1 6
0.272100 0.907613 -0.348702 116 117 121 1 6
0.264062 0.905374 -0.346732 66 63 63 1 6
0.258869 0.900347 -0.330778 53 50 47 1 6
0.252106 0.893144 -0.317113 67 67 65 1 6
0.276936 0.904199 -0.312280 81 77 73 1 6
0.772630 0.249066 0.116010 37 35 39 5 7
0.751566 0.246689 0.116180 35 32 38 5 7
0.763364 0.266265 0.120724 125 112 111 5 7
0.781704 0.255790 0.117955 54 48 51 5 7
0.791821 0.258629 0.117364 98 89 89 5 7
0.792624 0.242095 0.112435 45 42 45 5 7
0.419230 0.891777 0.238256 242 235 251 1 6
0.625344 0.309618 0.117012 47 43 42 5 7
0.093937 0.436714 -0.052878 174 165 183 0 0
0.087508 0.460622 -0.054717 165 156 175 0 0
0.087554 0.429795 -0.065784 172 168 182 14 5
0.106138 0.423966 -0.065314 145 139 154 14 5
0.339841 0.901382 -0.307845 98 94 91 1 6
0.327573 0.906878 -0.310314 96 93 91 1 6
0.321604 0.900147 -0.283889 93 89 90 1 6
0.321070 0.904425 -0.323372 95 90 87 1 6
0.514740 0.888923 -0.091527 179 158 138 1 6
0.519651 0.889603 -0.078901 178 158 131 1 6
0.542693 0.894192 -0.090109 174 153 130 1 6
0.291062 0.771671 0.047328 125 109 100 0 0
0.228574 0.574169 0.096548 228 226 246 0 0
0.255539 0.580507 0.074868 227 224 243 0 0
0.076637 0.885513 0.223421 254 244 226 1 6
0.057752 0.882602 0.252395 253 243 222 1 6
0.065728 0.884198 0.235876 253 243 223 1 6
0.189291 0.885588 -0.221163 67 63 74 1 6
0.218088 0.886710 -0.197479 74 80 94 1 6
0.205895 0.880290 -0.207018 71 76 88 1 6
0.186928 0.862028 -0.210878 73 71 82 1 6
0.179498 0.790447 -0.341145 24 24 27 0 0
0.183171 0.777354 -0.336748 33 33 34 0 0
0.173404 0.792521 -0.330675 36 36 37 0 0
0.552499 0.893749 -0.339423 147 130 114 1 6
0.551767 0.890874 -0.314998 149 133 116 1 6
0.834564 0.249283 -0.013105 174 162 157 5 7
0.837332 0.259777 -0.015982 122 113 110 5 7
0.270362 0.896354 -0.208652 96 104 121 1 6
0.250874 0.895302 -0.214606 93 101 119 1 6
0.274395 0.903717 -0.225112 96 102 116 1 6
0.274182 0.902470 -0.197878 99 106 122 1 6
0.243769 0.900424 -0.229651 85 93 103 1 6
0.188469 0.897207 -0.229552 63 60 62 1 6
0.200458 0.897003 -0.245235 62 62 62 1 6
0.196370 0.891915 -0.250374 61 60 58 1 6
0.210927 0.904851 -0.260586 68 68 66 1 6
0.195705 0.893300 -0.241796 66 66 64 1 6
0.172926 0.604123 -0.131061 94 74 77 0 0
0.411669 0.891040 0.478737 243 227 207 1 6
0.390340 0.891147 0.457676 244 227 209 1 6
0.400798 0.891368 0.443409 244 227 208 1 6
0.107288 0.876567 0.555488 251 236 218 1 6
0.164772 0.803578 -0.324877 33 33 33 0 0
0.164128 0.819512 -0.322123 29 29 31 0 0
0.318645 0.908851 -0.359117 72 72 74 1 6
0.330515 0.905497 -0.358963 74 72 70 1 6
0.336252 0.904521 -0.321344 98 94 91 1 6
0.328790 0.905810 -0.336709 96 92 87 1 6
0.810155 0.245541 0.109431 234 220 218 5 7
0.819244 0.264058 0.111569 236 221 216 5 7
0.826416 0.276420 0.108149 236 222 219 5 7
0.196755 0.878843 0.558516 251 236 217 1 6
0.207684 0.880633 0.555146 251 236 216 1 6
0.211991 0.881614 0.575808 251 235 218 1 6
0.179756 0.879981 0.570799 252 237 217 1 6
0.235333 0.420915 -0.229556 34 33 33 0 0
0.339705 0.882364 -0.087517 123 124 130 1 6
0.327754 0.878393 -0.086641 117 116 115 1 6
0.311548 0.882775 -0.079028 121 118 118 1 6
0.310172 0.866652 -0.091186 121 119 119 1 6
0.321080 0.882959 -0.065731 118 115 113 1 6
0.342685 0.885771 -0.069635 125 125 129 1 6
0.353018 0.893320 -0.094715 123 124 129 1 6
0.337817 0.884154 -0.099583 122 122 129 1 6
0.186027 0.573817 -0.075735 122 121 142 0 0
0.197780 0.574044 -0.061162 102 104 124 0 0
0.150740 0.567515 0.160751 235 232 238 0 0
0.131279 0.565829 0.170749 251 249 252 0 0
0.166957 0.397143 -0.111093 75 66 65 0 0
0.152726 0.383611 -0.108941 60 56 60 0 0
0.170500 0.385506 -0.116570 68 57 57 0 0
0.234576 0.892227 -0.317107 66 63 61 1 6
0.237673 0.895696 -0.290520 68 68 64 1 6
0.221602 0.895042 -0.307367 67 65 61 1 6
0.220001 0.894446 -0.315587 62 61 57 1 6
0.245445 0.893475 -0.299206 70 70 69 1 6
0.219738 0.887863 -0.291870 67 64 62 1 6
0.435491 0.891432 0.383238 244 227 207 1 6
0.445599 0.891340 0.405204 242 227 206 1 6
0.415801 0.889988 0.395868 242 226 209 1 6
0.233404 0.880850 0.551614 250 235 216 1 6
0.826823 0.238518 -0.002919 185 171 167 5 7
0.836033 0.257357 0.009491 221 206 200 5 7
0.838074 0.272184 0.005992 229 211 209 5 7
0.322961 0.857556 0.138118 164 149 138 0 0
0.329115 0.867909 0.154298 219 206 199 0 0
0.325372 0.849172 0.150124 196 180 160 0 0
0.306384 0.650972 0.006025 128 117 116 0 0
0.305938 0.651798 0.020363 140 132 131 0 0
0.035774 0.545045 0.148234 55 52 60 0 0
0.050318 0.545956 0.143458 152 149 159 0 0
0.284010 0.321640 -0.217630 40 35 37 0 0
0.298990 0.315711 -0.218964 39 38 40 0 0
0.225203 0.785704 0.195154 251 243 237 0 0
0.218745 0.804021 0.194726 252 243 235 0 0
0.215588 0.791380 0.196669 252 242 229 0 0
0.192929 0.793064 0.197897 251 242 228 0 0
0.156984 0.817881 0.181165 252 242 224 0 0
0.167799 0.792530 0.185549 253 244 232 0 0
0.139590 0.807651 0.185613 251 241 225 0 0
0.168552 0.812837 0.176967 246 238 223 0 0
0.149805 0.812369 0.176413 251 241 226 0 0
0.161388 0.799125 0.192740 253 244 232 0 0
0.127798 0.868028 0.205194 254 243 224 0 0
0.141190 0.882624 0.208722 255 244 224 0 0
0.122535 0.884208 0.214566 254 244 225 1 6
0.567966 0.890262 -0.319084 149 135 116 1 6
0.284003 0.619272 -0.106525 129 131 146 0 0
0.154256 0.560504 0.139379 193 190 205 0 0
0.028991 0.562861 0.199135 255 255 255 0 0
0.012860 0.558700 0.191070 255 255 255 0 0
0.035821 0.569667 0.207241 255 255 249 0 0
0.020320 0.583645 0.213706 254 254 247 0 0
0.244109 0.431520 -0.210701 40 39 38 0 0
0.255658 0.441480 -0.215647 53 53 51 0 0
0.182853 0.848102 -0.203163 82 68 69 1 6
0.174704 0.843001 -0.199592 89 71 72 1 6
0.179707 0.846962 -0.209981 90 72 75 1 6
0.342598 0.885892 0.087346 166 160 151 1 6
0.327128 0.880500 0.076331 157 148 140 1 6
0.446450 0.893560 -0.009510 196 178 159 1 6
0.468864 0.892210 0.007938 162 150 139 1 6
0.476733 0.888810 0.011231 195 177 156 1 6
0.415849 0.885760 -0.354584 123 112 95 1 6
0.429355 0.887067 -0.338653 128 116 101 1 6
0.431964 0.888397 -0.345610 124 113 99 1 6
0.426142 0.886590 -0.324106 128 117 107 1 6
0.441171 0.887657 -0.335749 128 116 101 1 6
0.301012 0.785434 0.091357 133 119 111 0 0
0.301897 0.802153 0.066193 141 128 122 0 0
0.171084 0.416447 -0.113624 76 62 63 0 0
0.167897 0.412838 -0.105452 74 63 65 0 0
0.172075 0.437863 -0.106660 74 62 62 0 0
0.174139 0.430348 -0.114820 73 60 62 0 0
0.194347 0.816745 -0.386924 44 41 44 1 6
0.150035 0.561119 -0.029115 222 227 253 0 0
0.164438 0.860322 -0.329374 37 36 37 0 0
0.163514 0.837072 -0.328585 27 26 29 0 0
0.166460 0.843349 -0.325562 36 34 33 0 0
0.069573 0.548704 0.056246 237 239 254 0 0
0.083568 0.551357 0.063176 236 238 253 0 0
0.269921 0.584440 0.084618 224 222 238 0 0
0.080327 0.875040 0.211681 255 243 225 0 0
0.368740 0.904120 -0.070351 157 156 151 1 6
0.366536 0.902630 -0.041272 146 143 140 1 6
0.504268 0.892906 -0.206531 152 136 118 1 6
0.490413 0.890610 -0.229874 151 135 115 1 6
0.486018 0.890238 -0.197583 158 140 120 1 6
0.132261 0.578224 0.200814 255 255 254 0 0
0.130818 0.588717 0.205846 254 255 251 0 0
0.110894 0.599505 0.208471 251 248 241 0 0
0.256551 0.670376 0.198621 254 251 249 0 0
0.598221 0.897799 0.022351 188 169 148 1 6
0.584904 0.897931 0.022388 191 172 151 1 6
0.314684 0.644818 0.103419 154 146 144 0 0
0.307281 0.648005 0.097778 155 142 137 0 0
0.430657 0.890417 -0.272474 132 123 116 1 6
0.413306 0.887464 -0.270665 136 127 120 1 6
0.433119 0.888424 -0.297979 136 126 117 1 6
0.266436 0.877817 0.357824 253 247 254 1 6
0.263682 0.879933 0.368747 254 245 241 1 6
0.269583 0.887780 0.385983 251 239 225 1 6
0.282392 0.884413 0.371261 251 239 226 1 6
0.170870 0.815778 -0.304177 35 32 30 0 0
0.168532 0.800933 -0.300680 34 31 29 0 0
0.123754 0.846781 0.202775 255 244 225 0 0
0.081212 0.559054 0.169173 254 254 254 0 0
0.092796 0.561221 0.175165 255 254 255 0 0
0.097551 0.878945 0.483566 252 237 218 1 6
0.100404 0.884601 0.359733 252 238 219 1 6
0.083060 0.882443 0.385911 252 238 219 1 6
0.398526 0.890392 0.353993 254 246 254 1 6
0.051133 0.364664 -0.051065 233 237 251 0 0
0.219095 0.571400 0.063689 230 228 246 0 0
0.343500 0.895819 0.154963 220 207 202 1 6
0.350888 0.887446 0.134597 213 198 183 1 6
0.362423 0.899317 0.139303 214 201 189 1 6
0.185867 0.602481 -0.131431 92 77 76 0 0
0.183710 0.613756 -0.128932 98 77 78 0 0
0.172298 0.623585 -0.129404 102 80 80 0 0
0.206815 0.637535 -0.125970 72 71 77 0 0
0.196761 0.617898 -0.127314 82 72 78 0 0
0.188306 0.624451 -0.124543 83 74 77 0 0
0.263789 0.583750 0.043623 222 222 240 0 0
0.151940 0.485582 -0.055136 225 215 225 0 0
0.163025 0.488329 -0.058976 219 208 219 0 0
0.163753 0.502283 -0.063229 207 196 207 0 0
0.219873 0.572020 0.151544 236 231 236 0 0
0.259302 0.580405 0.143430 226 222 231 0 0
0.347045 0.882280 0.589299 249 231 211 1 6
0.377617 0.882042 0.597496 248 233 213 1 6
0.545372 0.889072 0.070443 204 190 175 1 6
0.559608 0.891477 0.060576 200 183 168 1 6
0.554727 0.888505 0.084866 205 189 175 1 6
0.574120 0.892901 0.079634 205 189 173 1 6
0.317416 0.882110 0.576472 249 233 215 1 6
0.316471 0.881751 0.549471 248 233 214 1 6
0.337871 0.883772 0.573009 248 233 213 1 6
0.196985 0.807806 -0.389658 44 44 49 1 6
0.258121 0.589775 -0.064656 175 176 199 0 0
0.540825 0.878741 0.161040 218 211 218 1 6
0.535827 0.890189 0.131838 175 166 159 1 6
0.517369 0.888853 0.142691 204 196 201 1 6
0.191197 0.590273 0.200532 254 254 252 0 0
0.209728 0.576754 0.189924 254 254 253 0 0
0.172184 0.574529 0.191526 255 253 255 0 0
0.188151 0.581923 0.196739 254 254 254 0 0
0.064974 0.595637 0.211304 255 255 248 0 0
0.062505 0.619477 0.213359 255 253 242 0 0
0.068608 0.488426 -0.079942 190 190 208 14 5
0.075450 0.500546 -0.075234 184 183 202 14 5
0.062433 0.491472 -0.092433 158 160 178 14 5
0.080021 0.503556 -0.071164 178 169 186 14 5
0.085069 0.489732 -0.084935 166 167 183 14 5
0.090232 0.500727 -0.085380 159 150 165 14 5
0.078663 0.486505 -0.082632 191 193 206 14 5
0.090034 0.509686 -0.096052 137 138 157 14 5
0.077535 0.490179 -0.095206 215 211 229 14 5
0.262186 0.882925 0.539721 249 234 214 1 6
0.278441 0.882826 0.520077 250 235 215 1 6
0.262171 0.883362 0.516954 250 235 215 1 6
0.250091 0.881850 0.520913 249 235 215 1 6
0.444882 0.890471 -0.273901 136 124 113 1 6
0.467800 0.891254 -0.262759 137 125 112 1 6
0.464261 0.891662 -0.281456 135 122 111 1 6
0.450519 0.890792 -0.292280 134 121 113 1 6
0.335055 0.887820 -0.060625 127 124 126 1 6
0.325106 0.885451 -0.044991 127 121 119 1 6
0.340376 0.891792 -0.038944 131 130 128 1 6
0.509886 0.892242 -0.271516 147 132 113 1 6
0.501540 0.892088 -0.283815 144 130 113 1 6
0.303677 0.862082 0.008220 146 137 134 1 6
0.308482 0.864038 0.021849 149 140 139 1 6
0.123222 0.726886 -0.280874 10 10 13 0 0
0.110804 0.725589 -0.282509 10 10 13 0 0
0.101590 0.718142 -0.278456 13 13 16 0 0
0.100438 0.733828 -0.264136 21 18 22 0 0
0.112153 0.720919 -0.273538 12 11 16 0 0
0.105571 0.732617 -0.267172 16 15 19 0 0
0.099529 0.729868 -0.290937 12 13 15 0 0
0.090140 0.726388 -0.262754 22 19 22 0 0
0.500781 0.883175 0.285618 226 218 231 1 6
0.481311 0.881904 0.270646 239 229 245 1 6
0.468453 0.882700 0.259416 240 233 247 1 6
0.343751 0.364748 -0.225459 48 47 49 0 0
0.342713 0.368080 -0.239256 71 70 70 0 0
0.340240 0.356667 -0.234706 78 76 76 0 0
0.323147 0.340133 -0.239688 56 55 58 0 0
0.296304 0.593281 0.084478 222 220 238 0 0
0.276081 0.585728 0.071678 222 221 240 0 0
0.148546 0.888393 0.262497 253 243 225 1 6
0.179492 0.887100 0.281867 253 240 223 1 6
0.167314 0.887425 0.251802 253 241 224 1 6
0.730280 0.253211 0.119192 61 56 58 5 7
0.728485 0.262132 0.122588 60 55 58 5 7
0.712378 0.282689 0.124724 70 64 66 5 7
0.075738 0.816574 0.180385 239 232 226 0 0
0.103261 0.810339 0.182829 254 245 229 0 0
0.317559 0.873553 0.020758 141 132 128 1 6
0.323072 0.876013 0.000629 137 128 123 1 6
0.316014 0.870320 0.034932 135 127 120 1 6
0.337251 0.883141 0.006172 137 131 127 1 6
0.329824 0.881470 0.025570 139 134 130 1 6
0.329430 0.878333 -0.012953 136 131 129 1 6
0.193160 0.639267 0.179055 250 246 240 0 0
0.176938 0.637598 0.185286 239 235 229 0 0
0.288555 0.665573 0.197231 245 240 239 0 0
0.300259 0.667377 0.193703 239 226 231 0 0
0.567751 0.893049 -0.162310 164 145 120 1 6
0.171291 0.435608 -0.074151 188 170 178 0 0
0.168091 0.455265 -0.068078 220 205 214 14 5
0.162373 0.471695 -0.070381 195 187 193 14 5
0.146909 0.469657 -0.068410 203 196 204 14 5
0.167540 0.445058 -0.094800 129 119 124 0 0
0.310053 0.781468 0.136722 145 132 123 0 0
0.315659 0.797968 0.138434 160 146 135 0 0
0.316978 0.786761 0.143903 159 145 137 0 0
0.729886 0.293114 0.120760 133 122 120 5 7
0.720900 0.304953 0.118533 123 115 111 5 7
0.701858 0.308875 0.119127 63 58 59 5 7
0.380840 0.890052 0.405867 244 226 209 1 6
0.369362 0.890539 0.382243 244 226 209 1 6
0.365237 0.890363 0.408618 243 227 205 1 6
0.383419 0.890919 0.423351 244 227 208 1 6
0.306416 0.883355 0.493868 249 234 213 1 6
0.328233 0.884872 0.489357 248 233 214 1 6
0.335180 0.887381 0.473097 248 231 212 1 6
0.186945 0.889248 0.261835 254 243 227 1 6
0.113692 0.876768 0.586352 253 237 219 1 6
0.129647 0.877255 0.596132 253 238 219 1 6
0.214964 0.402929 -0.211245 38 35 38 0 0
0.230080 0.378277 -0.201247 36 34 36 0 0
0.217052 0.393604 -0.201045 34 33 35 0 0
0.208821 0.882927 0.432952 252 238 219 1 6
0.186480 0.883937 0.428398 252 237 218 1 6
0.284303 0.886052 0.302118 241 232 246 1 6
0.492842 0.873081 0.166953 151 146 152 1 6
0.234792 0.886141 0.399188 252 237 218 1 6
0.218136 0.885077 0.393691 252 237 218 1 6
0.246282 0.885848 0.416599 251 236 217 1 6
0.163545 0.786527 -0.282350 46 40 36 0 0
0.233900 0.645245 0.200435 254 248 242 0 0
0.240498 0.621331 0.200075 254 253 249 0 0
0.389769 0.909688 -0.062517 167 154 137 1 6
0.398115 0.899885 -0.058560 187 187 174 1 6
0.394391 0.912498 -0.043111 182 182 169 1 6
0.401483 0.902033 -0.031745 190 173 152 1 6
0.406384 0.897516 -0.064954 188 169 149 1 6
0.406521 0.895844 -0.044279 189 172 150 1 6
0.343714 0.888811 0.418685 244 229 211 1 6
0.355024 0.889816 0.435355 244 228 210 1 6
0.360239 0.889068 0.423174 243 226 210 1 6
0.091770 0.552047 0.022997 230 234 254 0 0
0.557752 0.892505 0.332925 229 221 236 1 6
0.566824 0.896204 0.315612 238 228 242 1 6
0.314712 0.651224 0.049938 139 131 126 0 0
0.309834 0.651858 0.044279 148 138 138 0 0
0.312971 0.648606 0.022481 138 129 127 0 0
0.307197 0.649352 0.059071 152 142 141 0 0
0.305997 0.653603 0.071272 222 225 232 0 0
0.566902 0.893458 -0.046630 181 163 139 1 6
0.133353 0.816531 0.178459 253 245 228 0 0
0.123362 0.811258 0.183590 251 241 225 0 0
0.128220 0.823258 0.180564 252 241 225 0 0
0.112809 0.804567 0.173869 238 233 223 0 0
0.119070 0.818053 0.176894 253 246 235 0 0
0.125830 0.807598 0.191502 252 242 231 0 0
0.497873 0.889544 -0.119933 176 157 134 1 6
0.489848 0.890442 -0.136390 173 151 129 1 6
0.486959 0.888410 -0.113550 179 159 136 1 6
0.191231 0.572153 -0.086273 191 187 206 0 0
0.187821 0.567101 -0.093422 194 184 200 0 0
0.111963 0.879146 0.502273 252 237 218 1 6
0.087087 0.877013 0.503365 252 237 218 1 6
0.315750 0.853348 -0.157197 118 122 138 1 6
0.320356 0.858728 -0.136392 107 109 119 1 6
0.308340 0.842059 -0.148431 131 134 151 1 6
0.308408 0.852170 -0.159424 125 128 145 1 6
0.309856 0.844276 -0.135950 119 118 129 1 6
0.248383 0.374529 -0.202232 37 36 34 0 0
0.232924 0.392170 -0.217394 39 37 40 0 0
0.228922 0.386761 -0.217589 37 38 37 0 0
0.603693 0.893084 0.145763 188 178 167 1 6
0.593578 0.894445 0.139508 193 183 170 1 6
0.082520 0.673804 0.211748 252 247 236 0 0
0.058832 0.651357 0.203276 254 254 248 0 0
0.323962 0.894043 0.291812 248 243 254 1 6
0.412489 0.894084 -0.191857 137 127 118 1 6
0.448120 0.892049 -0.200127 140 129 115 1 6
0.435983 0.891335 -0.208588 138 128 115 1 6
0.422446 0.890039 -0.222114 134 127 122 1 6
0.237047 0.786057 0.177668 252 242 237 0 0
0.242794 0.805770 0.164079 247 246 247 0 0
0.234857 0.782591 0.186969 254 248 244 0 0
0.247428 0.794757 0.181564 255 250 246 0 0
0.254832 0.815345 0.166852 239 238 238 0 0
0.250134 0.788959 0.175781 239 238 239 0 0
0.241310 0.808216 0.169040 254 250 248 0 0
0.260338 0.795090 0.179270 254 250 246 0 0
0.237841 0.798309 0.183357 253 247 241 0 0
0.256436 0.778012 0.185413 254 250 248 0 0
0.283019 0.725810 0.193857 254 250 251 0 0
0.273824 0.696173 0.197209 248 244 244 0 0
0.144202 0.880819 0.456877 253 238 219 1 6
0.537317 0.892915 -0.366574 138 126 111 1 6
0.545560 0.893046 -0.374462 140 125 110 1 6
0.555074 0.893507 -0.351119 143 129 111 1 6
0.351233 0.885181 0.011124 153 148 145 1 6
0.324810 0.354883 -0.243305 94 98 106 0 0
0.307109 0.355405 -0.248642 96 97 106 0 0
0.299544 0.326449 -0.243981 78 78 83 0 0
0.288799 0.334087 -0.245319 70 67 66 0 0
0.318330 0.324322 -0.225416 46 45 47 0 0
0.316939 0.334401 -0.241848 73 77 82 0 0
0.423553 0.886728 0.554395 247 230 212 1 6
0.666592 0.264284 0.124725 35 32 39 5 7
0.298145 0.845668 0.007193 111 97 81 0 0
0.299712 0.834881 0.012506 139 128 122 0 0
0.301187 0.852667 0.021360 139 127 120 0 0
0.454097 0.889689 0.288499 237 218 233 1 6
0.448448 0.891104 0.255429 252 246 253 1 6
0.572616 0.889726 -0.032019 184 162 138 1 6
0.541171 0.890910 -0.044869 184 163 139 1 6
0.553205 0.891552 -0.048680 182 161 136 1 6
0.545007 0.893323 -0.067618 179 160 134 1 6
0.405972 0.883732 -0.368798 115 108 106 1 6
0.394686 0.881029 -0.374338 107 103 102 1 6
0.376187 0.877305 -0.365165 104 101 99 1 6
0.287183 0.739289 0.188188 254 253 246 0 0
0.105923 0.816743 0.193692 252 244 231 0 0
0.096297 0.814712 0.197441 253 244 231 0 0
0.086724 0.822361 0.197285 253 243 230 0 0
0.076364 0.817934 0.196617 253 246 232 0 0
0.115814 0.809652 0.189987 254 247 236 0 0
0.093494 0.818125 0.192637 254 247 236 0 0
0.097107 0.832436 0.205223 254 242 223 0 0
0.514264 0.886854 0.365168 247 237 246 1 6
0.525243 0.888136 0.359066 247 236 251 1 6
0.794120 0.291409 0.110653 82 73 74 5 7
0.281099 0.833938 0.188887 254 251 252 0 0
0.266009 0.840258 0.190822 255 253 254 0 0
0.343582 0.886580 0.035321 152 148 146 1 6
0.353247 0.890098 0.044032 160 156 150 1 6
0.354638 0.889220 0.060159 168 160 155 1 6
0.343936 0.885423 0.050398 157 151 146 1 6
0.329812 0.885920 0.457064 246 230 211 1 6
0.309036 0.410689 -0.239881 80 74 65 0 0
0.306070 0.390639 -0.242069 83 74 66 0 0
0.333148 0.408515 -0.239511 88 78 70 0 0
0.304622 0.649953 -0.054246 115 110 115 0 0
0.297259 0.657285 -0.066923 147 144 156 0 0
0.432394 0.891242 0.038849 200 186 172 1 6
0.416732 0.893855 0.031731 200 186 175 1 6
0.409497 0.893702 0.041712 201 187 174 1 6
0.292739 0.655909 -0.049769 164 165 173 0 0
0.436326 0.891062 0.052467 202 189 175 1 6
0.305825 0.891243 0.260342 246 237 251 1 6
0.301910 0.889590 0.289999 245 237 250 1 6
0.280233 0.888384 0.268267 248 240 252 1 6
0.094860 0.736139 -0.242587 13 11 21 0 0
0.096170 0.734393 -0.254195 25 25 30 0 0
0.008155 0.563432 0.203087 255 255 255 0 0
0.294771 0.593240 0.069773 192 186 200 0 0
0.108513 0.517129 -0.070695 166 159 175 0 0
0.095732 0.519772 -0.068302 163 154 170 0 0
0.129885 0.546530 -0.069219 188 182 195 0 0
0.114085 0.520009 -0.095775 145 147 169 0 0
0.115782 0.514148 -0.097405 133 134 155 0 0
0.044378 0.388512 -0.075281 111 126 143 14 5
0.059030 0.383967 -0.075485 132 132 143 14 5
0.050063 0.394785 -0.081732 166 169 190 14 5
0.063996 0.385976 -0.082857 150 150 170 14 5
0.321648 0.895585 -0.240134 101 107 118 1 6
0.325901 0.901566 -0.229981 101 104 116 1 6
0.333090 0.894650 -0.238914 109 115 130 1 6
0.325087 0.897892 -0.255708 99 105 116 1 6
0.347535 0.899707 -0.260657 103 106 116 1 6
0.228129 0.883273 0.437443 252 237 218 1 6
0.177293 0.343540 -0.151647 16 12 18 14 5
0.134579 0.785977 -0.234483 55 33 33 0 0
0.131528 0.795430 -0.238135 80 55 61 1 6
0.146457 0.767620 -0.247518 67 56 57 0 0
0.144346 0.780855 -0.253989 67 55 56 0 0
0.137996 0.789369 -0.247893 54 32 31 0 0
0.147511 0.766835 -0.256931 65 55 52 0 0
0.138758 0.796928 -0.258382 55 46 47 1 6
0.135010 0.771813 -0.235426 54 32 32 0 0
0.164463 0.636554 0.181745 255 255 255 0 0
0.138084 0.635275 0.182942 255 254 254 0 0
0.433095 0.895275 0.111843 209 195 187 1 6
0.417600 0.899253 0.111351 209 195 181 1 6
0.163620 0.861157 0.201358 254 244 226 0 0
0.594368 0.887368 0.163328 248 238 250 1 6
0.598546 0.887962 0.179012 246 238 251 1 6
0.578573 0.880413 0.169320 216 206 214 1 6
0.593788 0.890499 0.153970 218 208 216 1 6
0.306554 0.402767 -0.215447 41 39 43 0 0
0.155804 0.406520 -0.071178 158 153 161 14 5
0.154751 0.402214 -0.077941 149 145 159 0 0
0.147546 0.378432 -0.070099 128 125 131 14 5
0.142323 0.377269 -0.082465 131 132 153 0 0
0.154757 0.409663 -0.082543 142 142 162 0 0
0.162289 0.729626 -0.309800 19 19 23 0 0
0.148589 0.728571 -0.290443 13 14 15 0 0
0.224615 0.836443 -0.389113 63 69 77 1 6
0.222662 0.823345 -0.382680 53 59 64 1 6
0.236478 0.823015 -0.383218 69 76 87 1 6
0.291215 0.607645 -0.068087 178 178 197 0 0
0.269378 0.591369 -0.075697 180 182 203 0 0
0.288130 0.612313 -0.078171 197 196 218 0 0
0.281635 0.606755 -0.092220 175 179 202 0 0
0.269335 0.587572 -0.091679 174 180 205 0 0
0.282208 0.602289 -0.084019 196 199 225 0 0
0.376240 0.894442 0.157748 242 235 251 1 6
0.097123 0.549984 0.131245 184 181 194 0 0
0.577452 0.892991 0.116812 203 188 174 1 6
0.141004 0.500916 -0.060313 222 211 226 0 0
0.563683 0.901268 -0.105256 171 151 128 1 6
0.576444 0.898531 -0.120436 172 151 127 1 6
0.429570 0.895345 -0.121458 176 159 139 1 6
0.432664 0.894565 -0.094680 180 164 142 1 6
0.434208 0.895033 -0.106758 179 161 136 1 6
0.307800 0.757000 0.155789 196 186 185 0 0
0.297630 0.769649 0.167041 243 237 242 0 0
0.306629 0.847417 0.080873 134 119 109 0 0
0.311908 0.864574 0.080631 154 145 143 1 6
0.225994 0.757136 0.192138 254 249 244 0 0
0.248062 0.755580 0.195001 251 248 245 0 0
0.244596 0.781530 0.193271 252 250 247 0 0
0.231613 0.759975 0.196633 250 244 239 0 0
0.084638 0.599802 0.211413 253 251 245 0 0
0.113205 0.583909 0.204372 254 255 252 0 0
0.084422 0.579767 0.206302 254 255 252 0 0
0.124670 0.562662 -0.032047 197 201 231 0 0
0.112699 0.561820 -0.042634 198 204 233 0 0
0.116008 0.557484 -0.064316 207 202 221 0 0
0.108848 0.551203 -0.068148 191 185 207 0 0
0.193989 0.567455 0.050007 228 229 248 0 0
0.198087 0.568991 0.037906 226 228 249 0 0
0.213110 0.706517 0.191982 255 251 243 0 0
0.214197 0.726389 0.191727 253 246 240 0 0
0.251987 0.684174 0.198240 255 248 244 0 0
0.244393 0.718774 0.189424 252 247 242 0 0
0.221664 0.682908 0.189749 253 247 241 0 0
0.150309 0.416545 -0.068430 154 149 156 14 5
0.162624 0.438692 -0.071504 177 169 180 14 5
0.136348 0.408604 -0.066880 122 119 129 14 5
0.166312 0.430998 -0.078006 174 169 173 14 5
0.160139 0.411501 -0.076895 121 121 128 0 0
0.162454 0.435896 -0.086638 143 137 147 0 0
0.172555 0.437502 -0.098173 93 71 73 0 0
0.494313 0.888901 -0.335943 135 123 111 1 6
0.483203 0.891391 -0.332029 131 121 105 1 6
0.495273 0.886557 -0.347432 124 114 103 1 6
0.131418 0.807954 -0.243493 91 60 66 1 6
0.125658 0.834738 -0.233151 46 38 40 0 0
0.118967 0.834705 -0.231934 46 38 40 0 0
0.131493 0.810909 -0.235076 42 33 35 0 0
0.129262 0.812760 -0.240655 69 43 41 0 0
0.125463 0.823826 -0.242209 55 38 38 0 0
0.117245 0.821632 -0.233135 26 23 25 0 0
0.135247 0.818372 -0.227479 38 33 37 0 0
0.608014 0.300092 0.120546 47 43 43 5 7
0.129508 0.378036 -0.072051 154 152 165 14 5
0.114381 0.381496 -0.077976 122 118 132 14 5
0.555303 0.885148 0.200905 243 235 248 1 6
0.543746 0.885525 0.207779 245 236 249 1 6
0.445119 0.888732 0.321994 244 237 250 1 6
0.544232 0.891359 -0.032243 183 165 141 1 6
0.549083 0.894468 -0.011586 188 168 144 1 6
0.565065 0.893819 -0.016282 187 167 143 1 6
0.059689 0.801099 -0.273926 17 18 22 0 0
0.052294 0.806940 -0.267282 17 18 22 0 0
0.063485 0.787362 -0.264635 15 16 20 0 0
0.051702 0.822656 -0.271166 16 16 22 0 0
0.270461 0.591037 -0.042785 125 125 145 0 0
0.290147 0.607065 -0.057100 191 192 210 0 0
0.275224 0.593917 -0.053881 157 158 174 0 0
0.268145 0.646462 0.174697 250 249 250 0 0
0.367896 0.902021 0.144325 221 210 215 1 6
0.079709 0.879008 0.466222 252 237 218 1 6
0.091743 0.858278 0.207329 255 243 223 0 0
0.058914 0.878341 0.416673 252 238 219 1 6
0.128482 0.881398 0.447447 252 238 219 1 6
0.138526 0.881478 0.431044 253 239 220 1 6
0.099654 0.884238 0.320564 254 240 222 1 6
0.085499 0.885172 0.293473 253 239 222 1 6
0.261534 0.352454 -0.247385 68 62 66 0 0
0.170713 0.853664 -0.184916 73 59 60 1 6
0.317304 0.629097 0.151374 149 137 128 0 0
0.313653 0.625757 0.133325 143 131 122 0 0
0.319532 0.623430 0.164470 160 146 140 0 0
0.156185 0.350317 -0.051098 165 158 171 0 0
0.142655 0.343992 -0.050865 156 152 167 0 0
0.448482 0.887581 0.228996 253 246 253 1 6
0.191552 0.341692 -0.202274 13 13 16 0 0
0.176712 0.365071 -0.204064 19 15 18 0 0
0.300272 0.881832 -0.032147 113 100 79 1 6
0.296582 0.882767 -0.055009 114 99 83 1 6
0.311912 0.883118 -0.050322 124 117 116 1 6
0.295408 0.879331 -0.069748 110 96 84 1 6
0.016465 0.554340 0.162189 238 237 241 0 0
0.007263 0.554819 0.175069 250 250 251 0 0
0.222006 0.573066 0.172118 255 254 254 0 0
0.225232 0.579995 0.188712 255 254 254 0 0
0.285389 0.890390 0.224596 253 248 253 1 6
0.291868 0.891376 0.235569 252 247 253 1 6
0.130381 0.876887 0.572968 252 237 218 1 6
0.114308 0.877628 0.536803 252 237 218 1 6
0.146200 0.878508 0.541720 252 236 218 1 6
0.138249 0.876520 0.550653 252 237 218 1 6
0.153490 0.878998 0.564533 252 237 218 1 6
0.117499 0.733723 -0.226559 75 42 38 0 0
0.108768 0.713494 -0.225166 83 46 47 0 0
0.118956 0.727167 -0.223483 54 30 30 0 0
0.198882 0.886863 0.323752 252 237 220 1 6
0.175193 0.886835 0.327415 253 239 220 1 6
0.043779 0.548263 0.031708 235 238 252 0 0
0.056005 0.548971 0.032073 235 239 252 0 0
0.173489 0.449484 -0.113823 77 62 61 0 0
0.178698 0.465487 -0.104823 89 67 67 0 0
0.176401 0.448716 -0.103942 81 64 63 0 0
0.480333 0.889413 -0.157045 164 144 123 1 6
0.475915 0.887013 -0.141386 168 148 128 1 6
0.494490 0.893006 -0.143875 168 148 125 1 6
0.190695 0.903837 -0.368080 40 41 40 1 6
0.185354 0.901346 -0.373599 40 40 39 1 6
0.192548 0.902553 -0.388367 78 82 90 1 6
0.211280 0.904535 -0.389211 63 66 72 1 6
0.179074 0.898257 -0.361770 53 55 52 1 6
0.218861 0.902524 -0.363153 50 51 49 1 6
0.380404 0.884694 0.575326 248 233 212 1 6
0.402651 0.884651 0.577619 248 232 210 1 6
0.502497 0.888737 -0.012585 188 170 149 1 6
0.523359 0.886410 -0.038932 186 165 142 1 6
0.507765 0.886053 -0.038423 186 166 142 1 6
0.530887 0.887306 -0.027125 189 170 147 1 6
0.219217 0.481068 -0.227888 39 36 37 0 0
0.229492 0.466710 -0.232620 40 40 40 0 0
0.239560 0.463632 -0.230863 35 30 34 0 0
0.296133 0.589893 0.106943 203 200 215 0 0
0.277640 0.586451 0.096363 218 215 232 0 0
0.290299 0.883921 0.508006 249 234 214 1 6
0.281805 0.881581 0.537662 250 235 215 1 6
0.309137 0.882388 0.527397 249 234 214 1 6
0.068493 0.877616 0.451776 252 238 219 1 6
0.102142 0.880334 0.448356 253 238 219 1 6
0.088786 0.881426 0.419039 253 238 219 1 6
0.112655 0.880288 0.431772 253 238 219 1 6
0.364160 0.898524 -0.020820 161 158 156 1 6
0.383437 0.909462 -0.011841 138 134 131 1 6
0.274909 0.882348 0.498699 250 236 217 1 6
0.260516 0.882560 0.474133 250 236 217 1 6
0.255901 0.883857 0.493056 250 235 215 1 6
0.344522 0.386080 -0.226823 67 67 70 0 0
0.330455 0.389047 -0.219419 56 55 58 0 0
0.373104 0.889214 0.546631 247 230 210 1 6
0.137381 0.373199 -0.113252 41 40 50 0 0
0.157123 0.378453 -0.113052 64 53 57 0 0
0.146969 0.377242 -0.122499 43 38 42 0 0
0.163522 0.370199 -0.124763 75 56 58 0 0
0.142245 0.372389 -0.125561 50 40 42 0 0
0.155966 0.361247 -0.131133 93 60 62 0 0
0.101959 0.553688 0.077563 234 237 254 0 0
0.091669 0.550652 0.084377 237 238 255 0 0
0.153024 0.795066 -0.289420 16 15 17 0 0
0.245734 0.849776 0.192923 254 251 253 0 0
0.461811 0.886949 -0.135398 168 148 126 1 6
0.438168 0.889711 -0.135350 170 151 131 1 6
0.450831 0.889918 -0.154021 158 139 124 1 6
0.279827 0.463729 -0.226529 65 66 63 0 0
0.598492 0.887108 0.239394 232 224 237 1 6
0.574625 0.888597 0.223575 234 223 236 1 6
0.573555 0.889867 0.239202 234 224 237 1 6
0.568079 0.891616 0.243814 234 224 238 1 6
0.263416 0.738226 0.194866 254 250 251 0 0
0.281412 0.586629 0.126236 212 210 229 0 0
0.298635 0.583200 0.159492 231 222 232 0 0
0.271601 0.582549 0.140897 193 190 209 0 0
0.293778 0.589068 0.135262 188 184 200 0 0
0.594113 0.303713 0.116870 56 50 48 5 7
