ply
format ascii 1.0
element vertex 1115
property float x
property float y
property float z
property uchar red
property uchar green
property uchar blue
property uchar semantic_label
property uchar instance_label
end_header
0.616910 -0.933042 -0.296463 88 74 51 10 3
0.628456 -0.924917 -0.295074 93 79 57 10 3
0.948785 -0.672691 -0.178793 116 94 70 10 3
0.949872 -0.674135 -0.161534 62 38 17 10 3
0.147255 -0.105389 0.331661 125 123 113 40 1
0.138187 -0.101091 0.331246 151 144 131 40 1
0.719278 -0.874357 -0.098259 48 42 29 10 3
0.716116 -0.885002 -0.115747 44 36 23 10 3
0.710320 -0.868579 -0.113783 47 40 26 10 3
0.708586 -0.863679 -0.119253 35 30 18 10 3
0.719865 -0.866480 -0.121417 40 34 23 10 3
0.012478 -0.281052 -0.260983 88 52 24 14 8
0.843627 -0.926393 -0.077798 62 57 54 10 3
0.547481 -0.899395 -0.256164 85 69 44 10 3
0.543716 -0.897521 -0.242438 82 66 42 10 3
0.569759 -0.885036 -0.245432 83 65 44 10 3
0.563213 -0.891402 -0.258582 85 70 44 10 3
0.206666 -0.081620 0.135689 160 135 95 40 1
-0.022825 -0.220289 -0.163733 211 196 173 40 1
-0.021361 -0.226585 -0.132003 215 202 187 40 1
-0.014383 -0.221637 -0.143757 213 199 179 40 1
0.009374 -0.208198 -0.113090 213 205 194 40 1
-0.042288 -0.242133 -0.117527 204 200 187 40 1
-0.010452 -0.222059 -0.115292 213 210 195 40 1
0.758039 -0.845413 -0.096524 87 73 50 10 3
0.746960 -0.798816 -0.096623 105 89 73 10 3
0.836746 -0.939305 0.101045 168 176 175 10 3
0.851747 -0.929688 0.101017 167 177 181 10 3
0.087321 -0.976326 -0.252034 59 39 20 7 7
0.222841 -0.124869 0.284567 170 147 112 40 1
0.220369 -0.127794 0.307634 155 140 113 40 1
0.180287 -0.170297 0.149804 213 207 200 40 1
0.039409 -0.874775 -0.321613 53 35 17 7 7
0.870274 -0.710947 -0.207263 64 43 20 10 3
0.849672 -0.717534 -0.204385 105 85 63 10 3
0.873905 -0.725453 -0.233380 82 61 40 10 3
0.888433 -0.704845 -0.211045 60 42 21 10 3
0.541697 -0.928899 -0.284849 72 59 40 10 3
0.570320 -0.913828 -0.281583 82 69 46 10 3
0.562403 -0.909378 -0.275978 82 69 46 10 3
0.559254 -0.936818 -0.291234 75 61 43 10 3
0.099516 -0.232802 -0.270771 66 36 17 14 8
0.116782 -0.220730 -0.248611 63 35 21 14 8
0.733511 -0.828414 0.091189 160 159 159 10 3
0.732007 -0.856088 0.106014 114 112 100 10 3
0.776460 -0.841902 0.105250 114 109 99 10 3
0.761254 -0.830670 0.102933 118 113 103 10 3
0.767631 -0.819925 0.098721 121 113 105 10 3
0.763783 -0.817125 0.092346 160 160 157 10 3
0.919690 -0.709026 -0.255831 91 79 57 10 3
0.932555 -0.705844 -0.258592 91 80 57 10 3
0.962418 -0.692987 -0.245447 87 76 54 10 3
0.026134 -0.865973 -0.225864 57 36 18 7 7
0.037343 -0.269623 -0.276521 70 37 19 14 8
0.030308 -0.270715 -0.254586 68 38 17 14 8
0.032189 -0.271430 -0.283104 72 39 16 14 8
0.485520 -0.968132 0.049893 113 93 64 10 3
0.484900 -0.974740 0.028950 111 89 60 10 3
0.502343 -0.947282 0.060145 107 93 66 10 3
0.486413 -0.964226 0.015914 109 88 60 10 3
0.488785 -0.954629 0.049082 109 88 60 10 3
0.509031 -0.953579 0.045661 106 91 66 10 3
0.493412 -0.950185 0.042014 109 91 64 10 3
0.332144 -0.112422 -0.246038 250 219 159 14 8
0.321744 -0.144907 -0.241666 228 166 88 14 8
0.332632 -0.133108 -0.245890 234 177 99 14 8
0.338348 -0.137403 -0.242009 230 171 88 14 8
0.333086 -0.136209 -0.236216 131 96 48 14 8
0.109110 -0.229243 -0.281599 59 37 21 14 8
0.122493 -0.218075 -0.282378 123 107 93 14 8
0.548039 -0.025592 -0.237466 191 138 72 14 8
0.740930 -0.790194 -0.234969 55 38 18 10 3
0.736658 -0.796340 -0.242100 80 69 44 10 3
0.768398 -0.780554 -0.253013 80 70 44 10 3
0.932065 -0.683674 -0.125473 67 42 22 10 3
0.921674 -0.687268 -0.153260 68 43 26 10 3
0.943864 -0.677766 -0.144184 65 44 24 10 3
0.546268 -1.001832 -0.136684 60 52 35 10 3
0.545612 -1.003297 -0.109621 65 54 36 10 3
0.253001 -0.194126 0.097620 169 144 107 40 1
0.238208 -0.185930 0.120567 177 152 117 40 1
0.239270 -0.184805 0.096626 185 159 121 40 1
0.255361 -0.189320 0.103717 160 137 100 40 1
0.230872 -0.181849 0.086683 192 167 130 40 1
0.895265 -0.799149 0.106364 118 111 100 10 3
0.908630 -0.801805 0.106441 114 107 95 10 3
-0.010118 -0.794330 -0.269018 63 38 17 7 7
-0.013632 -0.784414 -0.280142 78 46 19 7 7
0.004791 -0.817963 -0.277965 55 35 17 7 7
-0.007888 -0.801962 -0.254940 53 34 16 7 7
0.217028 -0.074689 -0.135437 181 156 112 40 1
0.091288 -1.004681 -0.123618 71 49 24 7 7
0.086628 -0.994406 -0.106168 71 50 26 7 7
-0.007502 -1.010537 0.085870 119 74 35 40 2
-0.017943 -0.982382 0.086681 117 71 33 40 2
-0.000057 -0.998787 0.080414 117 73 33 7 7
0.209488 -0.070287 -0.040809 163 135 91 40 1
0.215806 -0.109470 -0.060327 181 151 113 40 1
0.199006 -0.100228 -0.067796 190 157 113 40 1
0.193511 -0.096711 -0.039252 191 159 110 40 1
0.225088 -0.101535 -0.066157 155 129 86 40 1
0.205576 -0.104629 -0.069657 187 156 115 40 1
0.224387 -0.101437 -0.042724 153 126 83 40 1
0.202598 -0.108359 -0.044443 187 157 116 40 1
0.150458 -0.186282 0.148886 208 202 192 40 1
0.098286 -0.141663 -0.009399 86 74 68 40 1
0.108646 -0.134634 -0.016550 90 80 69 40 1
0.131229 -0.119030 -0.011587 84 75 65 40 1
0.114941 -0.132338 -0.029220 94 83 68 40 1
0.800564 -0.750373 -0.097751 118 103 87 10 3
0.521466 -0.937812 -0.343684 79 64 45 10 3
0.526659 -0.945101 -0.347684 65 52 35 10 3
0.523170 -0.940123 -0.316473 64 52 34 10 3
0.026499 -0.267576 0.095215 202 194 182 40 1
0.009051 -0.276390 0.097612 204 193 185 40 1
0.022279 -0.267768 0.113256 202 194 184 40 1
-0.003854 -0.208964 -0.162972 232 217 193 40 1
-0.003647 -0.209867 -0.150222 221 206 183 40 1
0.032584 -0.186907 -0.154186 238 222 203 40 1
0.010267 -0.815704 -0.389069 49 32 16 7 7
0.701668 -0.864837 -0.283533 83 70 45 10 3
0.015724 -0.266328 0.210066 217 206 197 40 1
0.003886 -0.272789 0.224597 213 200 190 40 1
0.779297 -0.888530 0.364294 159 158 149 10 3
0.778130 -0.907247 0.374108 170 171 160 10 3
0.776852 -0.901097 0.366589 151 149 138 10 3
0.795278 -0.895853 0.366551 152 149 138 10 3
0.144046 -0.151580 -0.225745 234 186 110 14 8
0.128549 -0.180148 -0.227361 240 177 97 14 8
0.159492 -0.160089 -0.226556 245 191 123 14 8
0.806664 -0.798056 -0.048021 120 107 98 10 3
0.795715 -0.799478 -0.038454 119 106 97 10 3
0.102001 -1.000170 -0.262578 60 41 21 7 7
0.103138 -1.003347 -0.230568 60 42 21 7 7
0.889180 -0.757435 -0.281312 92 79 56 10 3
0.885044 -0.765374 -0.282697 82 69 47 10 3
0.877708 -0.774919 -0.282578 90 74 50 10 3
0.860101 -0.768453 -0.278824 90 75 49 10 3
0.547376 -0.002954 -0.225476 180 124 55 14 8
0.479616 -0.984409 0.207624 135 114 88 10 3
0.561790 -0.930190 0.053165 113 95 71 10 3
0.562058 -0.919725 0.061158 114 96 69 10 3
0.531003 -0.945477 0.055771 114 95 68 10 3
0.231049 -0.106244 -0.201906 179 146 100 40 1
0.228689 -0.110393 -0.183350 173 142 97 40 1
0.224017 -0.091504 -0.179363 178 145 100 40 1
0.051987 -0.193344 -0.226243 209 150 82 14 8
0.050056 -0.181028 -0.222792 245 230 209 14 8
0.024684 -0.182438 -0.217047 243 230 208 14 8
0.835626 -0.830609 -0.069716 118 105 96 10 3
0.194374 -0.110625 0.016472 195 165 129 40 1
0.223908 -0.099853 0.030522 188 163 119 40 1
0.550196 -0.873968 -0.198953 58 35 20 10 3
0.552774 -0.872076 -0.183873 59 35 18 10 3
0.546044 -0.879413 -0.185834 62 44 28 10 3
0.577639 -0.864569 -0.178446 81 59 37 10 3
0.556371 -0.879384 -0.174984 59 43 20 10 3
0.253760 -0.194261 0.133519 170 145 107 40 1
0.248591 -0.198265 0.142690 174 148 114 40 1
0.255232 -0.183704 0.121353 156 133 98 40 1
0.253749 -0.195178 0.148376 166 141 110 40 1
0.249014 -0.195448 0.121419 174 150 114 40 1
0.253984 -0.184052 0.161303 156 135 95 40 1
0.225763 -0.184278 0.131536 189 161 127 40 1
0.235645 -0.186594 0.139120 193 165 127 40 1
0.251773 -0.176814 0.146874 157 131 94 40 1
0.238627 -0.189703 0.157596 190 164 126 40 1
0.517167 -1.005703 0.396655 214 219 217 10 3
0.518023 -0.997483 0.387009 207 213 214 10 3
0.541162 -1.007297 0.379814 209 213 215 10 3
0.522450 -0.985997 0.380663 205 211 214 10 3
0.537549 -1.016731 0.382236 205 211 211 10 3
0.685115 -0.870880 -0.283441 83 70 47 10 3
0.682186 -0.859358 -0.280446 81 68 45 10 3
0.497908 -0.916684 0.127040 102 75 56 10 3
0.501626 -0.915340 0.138581 122 105 88 10 3
0.503369 -0.903738 0.130037 127 104 84 10 3
0.286572 -0.046651 -0.225028 243 219 173 14 8
0.318267 -0.080671 -0.224118 243 221 173 14 8
0.691020 -0.873048 -0.167534 75 63 46 10 3
0.697600 -0.856198 -0.166259 78 65 48 10 3
0.670349 -0.878195 -0.167451 85 69 52 10 3
0.167158 -0.019649 0.249691 155 130 91 40 1
0.173881 -0.029689 0.223097 157 134 93 40 1
0.209844 -0.100706 0.264316 151 129 92 40 1
0.044126 -0.952410 0.064125 84 57 28 7 7
0.057757 -0.960738 0.060378 87 62 31 7 7
0.042284 -0.965609 0.072150 85 58 30 7 7
0.894232 -0.720784 -0.245886 86 74 50 10 3
0.486883 -0.059364 -0.241008 183 134 66 14 8
0.453708 -0.076691 -0.243069 226 167 86 14 8
0.452817 -0.059118 -0.244523 240 205 145 14 8
0.473492 -0.057065 -0.244786 231 177 93 14 8
0.462397 -0.070843 -0.241724 187 142 75 14 8
0.459207 -0.071004 -0.237464 217 164 86 14 8
0.469934 -0.059433 -0.232232 136 106 56 14 8
0.480566 -0.988649 0.524556 242 245 243 10 3
0.480289 -0.986474 0.506654 242 244 243 10 3
0.490440 -0.983683 0.507202 246 250 249 10 3
0.484622 -0.982735 0.505137 251 254 251 10 3
0.484179 -0.985005 0.533516 243 248 246 10 3
0.490095 -0.986741 0.538573 231 235 234 10 3
0.500470 -0.991562 0.501622 231 235 234 10 3
0.948457 0.611161 -0.802719 98 60 27 14 8
0.944024 0.613122 -0.775081 94 46 11 14 8
0.087579 0.589434 -0.723328 129 91 64 0 0
0.256639 0.710033 -0.900935 104 91 88 0 0
0.243352 0.708601 -0.919332 146 133 121 2 6
0.232462 0.703537 -0.918144 142 123 109 2 6
0.410441 0.844151 -0.934205 133 109 74 2 6
0.583606 0.989151 -0.907984 98 76 49 2 6
0.010740 0.757962 -0.931952 151 134 102 2 6
0.032888 0.752560 -0.930919 153 127 99 2 6
0.705122 0.213464 -0.558684 137 131 121 3 9
0.719528 0.219399 -0.568445 141 134 124 3 9
0.725692 0.226048 -0.550184 140 134 123 3 9
0.612419 0.891357 -0.767184 107 64 32 0 0
0.669543 0.208613 -0.664846 144 140 135 3 9
0.896235 0.677153 -0.879009 76 62 37 14 8
0.222066 0.672811 -0.801690 124 87 56 0 0
0.203433 0.659915 -0.829406 89 75 80 0 0
0.212174 0.667464 -0.820084 89 75 78 0 0
0.218991 0.667248 -0.830548 65 45 34 0 0
0.191314 0.653088 -0.822660 102 89 95 0 0
0.901827 0.658556 -0.532019 110 60 26 14 8
-0.044833 0.724828 -0.934368 141 123 98 2 6
0.344379 0.868487 -0.935126 105 84 60 2 6
0.358526 0.853256 -0.935141 110 93 67 2 6
0.659435 0.186280 -0.693640 117 117 123 39 5
0.665642 0.202047 -0.681893 146 143 156 39 5
0.655437 0.195091 -0.676623 146 143 156 39 5
0.648085 0.177559 -0.688552 138 136 143 39 5
0.648183 0.170595 -0.698184 132 130 139 39 5
0.644721 0.154680 -0.708916 113 112 124 39 5
0.651706 0.169251 -0.710187 114 114 126 39 5
0.458673 0.802743 -0.720684 120 80 36 0 0
0.397605 0.770717 -0.785191 122 79 47 0 0
0.428829 0.788199 -0.807629 123 82 48 0 0
0.411943 0.321079 -0.779167 89 73 47 39 5
0.391257 0.316054 -0.764671 12 15 25 39 5
0.395027 0.304178 -0.753180 13 13 22 39 5
0.399207 0.316586 -0.765018 47 44 47 39 5
0.494658 0.079814 -0.560639 89 84 118 39 5
0.502465 0.085980 -0.557267 112 110 167 39 5
0.480408 0.095722 -0.560104 89 87 135 39 5
0.492485 0.091534 -0.557785 87 83 132 39 5
0.484595 0.101445 -0.568686 68 67 117 39 5
0.513299 0.102533 -0.565552 75 76 119 0 0
0.510262 0.095698 -0.559265 79 79 132 39 5
0.796901 0.979280 -0.844456 110 68 31 0 0
0.773994 0.972039 -0.830611 111 67 32 0 0
0.765362 0.876385 -0.617940 114 62 17 14 8
0.415644 0.200783 -0.702396 131 131 140 39 5
0.415474 0.187037 -0.681935 126 125 133 39 5
0.429150 0.175743 -0.690226 114 113 121 39 5
0.109964 0.957235 -0.940681 152 126 95 2 6
0.094114 0.945546 -0.942414 157 136 100 2 6
0.114490 0.943068 -0.938713 170 138 103 2 6
0.105349 0.964527 -0.943703 168 136 100 2 6
0.115948 0.971314 -0.944816 159 131 106 2 6
0.083585 0.703307 -0.927212 144 127 98 2 6
0.072068 0.695005 -0.927580 150 132 111 2 6
0.248920 0.118048 -0.916030 72 61 46 2 6
0.247107 0.138111 -0.920623 79 66 50 2 6
0.353442 0.835790 -0.934234 139 119 86 2 6
0.069573 0.887914 -0.938798 147 122 86 2 6
0.093329 0.892638 -0.939245 155 130 96 2 6
0.068261 0.899137 -0.941538 158 131 99 2 6
0.096844 0.906996 -0.939409 160 133 97 2 6
0.077257 0.873214 -0.933276 150 127 93 2 6
-0.016909 0.518905 -0.500710 143 101 67 0 0
0.443144 0.991067 -0.908705 101 79 54 2 6
0.419111 0.983584 -0.907030 98 77 51 2 6
0.405751 0.866572 -0.930131 93 76 56 2 6
0.391638 0.850476 -0.933329 103 85 62 2 6
0.411319 0.852834 -0.930696 92 74 56 2 6
0.406985 0.868536 -0.925229 95 78 60 2 6
0.390409 0.812649 -0.927613 88 74 58 2 6
0.388156 0.794593 -0.910221 92 80 65 0 0
0.396228 0.793562 -0.909430 89 85 93 0 0
0.398454 0.802052 -0.914418 92 80 65 2 6
0.927181 0.640478 -0.728002 100 52 16 14 8
0.923748 0.645339 -0.747266 100 54 19 14 8
0.915741 0.652241 -0.728814 107 61 18 14 8
-0.021010 0.860342 -0.943979 159 135 110 2 6
-0.004951 0.853655 -0.940358 151 135 109 2 6
-0.036888 0.877534 -0.948549 162 138 105 2 6
0.793718 0.269250 -0.573680 142 135 125 3 9
0.927771 0.637242 -0.800443 88 51 22 14 8
0.920379 0.641709 -0.830426 85 51 27 14 8
-0.001637 0.119529 -0.923252 20 20 20 2 6
-0.036454 0.094566 -0.926548 22 22 20 2 6
-0.016217 0.100873 -0.924826 21 21 21 2 6
0.858373 0.738736 -0.649150 104 61 13 14 8
0.254200 0.869159 -0.930425 155 129 98 2 6
0.530787 0.096999 -0.921773 89 77 54 2 6
0.524123 0.104609 -0.917224 71 62 44 39 5
0.539804 0.107458 -0.920649 73 63 51 2 6
0.675092 0.942852 -0.902005 83 73 59 0 0
0.005887 0.532548 -0.552311 141 101 68 0 0
-0.022228 0.514838 -0.530192 143 100 66 0 0
0.142496 0.623271 -0.728356 140 105 64 0 0
0.757591 0.246274 -0.560988 141 135 121 3 9
0.755949 0.243857 -0.574991 138 133 125 3 9
0.411435 0.766492 -0.558996 130 85 50 0 0
0.393358 0.757345 -0.575059 129 84 50 0 0
0.797214 0.979455 -0.829925 110 70 26 0 0
0.952537 0.590957 -0.716914 106 57 27 14 8
0.625169 0.125404 -0.923086 85 75 53 2 6
0.604805 0.123294 -0.922010 90 76 60 2 6
0.099525 0.079752 -0.923598 70 62 49 2 6
0.104713 0.056185 -0.925788 70 61 47 2 6
0.125645 0.068883 -0.924827 69 62 43 2 6
0.816552 0.791126 -0.522420 110 61 22 14 8
0.813094 0.801667 -0.543170 105 59 27 14 8
0.856274 0.733016 -0.542275 101 54 16 14 8
0.542733 0.081910 -0.651996 88 80 86 39 5
0.556131 0.103473 -0.621868 85 81 101 39 5
0.549399 0.086989 -0.610996 89 81 89 39 5
0.551418 0.091808 -0.617654 84 79 83 39 5
0.551598 0.098567 -0.638157 94 89 104 39 5
0.567437 0.109576 -0.640067 103 98 114 39 5
0.736256 0.930771 -0.588998 122 75 33 14 8
0.532782 0.108428 -0.845366 46 47 78 39 5
0.540965 0.113432 -0.858563 86 79 89 39 5
0.510719 0.111190 -0.864476 39 38 66 39 5
0.524559 0.108971 -0.839330 57 55 77 39 5
-0.035044 0.512858 -0.614604 140 100 68 0 0
-0.040309 0.504520 -0.576211 137 96 68 0 0
-0.043284 0.502524 -0.564334 137 96 68 0 0
-0.029280 0.517117 -0.606071 140 100 67 0 0
-0.013983 0.521560 -0.597164 139 100 65 0 0
0.166677 0.001813 -0.921615 76 66 48 2 6
0.226012 0.025606 -0.925378 73 62 44 2 6
0.247766 0.019980 -0.922229 72 63 42 2 6
0.233126 0.043469 -0.923138 72 64 48 2 6
0.253696 0.033525 -0.922487 67 58 44 2 6
0.239838 0.012466 -0.917979 74 62 43 2 6
0.020290 0.612918 -0.922468 145 125 100 2 6
0.599599 0.876791 -0.579684 118 74 35 0 0
0.952300 0.583671 -0.628464 107 56 17 14 8
0.261391 0.788235 -0.927284 141 119 94 2 6
0.337286 0.032462 -0.923897 75 66 51 2 6
0.337496 0.017997 -0.918037 94 79 57 2 6
0.352756 0.021785 -0.918906 82 70 52 2 6
0.282275 0.814119 -0.932758 149 125 94 2 6
0.671113 0.924850 -0.753684 114 71 26 0 0
0.691177 0.935879 -0.744776 115 71 30 0 0
0.748176 0.921484 -0.733737 120 62 22 14 8
0.741526 0.933108 -0.731011 119 68 13 14 8
0.744770 0.938613 -0.723952 123 63 22 14 8
0.741395 0.915452 -0.705821 109 63 19 14 8
0.648546 0.187526 -0.579188 80 75 98 39 5
0.658511 0.201835 -0.586752 84 77 102 39 5
0.647506 0.190336 -0.564245 104 102 160 39 5
0.655622 0.200048 -0.562134 100 98 144 39 5
0.639839 0.199306 -0.554043 122 121 135 39 5
0.039286 0.692186 -0.926611 145 127 100 2 6
0.053101 0.707800 -0.930841 148 130 102 2 6
0.915161 0.647178 -0.630806 106 60 19 14 8
0.924325 0.634933 -0.669430 102 53 16 14 8
0.912319 0.657815 -0.652536 101 57 17 14 8
0.148630 0.629766 -0.787888 129 90 64 0 0
0.131983 0.628216 -0.802847 97 73 52 0 0
0.155023 0.629578 -0.802302 121 85 58 0 0
0.166454 0.642020 -0.785352 136 97 66 0 0
0.478938 0.815639 -0.827929 115 74 40 0 0
0.492350 0.823272 -0.813353 115 73 42 0 0
0.888809 0.686795 -0.636464 109 58 23 14 8
0.655430 0.206697 -0.610761 81 78 97 39 5
0.654556 0.210595 -0.593746 78 76 97 39 5
0.776221 0.849354 -0.528507 118 63 21 14 8
0.475177 0.066708 -0.612101 82 73 62 39 5
0.516055 0.071728 -0.599864 92 86 89 39 5
0.496078 0.069224 -0.596059 87 77 62 39 5
0.481888 0.068233 -0.593913 85 74 63 39 5
0.510829 0.077113 -0.572002 98 94 109 39 5
0.372664 0.891171 -0.931729 105 85 62 2 6
0.366988 0.873323 -0.932081 102 81 59 2 6
0.397156 0.871487 -0.931330 107 89 67 2 6
0.432804 0.262954 -0.801057 149 117 63 39 5
0.423380 0.287675 -0.799559 115 91 52 39 5
0.426168 0.265399 -0.786549 130 107 68 39 5
0.857914 0.312572 -0.629026 143 134 125 3 9
0.842041 0.312834 -0.625993 183 179 166 3 9
0.611128 0.905805 -0.905100 84 78 69 0 0
0.589963 0.893694 -0.904450 82 77 66 0 0
0.592862 0.882538 -0.884050 86 79 79 0 0
0.581728 0.882165 -0.897261 80 78 74 0 0
0.352201 0.773403 -0.918537 101 87 72 0 0
0.328058 0.757382 -0.905392 100 87 74 0 0
0.335638 0.765100 -0.924433 101 90 74 0 0
0.358823 0.784107 -0.927306 99 84 70 0 0
0.686442 0.927630 -0.624197 115 72 35 0 0
0.680443 0.921444 -0.579684 115 71 33 0 0
0.692822 0.933449 -0.591245 118 72 36 0 0
0.694806 0.933835 -0.569684 121 78 31 0 0
0.337429 0.721848 -0.508450 132 88 53 0 0
0.786344 0.844247 -0.602534 113 62 20 14 8
-0.024848 0.306226 -0.920638 18 18 18 2 6
-0.015620 0.312369 -0.920198 18 17 19 2 6
-0.008841 0.317469 -0.916287 17 17 18 2 6
-0.002867 0.321553 -0.918878 17 18 19 2 6
0.202610 0.855862 -0.932312 153 130 95 2 6
0.175531 0.853565 -0.929309 162 134 104 2 6
-0.004055 0.787451 -0.934944 156 130 105 2 6
0.024636 0.778003 -0.934073 151 129 104 2 6
-0.009828 0.801612 -0.939365 148 132 101 2 6
0.016692 0.806005 -0.936442 156 137 101 2 6
0.080453 0.814081 -0.928832 145 125 101 2 6
0.094063 0.825070 -0.931100 144 121 90 2 6
0.060371 0.824733 -0.934676 148 127 96 2 6
0.092626 0.833732 -0.932685 141 124 93 2 6
0.537460 0.849506 -0.866019 91 84 94 0 0
0.578301 0.099453 -0.732998 97 85 76 39 5
0.566683 0.089381 -0.723881 108 99 89 39 5
0.547506 0.077965 -0.727539 107 97 98 39 5
0.549787 0.082126 -0.709627 100 91 91 39 5
0.517895 0.847741 -0.894660 87 85 100 0 0
0.526677 0.844333 -0.877209 90 84 100 0 0
0.626055 0.136951 -0.714067 140 136 146 39 5
0.447677 0.350301 -0.796813 124 117 119 39 5
0.732832 0.202308 -0.924485 105 95 80 2 6
0.737641 0.210639 -0.916557 125 114 102 3 9
0.097892 0.722153 -0.926001 154 139 112 2 6
0.112539 0.729676 -0.927553 150 129 101 2 6
0.126918 0.737923 -0.927939 154 129 109 2 6
0.099658 0.745991 -0.929624 147 127 99 2 6
0.299980 0.702893 -0.540559 135 87 53 0 0
0.572354 0.869742 -0.781314 119 73 41 0 0
0.786362 0.844573 -0.616367 111 60 20 14 8
0.047660 0.973382 -0.942587 162 134 107 2 6
0.790809 0.973172 -0.655212 111 69 25 14 8
0.771903 0.973104 -0.659140 116 73 30 14 8
0.770467 0.962733 -0.667678 117 73 26 14 8
0.776501 0.968735 -0.672886 114 75 27 14 8
0.790973 0.971097 -0.671830 119 74 29 14 8
0.074263 0.308786 -0.920411 18 16 17 2 6
0.898360 0.667588 -0.549785 103 57 20 14 8
0.879474 0.692091 -0.541858 103 57 13 14 8
0.356624 0.893560 -0.935750 156 129 95 2 6
0.011640 0.543331 -0.644411 138 97 71 0 0
0.018920 0.550407 -0.676488 141 101 75 0 0
0.382921 0.757870 -0.857003 95 100 127 0 0
0.397788 0.767787 -0.852014 93 100 130 0 0
0.463928 0.888235 -0.917116 94 77 51 2 6
0.761527 0.234524 -0.780434 128 120 114 3 9
0.644658 0.224680 -0.819732 39 37 56 39 5
0.641309 0.220048 -0.816533 20 21 50 39 5
0.672934 0.206542 -0.530694 117 118 151 3 9
0.640151 0.211118 -0.549990 168 162 166 0 0
0.059093 0.573797 -0.729976 117 82 61 0 0
0.058857 0.579865 -0.759483 66 45 32 0 0
0.741387 0.939050 -0.657052 116 71 31 14 8
0.643248 0.223693 -0.764894 38 35 52 39 5
0.641156 0.219465 -0.748104 113 109 119 39 5
0.490426 0.114563 -0.619798 59 53 53 39 5
0.478099 0.124089 -0.634001 67 61 66 39 5
0.639811 0.157820 -0.635057 114 111 127 39 5
0.634131 0.163116 -0.664377 119 117 136 39 5
0.621834 0.151778 -0.655599 135 131 154 39 5
0.620646 0.162120 -0.669515 107 105 129 39 5
0.613047 0.152366 -0.663167 134 131 154 39 5
0.640229 0.169358 -0.673979 111 107 123 39 5
0.263791 0.025753 -0.923710 69 59 41 2 6
0.290026 0.035245 -0.922020 63 53 42 2 6
0.274358 0.049678 -0.923672 77 66 47 2 6
0.279380 0.020422 -0.923277 81 68 53 2 6
0.131749 0.824277 -0.933285 166 140 104 2 6
0.756592 0.969657 -0.768373 115 70 29 0 0
0.762728 0.973948 -0.746901 114 71 25 0 0
0.744314 0.963656 -0.775385 114 69 33 0 0
0.428721 0.798731 -0.902006 96 98 121 0 0
0.425217 0.807067 -0.907049 86 81 87 2 6
0.524977 0.845724 -0.795032 113 72 38 0 0
0.925576 0.643055 -0.777864 94 49 15 14 8
0.931947 0.631799 -0.744934 100 54 18 14 8
0.678448 0.203693 -0.644790 105 97 87 3 9
0.698870 0.207412 -0.628448 125 121 115 3 9
0.691749 0.198045 -0.633384 100 93 81 3 9
0.677717 0.203894 -0.625091 132 131 147 3 9
0.698508 0.202018 -0.636949 163 165 152 3 9
0.766065 0.886354 -0.756604 110 60 18 14 8
0.426484 0.276758 -0.799660 158 123 66 39 5
0.439928 0.274843 -0.827455 193 173 155 39 5
0.039814 0.208943 -0.924509 17 17 13 2 6
0.046734 0.234182 -0.924015 17 17 14 2 6
0.407560 0.306130 -0.776256 94 74 39 39 5
0.946065 0.593223 -0.921332 71 60 41 14 8
0.947798 0.588693 -0.912858 70 61 44 14 8
0.940155 0.609751 -0.916840 69 56 36 14 8
0.951123 0.595345 -0.926098 71 60 40 14 8
0.716094 0.196934 -0.908705 124 115 103 3 9
0.589505 0.165666 -0.589593 66 62 72 0 0
0.643178 0.225225 -0.856265 21 22 46 39 5
0.641746 0.209294 -0.807684 28 27 61 39 5
0.641798 0.220790 -0.856199 27 30 51 39 5
0.396077 0.327209 -0.763093 45 40 47 39 5
0.401980 0.331060 -0.760912 85 60 42 39 5
0.403034 0.351826 -0.746772 75 63 58 39 5
0.393425 0.348270 -0.748548 59 53 56 39 5
0.409703 0.336860 -0.765212 89 64 22 39 5
0.412363 0.361503 -0.743722 77 56 27 39 5
0.385600 0.343992 -0.758384 24 21 35 39 5
0.381820 0.353089 -0.748372 16 19 32 39 5
0.421289 0.356752 -0.761190 79 56 25 39 5
0.411563 0.346980 -0.758795 80 61 29 39 5
-0.033439 0.123652 -0.926351 18 18 18 2 6
0.445655 0.246672 -0.807243 177 173 174 39 5
0.436047 0.250641 -0.796338 166 166 171 39 5
0.455179 0.174173 -0.719946 124 121 130 39 5
0.471667 0.170502 -0.715278 118 112 121 39 5
0.888783 0.695762 -0.707327 104 56 15 14 8
0.877906 0.713945 -0.702097 107 58 17 14 8
0.727124 0.957811 -0.714821 119 72 31 0 0
0.710997 0.947779 -0.722216 114 72 32 0 0
0.870127 0.709239 -0.532483 101 53 15 14 8
0.678447 0.166404 -0.921812 99 87 69 2 6
0.699714 0.145278 -0.922255 65 54 34 2 6
0.735627 0.211121 -0.904653 119 112 99 3 9
0.584306 0.864681 -0.531684 121 78 42 0 0
0.812984 0.268657 -0.780489 129 122 110 3 9
0.018254 0.540673 -0.520031 144 103 70 0 0
0.034189 0.595310 -0.919160 157 142 118 2 6
0.053747 0.608239 -0.919075 154 140 119 2 6
0.038218 0.616603 -0.922204 153 136 117 2 6
0.066357 0.604837 -0.913682 144 127 106 2 6
0.834165 0.791626 -0.806561 101 53 18 14 8
0.565489 0.859824 -0.646871 112 70 33 0 0
0.546522 0.846447 -0.610184 117 76 38 0 0
0.713086 0.165915 -0.925158 80 64 47 2 6
0.720613 0.196192 -0.922983 69 58 44 2 6
0.728971 0.191821 -0.925629 72 57 40 2 6
0.712291 0.192004 -0.917050 115 108 90 3 9
0.705510 0.191815 -0.903337 114 104 91 3 9
0.697563 0.188535 -0.911754 124 115 103 3 9
0.622611 0.159777 -0.682624 111 110 124 39 5
0.632632 0.157888 -0.696582 124 117 133 39 5
0.639090 0.167598 -0.687429 147 143 158 39 5
0.630833 0.163379 -0.678503 115 113 127 39 5
0.617151 0.154402 -0.689181 151 149 160 39 5
0.617311 0.167156 -0.679151 102 102 125 39 5
0.568298 0.134755 -0.866228 52 44 75 39 5
0.576806 0.139017 -0.874684 42 41 76 39 5
0.558990 0.124641 -0.908240 44 39 75 39 5
0.542068 0.117944 -0.895350 60 52 71 39 5
0.558376 0.128336 -0.888429 46 37 66 39 5
0.547074 0.118857 -0.908486 65 51 71 39 5
0.541643 0.117280 -0.881545 69 64 71 39 5
0.607861 0.161608 -0.681497 97 96 120 39 5
0.102763 0.597468 -0.713758 134 96 67 0 0
0.527462 0.888082 -0.909287 88 71 50 2 6
0.518380 0.896726 -0.909780 86 67 43 2 6
0.533788 0.905326 -0.908853 94 74 49 2 6
0.070484 0.178299 -0.922415 20 20 19 2 6
0.038298 0.160094 -0.924398 18 18 18 2 6
0.053767 0.179905 -0.923356 18 18 17 2 6
0.039315 0.144970 -0.925390 20 21 17 2 6
0.141545 0.976951 -0.941173 174 147 104 2 6
0.130222 0.990774 -0.945721 169 142 98 2 6
0.147452 0.997092 -0.945296 164 136 96 2 6
0.797920 0.822197 -0.573636 110 61 21 14 8
0.787946 0.840005 -0.576764 111 60 18 14 8
-0.028292 0.518641 -0.676026 124 92 59 0 0
-0.036797 0.511281 -0.646790 132 94 65 0 0
-0.022023 0.674757 -0.929932 142 122 100 2 6
-0.021927 0.711493 -0.933360 148 126 98 2 6
-0.019731 0.693337 -0.930995 139 124 101 2 6
0.588753 0.870291 -0.609434 118 76 35 0 0
0.563862 0.855294 -0.593684 124 80 42 0 0
0.694407 0.932178 -0.549975 120 77 33 0 0
0.684306 0.924801 -0.560111 119 75 36 0 0
0.693283 0.193843 -0.825248 105 95 83 3 9
0.698691 0.191272 -0.827187 114 109 95 3 9
0.690349 0.194063 -0.805438 95 88 75 3 9
0.808969 0.976110 -0.786900 120 74 30 0 0
0.048362 0.034472 -0.925103 79 70 55 2 6
0.032201 0.005966 -0.926077 77 67 50 2 6
0.937235 0.373627 -0.506255 138 132 121 3 9
0.943879 0.379845 -0.489127 138 132 121 3 9
0.260338 0.687213 -0.719934 131 89 55 0 0
-0.035022 0.946260 -0.948415 146 128 102 2 6
0.255211 0.905421 -0.936615 153 124 97 2 6
0.236319 0.897364 -0.935228 156 129 95 2 6
0.633992 0.189294 -0.854684 37 31 63 39 5
0.640210 0.203364 -0.845434 37 31 64 39 5
0.301936 0.717253 -0.809006 127 90 53 0 0
0.289523 0.707763 -0.778136 130 84 55 0 0
0.276011 0.701637 -0.784309 126 88 52 0 0
0.831629 0.308605 -0.619790 141 134 121 3 9
0.556568 1.003207 -0.910142 90 70 45 2 6
0.868779 0.730868 -0.723932 107 55 15 14 8
0.882590 0.706831 -0.754504 107 56 18 14 8
-0.025669 0.547526 -0.910555 139 120 103 2 6
0.775449 0.256763 -0.572871 143 136 127 3 9
0.778434 0.260947 -0.556184 140 136 124 3 9
0.545710 0.857294 -0.793684 116 71 40 0 0
0.012544 0.904086 -0.940694 159 140 102 2 6
0.020227 0.893266 -0.940183 157 126 103 2 6
0.002030 0.916493 -0.944110 156 133 98 2 6
0.954065 0.580430 -0.603373 99 55 20 14 8
0.953999 0.579711 -0.589472 105 58 24 14 8
0.070993 0.586506 -0.765062 114 82 57 0 0
0.621661 0.889482 -0.592684 116 71 36 0 0
0.482765 0.219163 -0.813887 169 166 172 39 5
0.303334 0.816622 -0.933365 138 114 87 2 6
0.307752 0.837047 -0.935804 137 115 89 2 6
0.556185 0.086184 -0.745400 93 81 69 39 5
0.579256 0.103218 -0.740917 95 81 73 39 5
0.356442 0.757149 -0.890566 97 101 128 0 0
0.341767 0.763660 -0.901659 86 78 77 0 0
0.336015 0.755363 -0.900110 102 103 122 0 0
0.785014 0.835336 -0.515559 112 62 20 14 8
0.772990 0.849741 -0.494371 110 58 17 14 8
0.785372 0.831273 -0.492372 117 65 22 14 8
0.632962 0.187423 -0.911859 31 33 72 39 5
0.707229 0.193437 -0.874018 98 89 78 3 9
0.693984 0.194616 -0.860385 113 105 93 3 9
0.701526 0.191983 -0.850483 109 101 83 3 9
0.704827 0.191466 -0.834235 120 111 98 3 9
0.276416 0.699810 -0.879304 93 100 136 0 0
0.261108 0.698555 -0.887827 69 81 112 0 0
0.280083 0.717584 -0.901992 92 94 121 0 0
0.290549 0.708835 -0.884894 88 101 134 0 0
0.273256 0.708052 -0.897113 88 93 121 0 0
0.875190 0.718424 -0.832783 92 62 30 14 8
0.888103 0.694428 -0.866186 77 64 44 14 8
0.880862 0.708643 -0.841965 88 60 31 14 8
0.877485 0.710974 -0.856775 80 61 35 14 8
0.887784 0.691941 -0.848738 93 60 30 14 8
0.625417 0.212395 -0.573084 217 211 204 0 0
0.840451 0.984885 -0.808627 119 74 30 0 0
0.702329 0.209678 -0.584266 118 114 104 3 9
0.702340 0.213503 -0.600172 127 126 118 3 9
0.431011 0.142113 -0.569123 40 44 79 39 5
0.712299 0.088624 -0.918943 92 76 59 2 6
0.719829 0.104245 -0.917668 89 75 50 2 6
0.699127 0.103870 -0.925868 87 79 59 2 6
0.670962 0.920615 -0.670168 113 70 33 0 0
0.644015 0.906474 -0.695059 112 69 32 0 0
0.509223 0.883384 -0.911669 92 73 56 2 6
0.489843 0.893914 -0.914950 88 71 45 2 6
0.483361 0.910866 -0.911444 95 79 53 2 6
0.483744 0.867862 -0.914258 94 72 55 2 6
0.360011 0.336144 -0.790681 14 14 25 39 5
0.377147 0.326625 -0.778026 13 13 25 39 5
0.644315 0.909056 -0.760371 107 65 25 0 0
0.220219 0.815775 -0.929271 147 128 98 2 6
0.199284 0.825095 -0.931005 150 130 104 2 6
0.202133 0.837220 -0.933177 156 134 99 2 6
0.180048 0.838475 -0.928563 146 128 97 2 6
0.699852 0.218613 -0.620505 146 142 129 3 9
0.701025 0.217507 -0.625119 143 137 128 3 9
0.257115 0.692822 -0.828550 112 90 76 0 0
0.247150 0.689194 -0.809925 126 94 78 0 0
0.861506 0.754849 -0.808524 107 62 19 14 8
0.877064 0.718961 -0.822088 108 60 22 14 8
0.869761 0.730907 -0.811641 109 61 19 14 8
0.869770 0.731777 -0.824080 99 63 20 14 8
0.863437 0.750378 -0.828959 88 59 34 14 8
0.868419 0.741940 -0.835555 77 65 41 14 8
0.598584 0.161863 -0.796294 103 99 114 39 5
0.588411 0.152131 -0.807173 96 93 109 39 5
0.889329 0.683699 -0.580395 107 58 18 14 8
0.887784 0.682294 -0.554184 106 59 16 14 8
0.346172 0.979550 -0.928715 104 86 58 2 6
0.327753 0.986409 -0.928687 102 84 57 2 6
0.321858 0.985299 -0.932807 127 107 69 2 6
0.347739 0.989307 -0.925163 102 82 60 2 6
0.325230 1.002445 -0.922711 108 87 65 2 6
0.035490 0.812475 -0.934133 150 129 107 2 6
0.742750 0.218493 -0.820497 124 118 106 3 9
0.758090 0.230187 -0.804684 127 117 104 3 9
0.087412 0.743780 -0.929616 148 122 106 2 6
0.431130 0.364797 -0.763180 87 85 91 39 5
0.441757 0.366076 -0.765699 65 60 68 39 5
0.420690 0.372210 -0.744266 81 77 79 39 5
0.430858 0.372059 -0.751088 85 81 82 39 5
0.183505 0.188237 -0.920789 41 33 33 2 6
0.198136 0.197948 -0.919019 39 33 33 2 6
0.207354 0.184672 -0.921571 38 33 30 2 6
0.169169 0.972438 -0.939521 156 134 98 2 6
0.168642 0.989681 -0.944040 162 134 96 2 6
0.753938 0.246033 -0.589033 138 134 124 3 9
0.731456 0.240412 -0.613720 141 135 124 3 9
0.907506 0.653118 -0.874247 76 62 39 14 8
0.919401 0.639138 -0.884198 75 66 45 14 8
0.921301 0.639684 -0.898406 71 59 38 14 8
0.911119 0.649433 -0.897134 71 60 37 14 8
0.522431 0.107697 -0.853439 38 37 77 39 5
0.014651 0.195756 -0.924294 17 16 17 2 6
0.780409 0.861907 -0.668844 118 67 23 14 8
0.791574 0.841651 -0.648118 110 60 21 14 8
0.774436 0.866508 -0.646669 109 57 16 14 8
0.734684 0.924556 -0.634499 122 67 20 14 8
0.732752 0.923657 -0.615687 116 70 25 14 8
0.287802 0.120538 -0.896837 91 75 56 2 6
0.410395 0.889726 -0.930244 99 81 59 2 6
0.403465 0.891212 -0.932202 100 84 62 2 6
0.379891 0.910188 -0.934348 123 102 70 2 6
0.399639 0.913605 -0.929277 124 104 72 2 6
0.411409 0.887486 -0.925678 93 75 57 2 6
0.214831 0.907940 -0.939988 164 137 99 2 6
0.214966 0.921350 -0.941070 160 132 98 2 6
0.400193 0.825021 -0.929137 96 83 62 2 6
0.403423 0.825261 -0.925017 95 83 62 2 6
0.412882 0.840139 -0.924719 89 73 52 2 6
0.395068 0.836568 -0.932841 96 84 65 2 6
0.123646 0.137924 -0.921635 26 25 21 2 6
0.108537 0.130601 -0.922532 40 36 32 2 6
0.744380 0.233949 -0.644346 156 149 135 3 9
0.682279 0.931204 -0.811350 103 68 30 0 0
0.698314 0.940621 -0.728057 113 70 31 0 0
0.699741 0.941906 -0.738716 115 69 33 0 0
0.835289 0.795115 -0.780862 109 57 18 14 8
0.040602 0.560618 -0.719850 120 85 56 0 0
0.015683 0.543671 -0.711753 106 76 52 0 0
0.023118 0.553574 -0.732986 99 74 51 0 0
0.016729 0.545430 -0.724041 68 48 32 0 0
0.373836 0.312703 -0.754941 11 14 25 39 5
0.385592 0.311472 -0.758862 11 14 25 39 5
0.358943 0.320387 -0.756941 18 17 33 39 5
0.364659 0.327550 -0.783001 12 14 26 39 5
0.109206 0.841954 -0.931185 156 136 88 2 6
0.126101 0.844482 -0.931680 157 131 103 2 6
0.105878 0.865458 -0.932804 159 137 104 2 6
0.840295 0.768911 -0.660986 107 60 20 14 8
0.365723 0.257282 -0.639930 41 40 57 39 5
0.363538 0.242558 -0.613148 34 34 52 39 5
0.361567 0.259734 -0.615605 36 37 55 39 5
0.724345 0.944412 -0.527314 123 79 34 0 0
0.717521 0.942513 -0.547764 123 81 30 0 0
0.736647 0.949581 -0.554407 123 79 32 0 0
0.862849 0.752902 -0.798037 105 54 15 14 8
0.155806 0.617285 -0.499684 145 103 64 0 0
-0.016873 0.727718 -0.933571 149 124 98 2 6
0.246631 0.818816 -0.932162 145 118 89 2 6
0.255903 0.848032 -0.931489 146 123 91 2 6
0.234274 0.835132 -0.929213 151 130 96 2 6
0.818655 0.292228 -0.523184 143 137 124 3 9
0.371696 0.232419 -0.636464 35 38 56 39 5
0.385719 0.204794 -0.610184 41 41 63 39 5
0.287009 0.731895 -0.906691 74 67 70 0 0
0.298721 0.731689 -0.904360 78 75 72 0 0
0.305698 0.745163 -0.903667 77 69 60 0 0
0.315985 0.750479 -0.907747 79 74 71 0 0
0.351224 0.738966 -0.708524 127 84 50 0 0
0.347328 0.735909 -0.692184 128 84 51 0 0
0.247706 0.683714 -0.759132 134 94 62 0 0
0.240490 0.679363 -0.767636 133 97 60 0 0
0.538328 0.950673 -0.907270 92 69 47 2 6
0.568839 0.963351 -0.909385 87 69 40 2 6
0.735911 0.960503 -0.750779 113 68 31 0 0
0.705400 0.944146 -0.757915 114 69 33 0 0
0.719656 0.951053 -0.740238 115 69 32 0 0
0.730775 0.957330 -0.771684 114 71 28 0 0
0.730925 0.240464 -0.619734 149 142 132 3 9
0.262257 0.686003 -0.684434 134 89 59 0 0
0.391437 0.206503 -0.660542 53 53 66 39 5
0.417968 0.173425 -0.671284 72 73 92 39 5
0.406953 0.189462 -0.667088 76 74 90 39 5
0.354868 0.263985 -0.596598 34 33 50 39 5
0.349226 0.278631 -0.618097 36 36 54 39 5
0.006569 0.536674 -0.569049 146 106 74 0 0
0.031820 0.549507 -0.573175 145 106 73 0 0
0.602366 0.881408 -0.659809 111 67 33 0 0
0.874365 0.321434 -0.641641 136 129 120 3 9
0.869871 0.317150 -0.657307 138 128 119 3 9
0.591146 0.137064 -0.669531 103 99 122 39 5
0.797738 0.285301 -0.617502 141 136 125 3 9
0.788240 0.275910 -0.625178 150 144 132 3 9
0.786022 0.277622 -0.615496 145 138 127 3 9
0.905354 0.665972 -0.810064 96 50 20 14 8
0.926096 0.637121 -0.821835 90 48 15 14 8
0.366022 0.748860 -0.845432 113 92 78 0 0
0.368298 0.751812 -0.862865 93 101 128 0 0
0.314523 0.065271 -0.921405 76 66 49 2 6
0.349053 0.070256 -0.917814 92 80 63 2 6
0.327364 0.084682 -0.919636 85 75 58 2 6
0.347976 0.084715 -0.918392 90 80 60 2 6
0.316702 0.035635 -0.923176 70 58 46 2 6
0.337958 0.057345 -0.921116 72 62 47 2 6
0.513731 0.070961 -0.716116 81 73 69 39 5
0.020412 0.923784 -0.945021 169 138 100 2 6
0.046917 0.922906 -0.943823 170 146 108 2 6
0.048070 0.948133 -0.947307 167 142 110 2 6
0.031403 0.910808 -0.940881 156 130 96 2 6
0.416611 0.823409 -0.917821 100 82 68 2 6
0.439157 0.843632 -0.920716 88 73 54 2 6
0.413161 0.816404 -0.914364 100 82 70 2 6
0.434660 0.824036 -0.909148 90 79 66 2 6
0.447840 0.815234 -0.903991 83 76 69 2 6
0.752450 0.948081 -0.639451 117 71 26 14 8
0.757414 0.958376 -0.622477 117 71 29 0 0
0.763231 0.957572 -0.616507 123 77 31 14 8
0.745037 0.953418 -0.639325 118 74 36 0 0
0.742527 0.954038 -0.621118 118 76 31 0 0
0.755715 0.952899 -0.638354 117 73 29 0 0
0.759062 0.953437 -0.621771 123 77 31 14 8
0.286981 0.955441 -0.938400 160 136 95 2 6
0.628847 0.901701 -0.829279 104 65 36 0 0
0.841896 0.764035 -0.619691 112 60 22 14 8
0.841967 0.761096 -0.641476 113 59 27 14 8
0.834473 0.777000 -0.650153 108 60 18 14 8
0.368682 0.241189 -0.642749 37 36 55 39 5
0.374199 0.235613 -0.658449 50 52 64 39 5
0.369824 0.260007 -0.659510 49 51 61 39 5
0.375982 0.269517 -0.678125 56 60 68 39 5
0.772323 0.973836 -0.762407 116 72 29 0 0
0.793707 0.975127 -0.776848 116 72 30 0 0
0.784188 0.979447 -0.744043 111 72 30 0 0
0.773453 0.978679 -0.740380 105 69 29 0 0
0.495391 0.976686 -0.908904 95 76 50 2 6
0.911327 0.661808 -0.744261 99 51 18 14 8
0.305394 0.717453 -0.790876 123 85 49 0 0
0.270433 0.108902 -0.918374 85 73 54 2 6
0.270974 0.085735 -0.920473 83 77 58 2 6
0.294190 0.925931 -0.938210 153 130 97 2 6
0.271763 0.920111 -0.939372 153 129 87 2 6
0.273985 0.932647 -0.940366 169 145 89 2 6
0.255943 0.884279 -0.932363 148 126 84 2 6
0.304208 0.723990 -0.887957 89 101 128 0 0
0.313430 0.741016 -0.899638 93 100 120 0 0
0.308359 0.729725 -0.897792 93 100 120 0 0
0.292793 0.715402 -0.893582 89 101 131 0 0
0.313394 0.733079 -0.889411 89 102 130 0 0
0.060904 0.979996 -0.941768 168 141 106 2 6
0.064233 0.990521 -0.946393 168 139 101 2 6
0.412892 0.232704 -0.728970 98 98 105 39 5
0.769103 0.971699 -0.812274 114 70 29 0 0
0.747344 0.961575 -0.821496 114 72 29 0 0
0.699430 0.191631 -0.800961 111 105 92 3 9
0.689777 0.192494 -0.780792 59 57 74 3 9
0.850312 0.299812 -0.698634 133 126 111 3 9
0.220035 0.666714 -0.747687 134 98 63 0 0
0.184290 0.646766 -0.769858 136 97 67 0 0
0.205217 0.657454 -0.757355 137 99 63 0 0
0.236427 0.855320 -0.930983 151 128 96 2 6
0.437239 0.224928 -0.770132 115 112 119 39 5
0.441110 0.209805 -0.757139 151 149 159 39 5
0.420031 0.229421 -0.739746 153 155 162 39 5
0.269135 0.694559 -0.763772 130 89 61 0 0
0.254789 0.685560 -0.747248 133 92 58 0 0
0.204277 0.653595 -0.669684 139 100 66 0 0
0.890888 0.691224 -0.754409 102 53 23 14 8
0.892344 0.686383 -0.737680 102 52 17 14 8
0.713672 0.225178 -0.490496 140 134 121 3 9
0.695790 0.213295 -0.487684 140 134 122 3 9
0.678695 0.933935 -0.890859 84 78 69 0 0
0.686237 0.933517 -0.865484 92 77 69 0 0
0.696888 0.945791 -0.897371 84 76 63 0 0
0.020480 0.294540 -0.922531 18 17 18 2 6
-0.004347 0.293710 -0.923909 17 17 17 2 6
0.612033 0.166509 -0.852434 33 38 84 39 5
0.515533 0.070257 -0.648046 83 82 97 39 5
0.497602 0.070272 -0.632260 93 86 88 39 5
0.483541 0.067022 -0.628557 68 62 55 39 5
0.499213 0.068976 -0.615378 88 74 59 39 5
0.234515 0.144960 -0.922097 84 70 52 2 6
0.226502 0.149657 -0.924274 84 69 54 2 6
0.845770 0.757342 -0.611770 108 57 18 14 8
0.843439 0.753672 -0.586951 110 58 23 14 8
0.744978 0.959329 -0.841038 108 69 34 0 0
0.223466 0.673846 -0.823314 103 86 85 0 0
0.237469 0.681654 -0.834869 100 95 108 0 0
0.236380 0.681763 -0.814650 123 92 59 0 0
0.703849 0.163522 -0.921383 70 57 40 2 6
0.726126 0.171407 -0.925068 81 64 45 2 6
0.735373 0.153743 -0.918750 78 63 49 2 6
0.325911 0.729677 -0.788034 123 86 50 0 0
0.138680 0.617823 -0.706026 143 105 74 0 0
0.201744 0.656546 -0.817629 105 74 49 0 0
0.637668 0.099799 -0.922594 90 79 61 2 6
0.576979 0.860289 -0.523996 122 79 39 0 0
0.603065 0.876322 -0.552732 120 78 38 0 0
0.416061 0.129143 -0.550698 39 38 62 39 5
0.139851 0.803761 -0.929715 143 121 92 2 6
0.153256 0.811376 -0.930922 149 125 95 2 6
0.156127 0.788514 -0.924341 149 125 101 2 6
0.337144 0.734226 -0.763178 126 85 47 0 0
0.311432 0.720526 -0.769968 127 83 48 0 0
0.007393 0.008962 -0.928775 79 70 57 2 6
0.031430 0.038615 -0.926184 71 63 50 2 6
0.872764 0.321537 -0.572376 144 137 127 3 9
0.872862 0.326705 -0.544825 138 131 123 3 9
0.863260 0.318099 -0.561576 135 130 120 3 9
0.420095 0.256294 -0.768683 153 151 160 39 5
0.420605 0.241110 -0.755479 123 123 131 39 5
0.691766 0.934311 -0.719562 112 69 31 0 0
0.255932 0.679178 -0.585434 138 94 63 0 0
0.252162 0.676185 -0.565434 142 97 63 0 0
0.564545 0.144399 -0.579016 71 71 100 0 0
0.390806 0.752774 -0.506684 130 88 49 0 0
0.402498 0.760141 -0.532059 129 85 50 0 0
0.116649 0.925694 -0.938536 159 136 99 2 6
0.134624 0.927718 -0.940436 162 136 99 2 6
0.029434 0.546667 -0.554684 140 100 64 0 0
0.176199 0.886577 -0.939761 155 132 91 2 6
0.151383 0.872089 -0.940055 155 132 99 2 6
0.185798 0.867175 -0.932921 149 126 85 2 6
0.522536 0.839577 -0.838029 95 84 72 0 0
0.457221 0.810268 -0.888341 89 90 112 0 0
0.459377 0.808441 -0.869750 90 92 108 0 0
0.147964 0.271137 -0.926999 20 17 18 2 6
0.416123 0.301178 -0.791984 125 103 80 39 5
0.429907 0.294219 -0.811772 138 132 141 39 5
0.419006 0.318054 -0.792976 115 113 116 39 5
0.438315 0.318645 -0.817110 125 117 126 39 5
0.421446 0.330880 -0.791912 102 96 93 39 5
0.123870 0.632975 -0.894268 139 129 113 2 6
0.119326 0.646260 -0.918694 152 133 114 2 6
0.108678 0.653723 -0.922416 148 127 108 2 6
0.112326 0.631899 -0.909814 134 123 119 2 6
0.123814 0.640134 -0.913124 147 129 112 2 6
0.134980 0.606485 -0.517684 144 103 68 0 0
0.804585 0.260942 -0.806156 128 123 110 3 9
0.307322 0.916184 -0.934531 152 122 91 2 6
0.293527 0.937301 -0.937712 146 121 84 2 6
0.311414 0.949309 -0.937486 105 86 62 2 6
0.158387 0.913470 -0.939968 157 128 96 2 6
0.180277 0.909555 -0.939781 157 129 93 2 6
0.063122 0.574525 -0.723298 129 91 61 0 0
0.078806 0.588065 -0.746562 125 90 59 0 0
0.819046 0.797554 -0.645529 104 56 15 14 8
0.817323 0.808839 -0.679125 105 58 16 14 8
0.827713 0.788064 -0.664949 109 62 21 14 8
0.814037 0.807294 -0.647684 114 59 19 14 8
0.805601 0.821254 -0.653692 117 62 20 14 8
0.616271 0.169757 -0.863684 37 39 84 39 5
0.169655 0.664403 -0.900964 140 126 113 2 6
0.447306 0.131265 -0.596360 60 60 90 39 5
0.372122 0.222028 -0.593231 34 36 55 39 5
0.705131 0.946494 -0.673850 115 71 31 0 0
0.726831 0.948411 -0.592114 122 77 30 0 0
0.724322 0.945408 -0.568810 121 78 30 0 0
0.276694 0.969936 -0.941927 154 126 78 2 6
0.291503 0.976764 -0.937524 160 133 85 2 6
0.472445 0.114000 -0.911771 89 80 68 2 6
0.482202 0.116243 -0.910550 51 45 73 39 5
0.242581 0.668463 -0.524434 140 96 61 0 0
0.243980 0.667922 -0.491371 144 100 62 0 0
0.643535 0.172580 -0.592250 82 76 97 39 5
0.647455 0.192269 -0.606539 93 93 107 39 5
0.591122 0.934258 -0.907425 94 76 45 2 6
0.572178 0.948057 -0.908230 89 70 42 2 6
0.347410 0.734229 -0.594684 131 86 55 0 0
0.365729 0.742265 -0.579684 130 85 57 0 0
0.655024 0.037443 -0.925029 82 68 46 2 6
0.668213 0.037989 -0.924648 90 75 51 2 6
0.294076 0.838542 -0.934827 117 99 77 2 6
0.305006 0.855105 -0.935073 122 100 76 2 6
0.314029 0.862476 -0.937939 139 115 82 2 6
0.313825 0.877869 -0.939188 134 114 79 2 6
0.288762 0.867754 -0.935533 152 124 88 2 6
0.031658 0.547712 -0.503681 144 102 69 0 0
0.868923 0.728206 -0.758160 100 59 16 14 8
0.866159 0.734854 -0.743457 100 57 15 14 8
0.864113 0.739012 -0.787426 107 57 18 14 8
0.411712 0.270254 -0.763110 93 93 95 39 5
0.510715 0.110935 -0.877046 32 34 84 39 5
0.527839 0.110718 -0.890945 67 62 83 39 5
0.193854 0.954074 -0.939753 164 134 95 2 6
0.229965 0.970289 -0.939801 154 127 86 2 6
0.208308 0.954860 -0.941235 166 139 100 2 6
0.478158 0.828032 -0.899053 83 90 103 0 0
0.479684 0.106367 -0.584052 36 35 66 39 5
0.671101 0.206059 -0.509407 135 131 129 3 9
0.658226 0.155480 -0.922470 81 70 53 2 6
0.639122 0.156605 -0.922306 79 66 47 2 6
0.538734 0.075773 -0.746327 112 103 102 39 5
0.530656 0.074850 -0.750155 97 88 87 39 5
0.474800 0.073496 -0.570895 84 74 62 39 5
0.907338 0.345124 -0.573886 139 131 123 3 9
0.817499 0.797616 -0.583684 108 65 26 14 8
0.807470 0.810776 -0.589319 115 64 19 14 8
0.140049 0.158273 -0.922319 34 33 28 2 6
0.783858 0.842242 -0.552958 113 63 20 14 8
0.778971 0.855505 -0.573069 109 57 17 14 8
0.769697 0.866313 -0.561611 114 62 18 14 8
0.108764 0.626747 -0.900241 116 114 107 2 6
-0.038915 0.173533 -0.925927 17 16 18 2 6
-0.022075 0.180279 -0.924761 17 16 18 2 6
0.000030 0.208086 -0.924592 17 16 18 2 6
-0.000156 0.185099 -0.924500 17 16 18 2 6
0.384958 0.292924 -0.727496 40 41 52 39 5
0.377574 0.300920 -0.729124 25 24 38 39 5
0.213797 0.165597 -0.925664 56 47 39 2 6
0.211000 0.143112 -0.916005 96 86 62 2 6
0.225759 0.138654 -0.914922 102 86 70 2 6
0.196062 0.157770 -0.918756 63 57 44 2 6
0.197819 0.174652 -0.920319 54 50 39 2 6
0.217728 0.161441 -0.926718 90 76 58 2 6
0.434654 0.106653 -0.552322 41 44 83 39 5
0.440976 0.128126 -0.567012 56 57 101 39 5
0.441060 0.120162 -0.560824 81 84 144 39 5
0.420647 0.139149 -0.557432 37 37 58 39 5
0.427486 0.122872 -0.555290 33 36 65 39 5
0.489098 0.856112 -0.906275 88 74 55 2 6
0.495692 0.869697 -0.912291 93 76 55 2 6
0.510761 0.871126 -0.906816 98 79 62 2 6
0.727921 0.944103 -0.513935 123 79 40 0 0
0.757589 0.874230 -0.499288 117 64 18 14 8
0.757832 0.871042 -0.483344 116 62 24 14 8
0.764644 0.868147 -0.517415 117 64 22 14 8
0.493149 0.830307 -0.889844 95 89 107 0 0
0.502670 0.839069 -0.896749 87 87 97 0 0
0.336121 0.810236 -0.929747 94 81 63 2 6
0.345919 0.823092 -0.933461 105 90 70 2 6
0.091709 0.118752 -0.923815 30 29 25 2 6
0.076827 0.132846 -0.923080 26 24 25 2 6
0.062729 0.138458 -0.923621 23 22 21 2 6
0.023547 0.085779 -0.923808 24 24 20 2 6
0.008743 0.095466 -0.923842 22 21 19 2 6
0.520806 0.842089 -0.775684 115 71 38 0 0
0.531010 0.848142 -0.767743 116 75 41 0 0
0.288253 0.790397 -0.923585 103 84 68 2 6
0.288409 0.798079 -0.924544 98 82 65 2 6
0.146520 0.839157 -0.930859 149 129 93 2 6
0.834082 0.771499 -0.593773 109 61 21 14 8
0.836168 0.771341 -0.622051 105 54 15 14 8
0.560130 0.057039 -0.923080 71 58 45 2 6
0.052296 0.325739 -0.923063 18 16 17 2 6
0.040240 0.313382 -0.924325 18 16 17 2 6
0.056366 0.308911 -0.921510 19 16 17 2 6
0.020865 0.549172 -0.641662 138 98 61 0 0
0.023242 0.546466 -0.620690 142 100 68 0 0
0.000862 0.537207 -0.627394 137 98 59 0 0
0.166323 0.637059 -0.809239 120 86 57 0 0
0.173675 0.641415 -0.800862 102 72 49 0 0
0.174921 0.646899 -0.829344 93 71 68 0 0
0.180463 0.645804 -0.814804 96 72 59 0 0
-0.035260 0.538152 -0.913774 134 119 103 2 6
0.727916 0.216705 -0.720059 130 126 114 3 9
0.633613 0.163617 -0.580644 100 100 121 39 5
0.613582 0.151011 -0.563603 107 109 149 39 5
0.641335 0.174294 -0.571328 128 127 152 39 5
0.608761 0.147406 -0.577467 109 108 143 39 5
0.622545 0.156646 -0.582559 96 94 126 39 5
0.138177 0.614717 -0.647434 140 101 72 0 0
0.906255 0.663249 -0.707912 105 56 18 14 8
0.896062 0.682786 -0.670824 103 54 14 14 8
0.901709 0.673311 -0.670728 103 56 18 14 8
0.569643 0.084864 -0.923167 65 56 38 2 6
0.616647 0.093498 -0.924152 83 68 53 2 6
0.593423 0.099092 -0.921960 87 75 61 2 6
0.175092 0.808863 -0.927756 138 121 97 2 6
0.165591 0.830246 -0.928640 148 127 96 2 6
0.461626 0.063643 -0.919595 82 72 56 2 6
0.458429 0.070714 -0.919926 103 94 87 2 6
-0.015997 0.080457 -0.926728 23 24 19 2 6
-0.036349 0.057122 -0.927665 23 23 22 2 6
-0.015774 0.052884 -0.926257 30 29 24 2 6
0.469357 0.045347 -0.922839 76 66 44 2 6
0.713009 0.947835 -0.789951 113 68 28 0 0
0.174305 0.670090 -0.911530 137 130 109 2 6
0.170639 0.681636 -0.924254 148 133 104 2 6
0.162753 0.666910 -0.918338 146 133 116 2 6
0.182293 0.678684 -0.919596 145 131 110 2 6
0.192112 0.681130 -0.915905 135 118 107 2 6
0.813311 0.298080 -0.619400 138 135 121 3 9
0.825261 0.294190 -0.588973 141 135 123 3 9
0.807474 0.282986 -0.591537 141 134 123 3 9
0.912069 0.642867 -0.536065 103 56 19 14 8
0.904232 0.651875 -0.503747 109 61 18 14 8
0.088735 0.857635 -0.931659 160 136 107 2 6
0.036953 0.564013 -0.742559 99 73 50 0 0
0.036733 0.556026 -0.728427 101 72 50 0 0
0.054450 0.573009 -0.744725 127 91 63 0 0
0.038937 0.827859 -0.937075 152 136 102 2 6
0.711325 0.225745 -0.611507 142 136 126 3 9
0.745345 0.237957 -0.580862 141 137 126 3 9
0.719954 0.221686 -0.584412 139 134 123 3 9
0.089104 0.587528 -0.671462 138 100 69 0 0
0.367319 0.752836 -0.810377 123 82 50 0 0
0.533937 0.073690 -0.703467 85 72 55 39 5
0.516852 0.073174 -0.689109 82 70 65 39 5
0.531011 0.073294 -0.680684 92 76 61 39 5
0.685387 0.115165 -0.922643 97 82 60 2 6
0.686193 0.097834 -0.925116 89 78 56 2 6
0.680418 0.075289 -0.924749 89 74 51 2 6
0.670873 0.209285 -0.645930 165 160 161 3 9
0.653449 0.215255 -0.661232 110 104 122 39 5
0.660692 0.209236 -0.673956 166 162 165 39 5
0.389076 0.077796 -0.917642 81 72 58 2 6
0.406871 0.075706 -0.918914 93 81 60 2 6
0.405154 0.050103 -0.922455 81 67 52 2 6
0.584635 0.145288 -0.851684 41 42 80 39 5
0.597887 0.155247 -0.875559 41 42 87 39 5
0.650074 0.942344 -0.906533 94 78 54 2 6
0.660167 0.949832 -0.907129 90 73 51 2 6
0.872873 0.724322 -0.845943 78 63 38 14 8
0.299535 0.706872 -0.655684 130 86 52 0 0
0.023072 0.234812 -0.926266 17 17 15 2 6
0.260465 0.125257 -0.915212 88 75 60 2 6
0.262450 0.116149 -0.915790 92 84 64 2 6
0.287848 0.111778 -0.915204 90 79 54 2 6
0.274472 0.121200 -0.907718 80 66 53 2 6
0.139453 0.107421 -0.924220 59 53 39 2 6
0.146359 0.089772 -0.923927 83 78 62 2 6
0.446965 0.840683 -0.916659 88 72 55 2 6
0.468077 0.864645 -0.918765 89 70 54 2 6
0.636436 0.917382 -0.900166 84 78 64 0 0
0.452909 0.329609 -0.826166 159 154 156 39 5
0.473541 0.330093 -0.844562 179 171 179 39 5
0.173605 0.023281 -0.923952 80 73 55 2 6
0.172755 0.038779 -0.925273 78 68 50 2 6
0.192998 0.040684 -0.926319 77 66 49 2 6
0.809678 0.815897 -0.662974 113 59 20 14 8
0.796620 0.834152 -0.637813 112 59 21 14 8
0.733015 0.208236 -0.877184 126 118 103 3 9
0.765712 0.229818 -0.867719 130 121 107 3 9
0.747804 0.219550 -0.848309 122 116 100 3 9
-0.004042 0.768625 -0.934967 160 129 102 2 6
0.384703 0.357658 -0.737672 20 19 36 39 5
0.010142 0.678540 -0.927255 150 128 101 2 6
