ply
format ascii 1.0
element vertex 1143
property float x
property float y
property float z
property uchar red
property uchar green
property uchar blue
property uchar semantic_label
property uchar instance_label
end_header
0.154892 0.040526 0.042649 0 255 0 57 18
0.164238 0.048743 0.072649 0 255 0 57 18
0.179330 -0.003951 0.063649 0 255 0 57 18
0.183480 0.077893 0.090649 0 255 0 57 18
0.214100 0.118100 0.084649 0 255 0 57 18
0.186230 0.006067 0.072649 0 255 0 57 18
0.202775 0.091914 0.096649 0 255 0 57 18
0.159677 0.061188 0.060649 0 255 0 57 18
0.213686 0.026348 0.009649 0 255 0 57 18
0.224972 0.016326 0.069649 0 255 0 57 18
0.171023 0.073188 0.063649 0 255 0 57 18
0.160780 0.024954 0.031278 0 255 0 57 18
0.215918 0.104450 0.070338 0 255 0 57 18
0.152534 0.028686 0.072649 0 255 0 57 18
0.187452 0.088872 0.107658 0 255 0 57 18
0.199668 0.003482 0.030649 0 255 0 57 18
0.205906 0.093281 0.058620 0 255 0 57 18
0.240097 0.030060 0.096649 0 255 0 57 18
0.168150 0.024309 0.078649 0 255 0 57 18
0.177533 0.062637 0.021649 0 255 0 57 18
0.224737 0.007312 0.033649 0 255 0 57 18
0.169876 0.025658 0.096649 0 255 0 57 18
0.211099 0.083792 0.080738 0 255 0 57 18
0.168131 0.057437 0.093649 0 255 0 57 18
0.154278 0.061661 0.105649 0 255 0 57 18
0.170721 0.000903 0.096649 0 255 0 57 18
0.171643 0.030026 0.030649 0 255 0 57 18
0.166880 0.025840 0.018649 0 255 0 57 18
0.157613 0.037277 0.030649 0 255 0 57 18
0.228822 0.028036 0.042649 0 255 0 57 18
0.238343 0.021180 0.054649 0 255 0 57 18
0.212373 -0.004906 0.063649 0 255 0 57 18
0.196190 0.000775 0.108649 0 255 0 57 18
0.219025 0.089122 0.105649 0 255 0 57 18
0.233374 0.012580 0.051649 0 255 0 57 18
0.187412 -0.007491 0.102649 0 255 0 57 18
0.182271 -0.004763 0.087649 0 255 0 57 18
0.152010 0.040778 0.063649 0 255 0 57 18
0.213090 0.020377 0.018649 0 255 0 57 18
0.169872 0.025618 0.048649 0 255 0 57 18
0.240288 0.024021 0.072649 0 255 0 57 18
0.200019 -0.008439 0.102649 0 255 0 57 18
0.166515 0.056087 0.084649 0 255 0 57 18
0.186234 0.006116 0.081649 0 255 0 57 18
0.175210 0.086622 0.096649 0 255 0 57 18
0.228428 0.022047 0.063649 0 255 0 57 18
0.225921 0.031300 0.015649 0 255 0 57 18
0.181814 0.008057 0.096649 0 255 0 57 18
0.167703 0.072532 0.090649 0 255 0 57 18
0.235315 0.030479 0.084649 0 255 0 57 18
0.233132 0.030669 0.102649 0 255 0 57 18
0.227543 0.022125 0.021649 0 255 0 57 18
0.171725 0.081215 0.109757 0 255 0 57 18
0.207214 0.108224 0.059596 0 255 0 57 18
0.244517 0.018288 0.102649 0 255 0 57 18
0.200892 0.001549 0.042649 0 255 0 57 18
0.236226 0.042445 0.066649 0 255 0 57 18
0.154246 0.022514 0.060649 0 255 0 57 18
0.198191 0.005100 0.060649 0 255 0 57 18
0.215273 0.097083 0.051649 0 255 0 57 18
0.212668 0.101724 0.044157 0 255 0 57 18
0.241931 0.023151 0.090649 0 255 0 57 18
0.194314 -0.008095 0.072649 0 255 0 57 18
0.225039 0.019331 0.078649 0 255 0 57 18
0.151598 0.046837 0.081649 0 255 0 57 18
0.244263 0.068844 0.105649 0 255 0 57 18
0.234077 0.060701 0.093649 0 255 0 57 18
0.153580 0.022572 0.078649 0 255 0 57 18
0.151801 0.031763 0.105649 0 255 0 57 18
0.163507 0.021703 0.109856 0 255 0 57 18
0.166723 0.066594 0.042649 0 255 0 57 18
0.153415 0.022587 0.090649 0 255 0 57 18
0.226582 0.067381 0.105649 0 255 0 57 18
0.235281 0.009401 0.102649 0 255 0 57 18
0.236567 0.045426 0.096649 0 255 0 57 18
0.197136 -0.006969 0.081649 0 255 0 57 18
0.232866 0.036716 0.042649 0 255 0 57 18
0.185585 -0.001309 0.035039 0 255 0 57 18
0.201835 0.012327 0.011202 0 255 0 57 18
0.181824 0.024553 0.018649 0 255 0 57 18
0.232617 0.036738 0.054649 0 255 0 57 18
0.237040 0.070504 0.081649 0 255 0 57 18
0.173665 0.017803 0.078649 0 255 0 57 18
0.238920 0.075335 0.096649 0 255 0 57 18
0.161452 0.067056 0.066900 0 255 0 57 18
0.151262 0.043855 0.099649 0 255 0 57 18
0.235735 0.036465 0.078649 0 255 0 57 18
0.246727 0.043555 0.084649 0 255 0 57 18
0.158852 0.013077 0.075649 0 255 0 57 18
0.219691 0.113155 0.092123 0 255 0 57 18
0.171027 0.004394 0.042649 0 255 0 57 18
0.233319 0.009573 0.093649 0 255 0 57 18
0.206275 -0.005775 0.054649 0 255 0 57 18
0.216035 0.105787 0.060649 0 255 0 57 18
0.181177 0.017147 0.014615 0 255 0 57 18
0.198003 0.002941 0.021649 0 255 0 57 18
0.186929 0.082895 0.053112 0 255 0 57 18
0.232361 0.033748 0.069649 0 255 0 57 18
0.238737 0.042224 0.054649 0 255 0 57 18
0.227575 0.031155 0.032127 0 255 0 57 18
0.160731 0.058819 0.045649 0 255 0 57 18
0.183506 0.009353 0.045649 0 255 0 57 18
0.189741 0.011773 0.027649 0 255 0 57 18
0.166513 0.056070 0.066649 0 255 0 57 18
0.178009 0.068618 0.036649 0 255 0 57 18
0.157576 0.057179 0.093649 0 255 0 57 18
0.218721 -0.001196 0.047193 0 255 0 57 18
0.165224 0.075759 0.107649 0 255 0 57 18
0.171882 0.066143 0.072649 0 255 0 57 18
0.166908 0.069590 0.057649 0 255 0 57 18
0.176833 0.053663 0.021649 0 255 0 57 18
0.230668 0.012816 0.033649 0 255 0 57 18
0.165925 0.049344 0.021649 0 255 0 57 18
0.213413 0.006976 0.042649 0 255 0 57 18
0.206660 0.101889 0.069649 0 255 0 57 18
0.243912 0.038761 0.105649 0 255 0 57 18
0.237511 0.018241 0.111649 0 255 0 57 18
0.171753 0.066154 0.051649 0 255 0 57 18
0.234448 0.006462 0.110130 0 255 0 57 18
0.173929 0.071987 0.103819 0 255 0 57 18
0.173490 -0.001862 0.105649 0 255 0 57 18
0.180952 0.083418 0.077736 0 255 0 57 18
0.159882 0.049124 0.105951 0 255 0 57 18
0.211878 0.002415 0.099649 0 255 0 57 18
0.210278 0.005566 0.022972 0 255 0 57 18
0.244438 0.051798 0.108649 0 255 0 57 18
0.167931 0.072267 0.081649 0 255 0 57 18
0.223160 -0.001583 0.102649 0 255 0 57 18
0.161125 0.063320 0.081649 0 255 0 57 18
0.171807 0.066149 0.093649 0 255 0 57 18
0.200162 -0.005595 0.045649 0 255 0 57 18
0.223268 0.016356 0.018649 0 255 0 57 18
0.212362 -0.005043 0.078649 0 255 0 57 18
0.225447 0.006841 0.042649 0 255 0 57 18
0.219883 0.012083 0.054649 0 255 0 57 18
0.225079 0.019328 0.090649 0 255 0 57 18
0.212428 0.008389 0.033649 0 255 0 57 18
0.241091 0.042019 0.072649 0 255 0 57 18
0.213155 0.004024 0.090649 0 255 0 57 18
0.177534 0.078765 0.060649 0 255 0 57 18
0.172340 0.019407 0.105649 0 255 0 57 18
0.222787 -0.001552 0.072649 0 255 0 57 18
0.203634 -0.001529 0.078649 0 255 0 57 18
0.170778 0.012033 0.024649 0 255 0 57 18
0.173867 0.020797 0.042649 0 255 0 57 18
0.161665 0.012831 0.051649 0 255 0 57 18
0.210570 0.112160 0.069649 0 255 0 57 18
0.174938 0.014681 0.071104 0 255 0 57 18
0.178594 0.074590 0.048649 0 255 0 57 18
0.220588 0.088985 0.089147 0 255 0 57 18
0.226428 0.019210 0.102649 0 255 0 57 18
0.165206 0.041119 0.075649 0 255 0 57 18
0.165206 0.041128 0.087649 0 255 0 57 18
0.157035 0.022270 0.045649 0 255 0 57 18
0.200190 0.096793 0.102289 0 255 0 57 18
0.167279 0.030408 0.065160 0 255 0 57 18
0.232393 0.051815 0.035121 0 255 0 57 18
0.246661 0.032498 0.093649 0 255 0 57 18
0.217353 0.110348 0.084649 0 255 0 57 18
0.157299 0.016224 0.063649 0 255 0 57 18
0.199546 0.089417 0.078649 0 255 0 57 18
0.234511 0.021514 0.036649 0 255 0 57 18
0.164751 0.006538 0.054649 0 255 0 57 18
0.227985 0.070269 0.087344 0 255 0 57 18
0.233413 0.029045 0.027649 0 255 0 57 18
0.195640 0.079202 0.084649 0 255 0 57 18
0.204607 0.078437 0.093649 0 255 0 57 18
0.161452 0.067056 0.104938 0 255 0 57 18
0.164347 0.033676 0.105649 0 255 0 57 18
0.147462 0.050210 0.102649 0 255 0 57 18
0.157543 0.056804 0.066649 0 255 0 57 18
0.207087 -0.006201 0.099649 0 255 0 57 18
0.241869 0.029905 0.105649 0 255 0 57 18
0.177894 -0.003646 0.081649 0 255 0 57 18
0.241064 0.045033 0.090649 0 255 0 57 18
0.189097 0.004408 0.098285 0 255 0 57 18
0.230151 0.042975 0.027649 0 255 0 57 18
0.215064 0.002136 0.060649 0 255 0 57 18
0.173518 0.032874 0.014636 0 255 0 57 18
0.210947 0.013210 0.021649 0 255 0 57 18
0.206429 0.099258 0.098497 0 255 0 57 18
0.199457 0.096857 0.057649 0 255 0 57 18
0.182858 0.001942 0.109786 0 255 0 57 18
0.167744 0.054459 0.039649 0 255 0 57 18
0.236689 0.066496 0.110331 0 255 0 57 18
0.225110 0.019326 0.054649 0 255 0 57 18
0.224902 0.000612 0.057649 0 255 0 57 18
0.229153 0.083623 0.093649 0 255 0 57 18
0.163182 0.015709 0.033649 0 255 0 57 18
0.180517 0.009605 0.069649 0 255 0 57 18
0.227776 0.085344 0.102649 0 255 0 57 18
0.173677 0.017803 0.093649 0 255 0 57 18
0.225309 0.022320 0.045649 0 255 0 57 18
0.218408 0.010877 0.090649 0 255 0 57 18
0.181813 0.008057 0.087649 0 255 0 57 18
0.203764 0.103215 0.054649 0 255 0 57 18
0.175871 0.059771 0.014712 0 255 0 57 18
0.227078 0.112508 0.078649 0 255 0 57 18
0.167143 0.028849 0.090649 0 255 0 57 18
0.235643 0.054541 0.059071 0 255 0 57 18
0.222409 -0.001518 0.090649 0 255 0 57 18
0.213006 0.002316 0.107931 0 255 0 57 18
0.154881 0.019447 0.102649 0 255 0 57 18
0.175791 0.041709 0.018649 0 255 0 57 18
0.231413 0.006184 0.081649 0 255 0 57 18
0.219804 0.080019 0.109665 0 255 0 57 18
0.158579 0.055261 0.051649 0 255 0 57 18
0.236398 0.039419 0.087649 0 255 0 57 18
0.232266 0.015933 0.099649 0 255 0 57 18
0.175371 0.071861 0.078649 0 255 0 57 18
0.227956 0.035523 0.021649 0 255 0 57 18
0.233002 0.009600 0.069649 0 255 0 57 18
0.231086 0.036871 0.035130 0 255 0 57 18
0.160062 0.009960 0.099649 0 255 0 57 18
0.235712 0.055331 0.084649 0 255 0 57 18
0.188124 -0.006709 0.057649 0 255 0 57 18
0.207815 0.115106 0.087649 0 255 0 57 18
0.201218 -0.005687 0.111649 0 255 0 57 18
0.225717 0.009932 0.102649 0 255 0 57 18
0.180277 0.075705 0.102649 0 255 0 57 18
0.219921 0.028813 0.018649 0 255 0 57 18
0.176592 -0.000836 0.048649 0 255 0 57 18
0.160348 0.009935 0.084649 0 255 0 57 18
0.181038 0.015562 0.027649 0 255 0 57 18
0.203667 -0.001161 0.036649 0 255 0 57 18
0.192525 -0.007939 0.087649 0 255 0 57 18
0.197227 0.006708 0.015649 0 255 0 57 18
0.192719 0.080227 0.102649 0 255 0 57 18
0.204860 0.081326 0.112027 0 255 0 57 18
0.216778 0.011020 0.080147 0 255 0 57 18
0.179386 0.014291 0.048649 0 255 0 57 18
0.183642 0.010908 0.017872 0 255 0 57 18
0.176269 0.064316 0.030649 0 255 0 57 18
0.205818 0.092274 0.048649 0 255 0 57 18
0.185151 -0.006273 0.075649 0 255 0 57 18
0.235643 0.054541 0.109606 0 255 0 57 18
0.173701 0.017800 0.060649 0 255 0 57 18
0.150842 0.034858 0.069649 0 255 0 57 18
0.167465 0.066952 0.108649 0 255 0 57 18
0.170737 0.001084 0.075649 0 255 0 57 18
0.194550 -0.002093 0.028936 0 255 0 57 18
0.217953 0.110295 0.066649 0 255 0 57 18
0.207143 0.107414 0.087649 0 255 0 57 18
0.232019 0.081962 0.107143 0 255 0 57 18
0.215219 0.017180 0.012649 0 255 0 57 18
0.224872 0.000262 0.081649 0 255 0 57 18
0.211943 0.005421 0.072649 0 255 0 57 18
0.158078 0.055305 0.108649 0 255 0 57 18
0.147620 0.046644 0.108649 0 255 0 57 18
0.161041 0.027942 0.107923 0 255 0 57 18
0.226362 0.103537 0.060649 0 255 0 57 18
0.182110 0.062237 0.011195 0 255 0 57 18
0.186193 0.005641 0.021649 0 255 0 57 18
0.229031 0.082224 0.080254 0 255 0 57 18
0.192870 0.013112 0.020061 0 255 0 57 18
0.231913 0.027765 0.090649 0 255 0 57 18
0.165213 0.042635 0.018649 0 255 0 57 18
0.158519 0.067964 0.096649 0 255 0 57 18
0.235560 0.057560 0.099649 0 255 0 57 18
0.222269 0.073781 0.084366 0 255 0 57 18
0.165611 0.030554 0.099649 0 255 0 57 18
0.244697 0.017612 0.093649 0 255 0 57 18
0.212668 0.101724 0.103768 0 255 0 57 18
0.176531 -0.001536 0.057649 0 255 0 57 18
0.167080 0.003323 0.111649 0 255 0 57 18
0.166731 0.045514 0.033649 0 255 0 57 18
0.231567 0.007947 0.057649 0 255 0 57 18
0.162293 0.007828 0.108649 0 255 0 57 18
0.160216 0.052925 0.033649 0 255 0 57 18
0.154683 0.046567 0.051649 0 255 0 57 18
0.238452 0.017803 0.078649 0 255 0 57 18
0.154822 0.049566 0.069649 0 255 0 57 18
0.216385 0.075361 0.096649 0 255 0 57 18
0.158353 0.031189 0.033649 0 255 0 57 18
0.218356 0.095203 0.102649 0 255 0 57 18
0.172621 0.057043 0.026031 0 255 0 57 18
0.207561 0.112185 0.099649 0 255 0 57 18
0.240756 0.023979 0.099649 0 255 0 57 18
0.240909 0.026977 0.057649 0 255 0 57 18
0.158772 0.013084 0.090649 0 255 0 57 18
0.238444 0.017718 0.066649 0 255 0 57 18
0.190702 0.091599 0.078719 0 255 0 57 18
0.166945 0.060999 0.033649 0 255 0 57 18
0.193490 -0.008022 0.099649 0 255 0 57 18
0.210801 0.011543 0.015063 0 255 0 57 18
0.168416 0.003205 0.069649 0 255 0 57 18
0.241154 0.029968 0.066649 0 255 0 57 18
0.242064 0.029888 0.078649 0 255 0 57 18
0.215442 -0.004252 0.102649 0 255 0 57 18
0.159098 0.040158 0.107387 0 255 0 57 18
0.188573 -0.001570 0.110550 0 255 0 57 18
0.176443 -0.002541 0.093649 0 255 0 57 18
0.208895 0.093019 0.106690 0 255 0 57 18
0.180963 0.032222 0.012649 0 255 0 57 18
0.201683 0.079421 0.087649 0 255 0 57 18
0.182224 -0.005300 0.069649 0 255 0 57 18
0.163611 0.012660 0.039649 0 255 0 57 18
0.152937 0.034675 0.057649 0 255 0 57 18
0.173245 0.047955 0.021649 0 255 0 57 18
0.157383 0.049343 0.039649 0 255 0 57 18
0.237886 0.027242 0.042649 0 255 0 57 18
0.163917 0.060817 0.105514 0 255 0 57 18
0.236462 0.042424 0.105649 0 255 0 57 18
0.220971 0.001619 0.111649 0 255 0 57 18
0.160664 0.015930 0.045649 0 255 0 57 18
0.207149 0.004227 0.033649 0 255 0 57 18
0.208895 0.093019 0.083181 0 255 0 57 18
0.233439 0.063769 0.077167 0 255 0 57 18
0.212326 0.097805 0.057649 0 255 0 57 18
0.151784 0.040798 0.087649 0 255 0 57 18
0.206175 -0.006914 0.066649 0 255 0 57 18
0.223924 0.023852 0.030649 0 255 0 57 18
0.176033 0.071802 0.090649 0 255 0 57 18
0.154390 0.037558 0.048649 0 255 0 57 18
0.163770 0.042761 0.066649 0 255 0 57 18
0.189648 0.079559 0.087649 0 255 0 57 18
0.168220 0.060440 0.057649 0 255 0 57 18
0.203635 -0.001517 0.090649 0 255 0 57 18
0.151502 0.031788 0.078649 0 255 0 57 18
0.219883 0.012094 0.066649 0 255 0 57 18
0.236345 0.039423 0.099649 0 255 0 57 18
0.211279 -0.000545 0.084649 0 255 0 57 18
0.187842 0.093329 0.102649 0 255 0 57 18
0.200627 -0.001482 0.096649 0 255 0 57 18
0.191664 -0.000671 0.093649 0 255 0 57 18
0.174200 0.023780 0.036649 0 255 0 57 18
0.168484 0.027291 0.072649 0 255 0 57 18
0.198787 0.080745 0.099649 0 255 0 57 18
0.190827 0.093031 0.093649 0 255 0 57 18
0.186221 0.005965 0.057649 0 255 0 57 18
0.218886 0.016858 0.033649 0 255 0 57 18
0.232380 0.033746 0.048649 0 255 0 57 18
0.185368 -0.003796 0.048649 0 255 0 57 18
0.195194 0.005258 0.102649 0 255 0 57 18
0.192210 0.005567 0.069649 0 255 0 57 18
0.164474 0.051734 0.078649 0 255 0 57 18
0.196801 0.092475 0.090649 0 255 0 57 18
0.195199 0.005325 0.054649 0 255 0 57 18
0.165650 0.030550 0.078649 0 255 0 57 18
0.183505 0.009336 0.063649 0 255 0 57 18
0.174019 0.004175 0.036649 0 255 0 57 18
0.177154 0.023521 0.024649 0 255 0 57 18
0.181598 0.090809 0.099649 0 255 0 57 18
0.200170 -0.006696 0.057649 0 255 0 57 18
0.219381 0.022838 0.021649 0 255 0 57 18
0.197657 -0.001012 0.075649 0 255 0 57 18
0.166710 0.042504 0.042649 0 255 0 57 18
0.179274 0.047427 0.015649 0 255 0 57 18
0.217723 0.090664 0.096649 0 255 0 57 18
0.180915 0.014158 0.035128 0 255 0 57 18
0.216860 0.001978 0.033649 0 255 0 57 18
0.236595 0.048436 0.048649 0 255 0 57 18
0.165486 0.078749 0.088180 0 255 0 57 18
0.173275 0.064515 0.042649 0 255 0 57 18
0.233290 0.027644 0.109104 0 255 0 57 18
0.157678 0.058351 0.100948 0 255 0 57 18
0.206373 0.098604 0.063649 0 255 0 57 18
0.199145 0.084838 0.112358 0 255 0 57 18
0.180308 0.076057 0.075649 0 255 0 57 18
0.239280 0.051212 0.054649 0 255 0 57 18
0.238176 0.039263 0.045649 0 255 0 57 18
0.200058 0.095272 0.081649 0 255 0 57 18
0.163630 0.036751 0.021649 0 255 0 57 18
0.164455 0.024633 0.024649 0 255 0 57 18
0.187564 0.090150 0.087649 0 255 0 57 18
0.236257 0.045453 0.042649 0 255 0 57 18
0.158327 0.025169 0.039649 0 255 0 57 18
0.242144 0.059996 0.080744 0 255 0 57 18
0.222135 0.072245 0.096649 0 255 0 57 18
0.208088 -0.000266 0.051649 0 255 0 57 18
0.164263 0.048741 0.099649 0 255 0 57 18
0.206846 0.114279 0.078649 0 255 0 57 18
0.175414 0.071857 0.069649 0 255 0 57 18
0.153749 0.025569 0.066649 0 255 0 57 18
0.237551 0.018237 0.102649 0 255 0 57 18
0.233404 0.028951 0.078649 0 255 0 57 18
0.216897 0.012380 0.048649 0 255 0 57 18
0.168938 0.036286 0.027649 0 255 0 57 18
0.152244 0.034735 0.111649 0 255 0 57 18
0.205384 0.087304 0.080427 0 255 0 57 18
0.220224 0.031798 0.012649 0 255 0 57 18
0.168336 0.063442 0.078649 0 255 0 57 18
0.230431 0.027894 0.021649 0 255 0 57 18
0.164549 0.054738 0.060649 0 255 0 57 18
0.152963 0.028649 0.093649 0 255 0 57 18
0.204158 0.004451 0.024649 0 255 0 57 18
0.214173 -0.000798 0.042649 0 255 0 57 18
0.206784 0.105250 0.078649 0 255 0 57 18
0.169604 0.022555 0.054649 0 255 0 57 18
0.213528 0.008293 0.105625 0 255 0 57 18
0.154156 0.052509 0.087649 0 255 0 57 18
0.213714 0.113678 0.098125 0 255 0 57 18
0.209387 -0.004619 0.072649 0 255 0 57 18
0.231996 0.027757 0.066649 0 255 0 57 18
0.170449 0.066634 0.033649 0 255 0 57 18
0.179644 0.068475 0.023217 0 255 0 57 18
0.239461 0.018070 0.087649 0 255 0 57 18
0.227173 0.026565 0.036649 0 255 0 57 18
0.181214 0.086407 0.109106 0 255 0 57 18
0.200265 0.012465 0.018649 0 255 0 57 18
0.214731 0.090882 0.084649 0 255 0 57 18
0.192467 0.008514 0.033649 0 255 0 57 18
0.188022 -0.007884 0.111649 0 255 0 57 18
0.206334 0.108301 0.066649 0 255 0 57 18
0.225481 0.007225 0.108649 0 255 0 57 18
0.216908 0.012498 0.060649 0 255 0 57 18
0.174798 0.013074 0.018649 0 255 0 57 18
0.245064 0.020591 0.108649 0 255 0 57 18
0.177794 0.012906 0.093649 0 255 0 57 18
0.183508 0.009370 0.102649 0 255 0 57 18
0.164529 0.067810 0.084649 0 255 0 57 18
0.225224 0.038714 0.015649 0 255 0 57 18
0.196811 0.006745 0.045649 0 255 0 57 18
0.228567 0.025046 0.057649 0 255 0 57 18
0.186929 0.082895 0.109955 0 255 0 57 18
0.189481 0.008807 0.042649 0 255 0 57 18
0.171965 0.049545 0.027649 0 255 0 57 18
0.190143 0.016362 0.014204 0 255 0 57 18
0.181700 0.023124 0.011254 0 255 0 57 18
0.173780 0.035862 0.023100 0 255 0 57 18
0.224807 -0.000475 0.096649 0 255 0 57 18
0.242415 0.028685 0.087649 0 255 0 57 18
0.244550 0.038705 0.090649 0 255 0 57 18
0.174228 0.006558 0.030649 0 255 0 57 18
0.155674 0.037446 0.036649 0 255 0 57 18
0.230964 0.063985 0.102649 0 255 0 57 18
0.159585 0.011298 0.069649 0 255 0 57 18
0.210237 0.077845 0.105649 0 255 0 57 18
0.240052 0.036087 0.054382 0 255 0 57 18
0.237167 0.036339 0.033649 0 255 0 57 18
0.159694 0.055163 0.039649 0 255 0 57 18
0.248755 0.032314 0.086385 0 255 0 57 18
0.153752 0.047891 0.105649 0 255 0 57 18
0.227051 0.025178 0.016166 0 255 0 57 18
0.177179 0.074713 0.110491 0 255 0 57 18
0.216439 0.075993 0.084649 0 255 0 57 18
0.245894 0.034028 0.099649 0 255 0 57 18
0.228549 0.025048 0.078649 0 255 0 57 18
0.200523 -0.002674 0.030649 0 255 0 57 18
0.176396 -0.003077 0.111649 0 255 0 57 18
0.177273 0.075792 0.039649 0 255 0 57 18
0.225519 0.076507 0.110573 0 255 0 57 18
0.181454 0.089158 0.087649 0 255 0 57 18
0.172324 0.087184 0.105649 0 255 0 57 18
0.167690 0.069522 0.048423 0 255 0 57 18
0.155475 0.067578 0.106947 0 255 0 57 18
0.158327 0.058295 0.078649 0 255 0 57 18
0.153671 0.031598 0.045649 0 255 0 57 18
0.226381 0.017524 0.084649 0 255 0 57 18
0.167880 0.071690 0.069649 0 255 0 57 18
0.153578 0.045910 0.060649 0 255 0 57 18
0.167637 0.060492 0.099649 0 255 0 57 18
0.215678 -0.001560 0.090649 0 255 0 57 18
0.174647 0.011362 0.108649 0 255 0 57 18
0.162236 0.007179 0.078649 0 255 0 57 18
0.219331 -0.004261 0.078649 0 255 0 57 18
0.193691 0.091338 0.108327 0 255 0 57 18
0.151821 0.037783 0.099649 0 255 0 57 18
0.239815 0.042131 0.060649 0 255 0 57 18
0.242837 0.038855 0.111649 0 255 0 57 18
0.151514 0.056725 0.102649 0 255 0 57 18
0.194290 -0.005081 0.044143 0 255 0 57 18
0.167892 0.002987 0.090649 0 255 0 57 18
0.191941 0.002509 0.021649 0 255 0 57 18
0.169223 0.018193 0.020708 0 255 0 57 18
0.240059 0.027053 0.051649 0 255 0 57 18
0.234485 0.075723 0.083371 0 255 0 57 18
0.171927 0.023978 0.015649 0 255 0 57 18
0.182347 -0.003895 0.093649 0 255 0 57 18
0.232038 0.006674 0.087649 0 255 0 57 18
0.180307 0.076049 0.084649 0 255 0 57 18
0.204674 0.079194 0.099649 0 255 0 57 18
0.200907 -0.005660 0.051649 0 255 0 57 18
0.200195 0.096841 0.051649 0 255 0 57 18
0.200716 0.102800 0.102649 0 255 0 57 18
0.235282 0.012412 0.078649 0 255 0 57 18
0.233596 0.031137 0.096649 0 255 0 57 18
0.206784 -0.006174 0.060649 0 255 0 57 18
0.230037 0.003837 0.105649 0 255 0 57 18
0.153281 0.028621 0.057649 0 255 0 57 18
0.170762 0.001364 0.057649 0 255 0 57 18
0.232775 0.015644 0.105649 0 255 0 57 18
0.192926 -0.007974 0.105649 0 255 0 57 18
0.194062 -0.007683 0.057649 0 255 0 57 18
0.157940 0.061339 0.089272 0 255 0 57 18
0.219767 0.010759 0.102399 0 255 0 57 18
0.241203 0.011895 0.102649 0 255 0 57 18
0.237212 0.072473 0.109961 0 255 0 57 18
0.239155 0.060257 0.110148 0 255 0 57 18
0.239325 0.048196 0.066649 0 255 0 57 18
0.228852 0.003941 0.069649 0 255 0 57 18
0.242306 0.035890 0.078649 0 255 0 57 18
0.205384 0.087304 0.109657 0 255 0 57 18
0.241398 0.035969 0.066649 0 255 0 57 18
0.235616 0.042498 0.030649 0 255 0 57 18
0.240479 0.024004 0.105649 0 255 0 57 18
0.238183 0.033239 0.042649 0 255 0 57 18
0.179244 -0.004947 0.105649 0 255 0 57 18
0.172699 0.081128 0.087649 0 255 0 57 18
0.155175 0.046524 0.045649 0 255 0 57 18
0.150942 0.034849 0.087649 0 255 0 57 18
0.202442 0.111653 0.090649 0 255 0 57 18
0.166294 0.036517 0.099649 0 255 0 57 18
0.222323 0.108819 0.081649 0 255 0 57 18
0.165048 0.004901 0.096649 0 255 0 57 18
0.153258 0.022600 0.084649 0 255 0 57 18
0.186929 0.082895 0.077881 0 255 0 57 18
0.151933 0.040785 0.093649 0 255 0 57 18
0.151722 0.037792 0.075649 0 255 0 57 18
0.167102 0.048492 0.039649 0 255 0 57 18
0.221907 0.016594 0.042649 0 255 0 57 18
0.229285 0.003903 0.093649 0 255 0 57 18
0.189641 0.079465 0.093649 0 255 0 57 18
0.163681 0.042769 0.093649 0 255 0 57 18
0.152415 0.025685 0.105649 0 255 0 57 18
0.167292 0.048476 0.051649 0 255 0 57 18
0.166831 0.042493 0.060649 0 255 0 57 18
0.195858 0.012850 0.011154 0 255 0 57 18
0.166821 0.042494 0.048649 0 255 0 57 18
0.200052 -0.008061 0.087649 0 255 0 57 18
0.215055 0.002136 0.066649 0 255 0 57 18
0.167297 0.048476 0.057649 0 255 0 57 18
0.236673 0.051439 0.096649 0 255 0 57 18
0.153785 0.052669 0.081649 0 255 0 57 18
0.248276 0.026836 0.105649 0 255 0 57 18
0.200627 -0.001475 0.102649 0 255 0 57 18
0.172339 0.019403 0.099649 0 255 0 57 18
0.212085 0.008419 0.057649 0 255 0 57 18
0.151806 0.031762 0.099649 0 255 0 57 18
0.234876 0.080188 0.093649 0 255 0 57 18
0.206172 -0.006955 0.090649 0 255 0 57 18
0.166563 0.039506 0.081649 0 255 0 57 18
0.171817 0.066148 0.057649 0 255 0 57 18
0.157820 0.076408 0.102649 0 255 0 57 18
0.157825 0.076406 0.096649 0 255 0 57 18
0.165157 0.006148 0.063649 0 255 0 57 18
0.206173 -0.006934 0.078649 0 255 0 57 18
0.230199 0.042972 0.033649 0 255 0 57 18
0.154139 0.052307 0.093649 0 255 0 57 18
0.221934 0.001106 0.051649 0 255 0 57 18
0.206168 -0.006984 0.108649 0 255 0 57 18
0.212608 0.008374 0.027649 0 255 0 57 18
0.201497 0.111727 0.078649 0 255 0 57 18
0.197652 -0.001067 0.081649 0 255 0 57 18
0.173827 0.070821 0.048649 0 255 0 57 18
0.203628 -0.001602 0.066649 0 255 0 57 18
0.162984 0.015727 0.110346 0 255 0 57 18
0.230711 0.067019 0.109803 0 255 0 57 18
0.237760 0.018218 0.060649 0 255 0 57 18
0.171119 0.039870 0.015649 0 255 0 57 18
0.196036 0.000788 0.048649 0 255 0 57 18
0.235813 0.036458 0.063649 0 255 0 57 18
0.238370 0.051291 0.081438 0 255 0 57 18
0.230650 0.066313 0.090649 0 255 0 57 18
0.210455 0.095893 0.048649 0 255 0 57 18
0.203635 -0.001524 0.084649 0 255 0 57 18
0.240365 0.036060 0.093649 0 255 0 57 18
0.236162 0.042450 0.075649 0 255 0 57 18
0.194266 -0.008090 0.093649 0 255 0 57 18
0.168082 0.060453 0.051649 0 255 0 57 18
0.206823 0.114281 0.093649 0 255 0 57 18
0.218860 0.013850 0.015649 0 255 0 57 18
0.222855 0.007477 0.027649 0 255 0 57 18
0.183940 0.083156 0.105051 0 255 0 57 18
0.213652 0.009709 0.087649 0 255 0 57 18
0.214436 0.018678 0.024649 0 255 0 57 18
0.216105 0.106585 0.075649 0 255 0 57 18
0.152485 0.067840 0.095203 0 255 0 57 18
0.159882 0.014695 0.057649 0 255 0 57 18
0.210560 0.077629 0.093649 0 255 0 57 18
0.173670 0.017803 0.084649 0 255 0 57 18
0.221635 0.013607 0.075649 0 255 0 57 18
0.210278 0.005566 0.017269 0 255 0 57 18
0.244086 0.047780 0.080877 0 255 0 57 18
0.232132 0.030757 0.054649 0 255 0 57 18
0.248233 0.026337 0.093197 0 255 0 57 18
0.171247 0.075758 0.078649 0 255 0 57 18
0.168694 0.030284 0.045649 0 255 0 57 18
0.168917 0.033276 0.036649 0 255 0 57 18
0.215165 0.113551 0.072649 0 255 0 57 18
0.178960 0.083593 0.084649 0 255 0 57 18
0.166200 0.036525 0.051649 0 255 0 57 18
0.164422 0.051739 0.087649 0 255 0 57 18
0.218721 -0.001196 0.107159 0 255 0 57 18
0.168493 0.027291 0.084649 0 255 0 57 18
0.220326 0.085996 0.080373 0 255 0 57 18
0.166259 0.036520 0.057649 0 255 0 57 18
0.219804 0.114447 0.081649 0 255 0 57 18
0.166258 0.053153 0.048649 0 255 0 57 18
0.183381 0.007920 0.077134 0 255 0 57 18
0.183768 0.012350 0.039649 0 255 0 57 18
0.198189 0.005068 0.084649 0 255 0 57 18
0.234972 0.012440 0.109705 0 255 0 57 18
0.230056 0.025101 0.102649 0 255 0 57 18
0.226536 0.019285 0.096649 0 255 0 57 18
0.176665 0.017541 0.036649 0 255 0 57 18
0.237735 0.078450 0.101183 0 255 0 57 18
0.186500 0.009147 0.051649 0 255 0 57 18
0.202223 0.016756 0.015649 0 255 0 57 18
0.222156 0.106916 0.062166 0 255 0 57 18
0.240462 0.075201 0.083194 0 255 0 57 18
0.168291 0.060434 0.069649 0 255 0 57 18
0.220090 0.104086 0.066649 0 255 0 57 18
0.168307 0.060433 0.087649 0 255 0 57 18
0.214962 0.024685 0.015649 0 255 0 57 18
0.228422 0.022047 0.069649 0 255 0 57 18
0.230689 0.032338 0.039649 0 255 0 57 18
0.181539 0.005069 0.024649 0 255 0 57 18
0.243317 0.073410 0.093649 0 255 0 57 18
0.192085 0.004146 0.083085 0 255 0 57 18
0.164941 0.038102 0.069649 0 255 0 57 18
0.182110 0.062237 0.017052 0 255 0 57 18
0.166795 0.069599 0.063649 0 255 0 57 18
0.221634 0.100939 0.061903 0 255 0 57 18
0.181438 0.020135 0.023114 0 255 0 57 18
0.244243 0.068847 0.084649 0 255 0 57 18
0.195596 0.009862 0.029108 0 255 0 57 18
0.171891 0.069154 0.087649 0 255 0 57 18
0.228881 0.046098 0.023058 0 255 0 57 18
0.222558 0.111505 0.087649 0 255 0 57 18
0.161842 0.071519 0.108649 0 255 0 57 18
0.174798 0.013074 0.081649 0 255 0 57 18
0.240756 0.036025 0.099649 0 255 0 57 18
0.167927 0.072232 0.075649 0 255 0 57 18
0.164702 0.069782 0.095702 0 255 0 57 18
0.239541 0.030251 0.111649 0 255 0 57 18
0.196392 0.003769 0.036649 0 255 0 57 18
0.215403 0.116542 0.078649 0 255 0 57 18
0.220326 0.085996 0.109953 0 255 0 57 18
0.218487 -0.003869 0.069649 0 255 0 57 18
0.212366 -0.004993 0.087649 0 255 0 57 18
0.223823 0.109782 0.072649 0 255 0 57 18
0.172010 -0.000120 0.081649 0 255 0 57 18
0.215359 0.116545 0.090649 0 255 0 57 18
0.203047 0.095013 0.108649 0 255 0 57 18
0.160908 0.064091 0.099649 0 255 0 57 18
0.214728 0.090846 0.108649 0 255 0 57 18
0.215037 0.002138 0.078649 0 255 0 57 18
0.182439 0.080276 0.054649 0 255 0 57 18
0.238494 0.052709 0.063649 0 255 0 57 18
0.222165 0.003749 0.045649 0 255 0 57 18
0.209561 -0.002629 0.057649 0 255 0 57 18
0.170793 0.057204 0.033649 0 255 0 57 18
0.154366 0.020490 0.096649 0 255 0 57 18
0.210736 -0.003509 0.108649 0 255 0 57 18
0.198488 0.087907 0.045649 0 255 0 57 18
0.235012 0.047335 0.033649 0 255 0 57 18
0.175300 0.071866 0.060649 0 255 0 57 18
0.236606 0.045423 0.087649 0 255 0 57 18
0.193167 0.085360 0.108233 0 255 0 57 18
0.228617 0.009985 0.039649 0 255 0 57 18
0.176222 0.077809 0.066649 0 255 0 57 18
0.168178 0.040680 0.030649 0 255 0 57 18
0.176209 0.077810 0.078649 0 255 0 57 18
0.206952 0.105236 0.100785 0 255 0 57 18
0.215175 0.002126 0.051649 0 255 0 57 18
0.155064 0.028466 0.109377 0 255 0 57 18
0.171825 0.066148 0.066649 0 255 0 57 18
0.157496 0.056263 0.057649 0 255 0 57 18
0.235905 0.057530 0.105186 0 255 0 57 18
0.248098 0.038394 0.084649 0 255 0 57 18
0.164632 0.054732 0.072649 0 255 0 57 18
0.203778 0.000112 0.047108 0 255 0 57 18
0.165651 0.080633 0.099649 0 255 0 57 18
0.176215 0.077809 0.072649 0 255 0 57 18
0.209156 0.096007 0.095298 0 255 0 57 18
0.156371 0.043408 0.038443 0 255 0 57 18
0.224996 0.070531 0.100778 0 255 0 57 18
0.164591 0.054735 0.096649 0 255 0 57 18
0.245867 0.033711 0.105649 0 255 0 57 18
0.209793 0.103278 0.048649 0 255 0 57 18
0.171442 0.069193 0.099649 0 255 0 57 18
0.215771 0.102765 0.054649 0 255 0 57 18
0.181743 0.077326 0.063649 0 255 0 57 18
0.190987 -0.001781 0.033649 0 255 0 57 18
0.159882 0.049124 0.029706 0 255 0 57 18
0.211699 0.021805 0.012649 0 255 0 57 18
0.164118 0.063107 0.039649 0 255 0 57 18
0.171946 0.083752 0.099649 0 255 0 57 18
0.213827 0.080542 0.084093 0 255 0 57 18
0.235517 0.033473 0.057649 0 255 0 57 18
0.235741 0.036464 0.072649 0 255 0 57 18
0.214732 0.090898 0.102649 0 255 0 57 18
0.169110 0.051328 0.017960 0 255 0 57 18
0.162750 0.078987 0.093649 0 255 0 57 18
0.226059 0.070438 0.093649 0 255 0 57 18
0.213317 0.109142 0.057649 0 255 0 57 18
0.162692 0.057913 0.033649 0 255 0 57 18
0.208675 0.105084 0.054649 0 255 0 57 18
0.229458 0.018266 0.024649 0 255 0 57 18
0.177416 0.029520 0.015649 0 255 0 57 18
0.170867 0.021059 0.063649 0 255 0 57 18
0.226431 0.086937 0.090649 0 255 0 57 18
0.240675 0.043219 0.102649 0 255 0 57 18
0.158778 0.070920 0.102649 0 255 0 57 18
0.171239 0.024039 0.102649 0 255 0 57 18
0.237598 0.076888 0.090649 0 255 0 57 18
0.229155 0.083642 0.087649 0 255 0 57 18
0.206864 0.000955 0.042649 0 255 0 57 18
0.213655 0.009745 0.069649 0 255 0 57 18
0.177787 0.012820 0.057649 0 255 0 57 18
0.176633 0.034058 0.018649 0 255 0 57 18
0.213655 0.009751 0.075649 0 255 0 57 18
0.168300 0.007654 0.039649 0 255 0 57 18
0.241528 0.072095 0.102649 0 255 0 57 18
0.170932 0.021054 0.075649 0 255 0 57 18
0.176653 0.017542 0.045649 0 255 0 57 18
0.206168 0.096269 0.044524 0 255 0 57 18
0.212619 0.101163 0.066649 0 255 0 57 18
0.170937 0.021054 0.081649 0 255 0 57 18
0.168139 0.024310 0.066649 0 255 0 57 18
0.173655 0.017804 0.066649 0 255 0 57 18
0.174371 0.026776 0.027649 0 255 0 57 18
0.200919 0.001860 0.057649 0 255 0 57 18
0.200920 0.001865 0.063649 0 255 0 57 18
0.236059 0.033425 0.090649 0 255 0 57 18
0.175188 0.051953 0.015649 0 255 0 57 18
0.183768 0.012336 0.030649 0 255 0 57 18
0.236780 0.057453 0.090649 0 255 0 57 18
0.157268 0.019238 0.109076 0 255 0 57 18
0.184555 0.021340 0.015649 0 255 0 57 18
0.179131 0.011302 0.084649 0 255 0 57 18
0.201677 0.105696 0.069649 0 255 0 57 18
0.209084 0.095178 0.054649 0 255 0 57 18
0.155278 0.065338 0.099649 0 255 0 57 18
0.203500 -0.003065 0.042649 0 255 0 57 18
0.212482 -0.003661 0.050830 0 255 0 57 18
0.211622 0.089769 0.080308 0 255 0 57 18
0.231821 0.006693 0.075649 0 255 0 57 18
0.201440 0.007804 0.021649 0 255 0 57 18
0.236465 0.015321 0.054649 0 255 0 57 18
0.231347 0.039860 0.023786 0 255 0 57 18
0.223380 0.034535 0.018649 0 255 0 57 18
0.170601 -0.000462 0.111649 0 255 0 57 18
0.160409 0.061123 0.054649 0 255 0 57 18
0.210311 0.109201 0.063649 0 255 0 57 18
0.229757 0.033976 0.027649 0 255 0 57 18
0.157897 0.061343 0.096649 0 255 0 57 18
0.187688 0.079817 0.105649 0 255 0 57 18
0.235232 0.015429 0.047912 0 255 0 57 18
0.157589 0.013186 0.102649 0 255 0 57 18
0.180255 0.075456 0.093649 0 255 0 57 18
0.163837 0.066847 0.060649 0 255 0 57 18
0.171884 0.069154 0.081649 0 255 0 57 18
0.156420 0.016301 0.072649 0 255 0 57 18
0.216441 0.110428 0.094824 0 255 0 57 18
0.169895 0.060294 0.022640 0 255 0 57 18
0.168077 0.005099 0.048649 0 255 0 57 18
0.224862 0.000147 0.066649 0 255 0 57 18
0.167429 0.066533 0.037651 0 255 0 57 18
0.210872 0.081197 0.111649 0 255 0 57 18
0.169387 0.030223 0.015649 0 255 0 57 18
0.164178 0.063805 0.045936 0 255 0 57 18
0.163332 0.019713 0.030649 0 255 0 57 18
0.212360 -0.005060 0.096649 0 255 0 57 18
0.166662 0.057770 0.027649 0 255 0 57 18
0.209703 0.117039 0.081649 0 255 0 57 18
0.239678 0.066234 0.080620 0 255 0 57 18
0.200629 -0.001468 0.108649 0 255 0 57 18
0.175213 0.065851 0.024649 0 255 0 57 18
0.233925 0.018555 0.042649 0 255 0 57 18
0.229255 0.015951 0.030069 0 255 0 57 18
0.180037 0.072964 0.042649 0 255 0 57 18
0.179476 0.066549 0.018649 0 255 0 57 18
0.207849 0.081064 0.084051 0 255 0 57 18
0.236540 0.030371 0.106229 0 255 0 57 18
0.233177 0.069815 0.084649 0 255 0 57 18
0.228520 0.003970 0.057649 0 255 0 57 18
0.228290 0.013024 0.099649 0 255 0 57 18
0.159995 0.034056 0.027649 0 255 0 57 18
0.235995 0.039454 0.057649 0 255 0 57 18
0.219295 0.074210 0.108649 0 255 0 57 18
0.202159 0.093609 0.045649 0 255 0 57 18
0.228112 0.071717 0.111649 0 255 0 57 18
0.225879 0.001190 0.105649 0 255 0 57 18
0.161120 0.063255 0.075649 0 255 0 57 18
0.241229 0.042007 0.078649 0 255 0 57 18
0.156466 0.055445 0.072649 0 255 0 57 18
0.173498 -0.001781 0.099649 0 255 0 57 18
0.218403 0.010877 0.096649 0 255 0 57 18
0.215669 -0.001660 0.081649 0 255 0 57 18
0.155915 0.052482 0.054649 0 255 0 57 18
0.203621 -0.001683 0.054649 0 255 0 57 18
0.175651 0.083882 0.108649 0 255 0 57 18
0.219506 0.007770 0.024123 0 255 0 57 18
0.209594 -0.002259 0.066649 0 255 0 57 18
0.199500 0.003497 0.075649 0 255 0 57 18
0.151773 0.040799 0.105649 0 255 0 57 18
0.202325 0.111662 0.096649 0 255 0 57 18
0.234154 0.054672 0.093649 0 255 0 57 18
0.164707 0.069846 0.102649 0 255 0 57 18
0.223139 0.014881 0.090649 0 255 0 57 18
0.170791 0.036124 0.032131 0 255 0 57 18
0.236131 0.039441 0.051649 0 255 0 57 18
0.187693 -0.007516 0.087649 0 255 0 57 18
0.223436 0.087115 0.105649 0 255 0 57 18
0.161030 0.062243 0.066649 0 255 0 57 18
0.165948 0.033536 0.090649 0 255 0 57 18
0.167803 0.036385 0.041112 0 255 0 57 18
0.196276 0.000768 0.093649 0 255 0 57 18
0.165571 0.030558 0.060649 0 255 0 57 18
0.189507 -0.007674 0.072649 0 255 0 57 18
0.174797 0.013069 0.075649 0 255 0 57 18
0.210166 0.107554 0.096649 0 255 0 57 18
0.223331 -0.001599 0.108649 0 255 0 57 18
0.244162 0.014236 0.105649 0 255 0 57 18
0.237323 0.039317 0.039649 0 255 0 57 18
0.164400 0.051740 0.066649 0 255 0 57 18
0.166383 0.054578 0.023965 0 255 0 57 18
0.234798 0.060639 0.081649 0 255 0 57 18
0.182177 -0.005846 0.081649 0 255 0 57 18
0.157016 0.016364 0.078649 0 255 0 57 18
0.174343 0.059905 0.030649 0 255 0 57 18
0.177142 0.005454 0.026985 0 255 0 57 18
0.171899 -0.000111 0.069649 0 255 0 57 18
0.236475 0.045435 0.057649 0 255 0 57 18
0.233727 0.009537 0.063649 0 255 0 57 18
0.172368 0.084169 0.093649 0 255 0 57 18
0.232384 0.017297 0.033649 0 255 0 57 18
0.184139 0.001830 0.027649 0 255 0 57 18
0.179122 0.011303 0.102649 0 255 0 57 18
0.230894 0.009785 0.048649 0 255 0 57 18
0.200030 -0.008315 0.075649 0 255 0 57 18
0.242475 0.026840 0.093649 0 255 0 57 18
0.240574 0.042064 0.108913 0 255 0 57 18
0.203629 -0.001596 0.072649 0 255 0 57 18
0.181808 0.008057 0.081649 0 255 0 57 18
0.171335 0.007919 0.108649 0 255 0 57 18
0.215918 0.104450 0.098214 0 255 0 57 18
0.203835 0.000765 0.030649 0 255 0 57 18
0.180410 0.042804 0.012649 0 255 0 57 18
0.238605 0.019555 0.072649 0 255 0 57 18
0.209603 -0.002151 0.099649 0 255 0 57 18
0.207183 -0.003198 0.039649 0 255 0 57 18
0.241202 0.049230 0.084649 0 255 0 57 18
0.227120 0.040230 0.021649 0 255 0 57 18
0.158724 0.070306 0.092527 0 255 0 57 18
0.161452 0.067056 0.072140 0 255 0 57 18
0.233701 0.066758 0.081034 0 255 0 57 18
0.167088 0.045482 0.087649 0 255 0 57 18
0.210130 0.003873 0.027649 0 255 0 57 18
0.220718 0.090475 0.084649 0 255 0 57 18
0.203184 0.096587 0.060649 0 255 0 57 18
0.169745 0.024170 0.092157 0 255 0 57 18
0.226789 0.022190 0.050138 0 255 0 57 18
0.213840 0.115124 0.066649 0 255 0 57 18
0.222596 0.025568 0.024649 0 255 0 57 18
0.176418 0.014551 0.105649 0 255 0 57 18
0.194028 -0.008070 0.066760 0 255 0 57 18
0.170661 0.075284 0.087649 0 255 0 57 18
0.168469 0.027293 0.054649 0 255 0 57 18
0.223801 0.022452 0.018249 0 255 0 57 18
0.235614 0.012383 0.090649 0 255 0 57 18
0.165724 0.081469 0.105649 0 255 0 57 18
0.242779 0.032837 0.109215 0 255 0 57 18
0.201051 0.003362 0.035145 0 255 0 57 18
0.209156 0.096011 0.060649 0 255 0 57 18
0.209023 0.094483 0.087649 0 255 0 57 18
0.172211 0.017931 0.089116 0 255 0 57 18
0.161591 0.027894 0.027649 0 255 0 57 18
0.187415 0.019613 0.011241 0 255 0 57 18
0.204160 0.107733 0.081649 0 255 0 57 18
0.168699 0.012215 0.028855 0 255 0 57 18
0.156894 0.049386 0.109562 0 255 0 57 18
0.202918 0.093542 0.092110 0 255 0 57 18
0.150992 0.067970 0.099649 0 255 0 57 18
0.204366 0.093415 0.081649 0 255 0 57 18
0.242018 0.066030 0.108649 0 255 0 57 18
0.220290 0.016736 0.038113 0 255 0 57 18
0.202882 0.093141 0.054649 0 255 0 57 18
0.155121 0.019426 0.087649 0 255 0 57 18
0.177034 0.089783 0.099649 0 255 0 57 18
0.188185 -0.006013 0.051649 0 255 0 57 18
0.176656 0.068736 0.041118 0 255 0 57 18
0.203207 -0.006414 0.096649 0 255 0 57 18
0.209818 0.103565 0.072649 0 255 0 57 18
0.182088 0.027560 0.012649 0 255 0 57 18
0.223017 0.013485 0.022319 0 255 0 57 18
0.148238 0.053710 0.105649 0 255 0 57 18
0.180356 0.076606 0.057649 0 255 0 57 18
0.231217 0.038368 0.030649 0 255 0 57 18
0.243047 0.070329 0.078649 0 255 0 57 18
0.155217 0.019418 0.081649 0 255 0 57 18
0.234972 0.012440 0.096906 0 255 0 57 18
0.249379 -0.184565 0.018649 255 255 0 60 19
0.125391 -0.267074 0.018649 255 255 0 60 19
0.160408 -0.185816 0.020147 255 255 0 60 19
0.210635 -0.259474 0.021649 255 255 0 60 19
0.272364 -0.248582 0.018649 255 255 0 60 19
0.206529 -0.209395 0.027649 255 255 0 60 19
0.164929 -0.237406 0.027319 255 255 0 60 19
0.120248 -0.215428 0.018649 255 255 0 60 19
0.241346 -0.224479 0.018649 255 255 0 60 19
0.217117 -0.178731 0.021649 255 255 0 60 19
0.241587 -0.256158 0.023108 255 255 0 60 19
0.156311 -0.267071 0.021649 255 255 0 60 19
0.268173 -0.210302 0.021649 255 255 0 60 19
0.176248 -0.211294 0.020245 255 255 0 60 19
0.134520 -0.240769 0.027043 255 255 0 60 19
0.184803 -0.251190 0.011369 255 255 0 60 19
0.189021 -0.185307 0.018649 255 255 0 60 19
0.131520 -0.189312 0.018649 255 255 0 60 19
0.147670 -0.214816 0.027649 255 255 0 60 19
0.216520 -0.232886 0.020491 255 255 0 60 19
0.231350 -0.201057 0.027088 255 255 0 60 19
0.192388 -0.233344 0.027649 255 255 0 60 19
0.261871 -0.230831 0.026404 255 255 0 60 19
0.142440 -0.253507 0.011364 255 255 0 60 19
0.141544 -0.229338 0.011237 255 255 0 60 19
0.172326 -0.256122 0.027194 255 255 0 60 19
0.254848 -0.242262 0.011349 255 255 0 60 19
0.227167 -0.248875 0.011591 255 255 0 60 19
0.249021 -0.205615 0.020320 255 255 0 60 19
0.137537 -0.206291 0.012649 255 255 0 60 19
0.193508 -0.254964 0.027020 255 255 0 60 19
0.147421 -0.196583 0.027649 255 255 0 60 19
0.231276 -0.240199 0.027649 255 255 0 60 19
0.226793 -0.218727 0.027226 255 255 0 60 19
0.204976 -0.192726 0.020253 255 255 0 60 19
0.259667 -0.221603 0.011107 255 255 0 60 19
0.174614 -0.195548 0.027649 255 255 0 60 19
0.115978 -0.196986 0.018649 255 255 0 60 19
0.203519 -0.243794 0.017151 255 255 0 60 19
0.265532 -0.188990 0.022889 255 255 0 60 19
0.151667 -0.251304 0.026842 255 255 0 60 19
0.191703 -0.200600 0.027649 255 255 0 60 19
0.163248 -0.222202 0.020349 255 255 0 60 19
0.232919 -0.183125 0.025074 255 255 0 60 19
0.248871 -0.241739 0.027041 255 255 0 60 19
0.133101 -0.222576 0.027066 255 255 0 60 19
0.161623 -0.206354 0.027649 255 255 0 60 19
0.193657 -0.218840 0.020371 255 255 0 60 19
0.122555 -0.233699 0.018649 255 255 0 60 19
0.177668 -0.229486 0.020379 255 255 0 60 19
0.124644 -0.250401 0.018649 255 255 0 60 19
0.128693 -0.204122 0.026045 255 255 0 60 19
0.140844 -0.265414 0.024649 255 255 0 60 19
0.150509 -0.230122 0.026430 255 255 0 60 19
0.256804 -0.254332 0.021649 255 255 0 60 19
0.259223 -0.173381 0.021649 255 255 0 60 19
0.182338 -0.244953 0.026935 255 255 0 60 19
0.219918 -0.194034 0.020382 255 255 0 60 19
0.215316 -0.246646 0.027649 255 255 0 60 19
0.253951 -0.218092 0.026673 255 255 0 60 19
0.226562 -0.255776 0.024649 255 255 0 60 19
0.205088 -0.225863 0.027620 255 255 0 60 19
0.183757 -0.263145 0.020548 255 255 0 60 19
0.218612 -0.208977 0.020214 255 255 0 60 19
0.255932 -0.195448 0.012649 255 255 0 60 19
0.241191 -0.244078 0.015649 255 255 0 60 19
0.175613 -0.184135 0.020265 255 255 0 60 19
0.270575 -0.234603 0.017161 255 255 0 60 19
0.239270 -0.213796 0.025977 255 255 0 60 19
0.237850 -0.195602 0.017151 255 255 0 60 19
0.133362 -0.219587 0.014365 255 255 0 60 19
0.260081 -0.200559 0.024649 255 255 0 60 19
0.199426 -0.256166 0.015649 255 255 0 60 19
0.247077 -0.193398 0.027692 255 255 0 60 19
0.201696 -0.180394 0.021649 255 255 0 60 19
0.163883 -0.249360 0.020446 255 255 0 60 19
0.137508 -0.241031 0.014255 255 255 0 60 19
0.133213 -0.255712 0.027227 255 255 0 60 19
0.213018 -0.250648 0.012649 255 255 0 60 19
0.242668 -0.174944 0.023067 255 255 0 60 19
0.154245 -0.256259 0.015649 255 255 0 60 19
0.251185 -0.232907 0.018649 255 255 0 60 19
0.263814 -0.243046 0.026008 255 255 0 60 19
0.257724 -0.209387 0.011414 255 255 0 60 19
0.214577 -0.220670 0.020271 255 255 0 60 19
0.144942 -0.190486 0.017349 255 255 0 60 19
0.129963 -0.258439 0.011173 255 255 0 60 19
0.183193 -0.217924 0.027649 255 255 0 60 19
0.231462 -0.234193 0.017151 255 255 0 60 19
0.191432 -0.244269 0.018649 255 255 0 60 19
0.207031 -0.238078 0.027144 255 255 0 60 19
0.155702 -0.239611 0.020195 255 255 0 60 19
0.149613 -0.205952 0.020219 255 255 0 60 19
0.173634 -0.241179 0.020198 255 255 0 60 19
0.165340 -0.198293 0.020304 255 255 0 60 19
0.183532 -0.196874 0.020459 255 255 0 60 19
0.234974 -0.228477 0.027330 255 255 0 60 19
0.197692 -0.207146 0.020435 255 255 0 60 19
0.171803 -0.262099 0.017468 255 255 0 60 19
0.189622 -0.230532 0.017149 255 255 0 60 19
0.196271 -0.188954 0.026289 255 255 0 60 19
0.266978 -0.222242 0.021649 255 255 0 60 19
0.204375 -0.216766 0.018649 255 255 0 60 19
0.230565 -0.210022 0.020409 255 255 0 60 19
0.140646 -0.205167 0.026498 255 255 0 60 19
0.210567 -0.199239 0.027649 255 255 0 60 19
0.172475 -0.219998 0.027232 255 255 0 60 19
0.214464 -0.187534 0.027453 255 255 0 60 19
0.160110 -0.258065 0.027515 255 255 0 60 19
0.202996 -0.249771 0.027227 255 255 0 60 19
0.146475 -0.241815 0.026811 255 255 0 60 19
0.142066 -0.223360 0.020193 255 255 0 60 19
0.221712 -0.242374 0.020320 255 255 0 60 19
0.174382 -0.250279 0.012649 255 255 0 60 19
0.135454 -0.195679 0.026012 255 255 0 60 19
0.141395 -0.265462 0.014181 255 255 0 60 19
0.182748 -0.205839 0.026736 255 255 0 60 19
0.224790 -0.230598 0.027649 255 255 0 60 19
0.154805 -0.215440 0.020194 255 255 0 60 19
0.128169 -0.210098 0.014727 255 255 0 60 19
0.226833 -0.191627 0.027649 255 255 0 60 19
0.132367 -0.230967 0.015649 255 255 0 60 19
0.261277 -0.230779 0.015649 255 255 0 60 19
0.126227 -0.197883 0.017693 255 255 0 60 19
0.235870 -0.252648 0.015208 255 255 0 60 19
0.247189 -0.226535 0.026600 255 255 0 60 19
0.239382 -0.246931 0.026487 255 255 0 60 19
0.263553 -0.246035 0.014684 255 255 0 60 19
0.248594 -0.250749 0.015649 255 255 0 60 19
0.201576 -0.231578 0.020279 255 255 0 60 19
0.123873 -0.224780 0.024215 255 255 0 60 19
0.227338 -0.178070 0.018649 255 255 0 60 19
0.148941 -0.248053 0.017160 255 255 0 60 19
0.153647 -0.194259 0.020351 255 255 0 60 19
0.221391 -0.203197 0.027649 255 255 0 60 19
0.256827 -0.185217 0.025332 255 255 0 60 19
0.199895 -0.216374 0.027649 255 255 0 60 19
0.171119 -0.207833 0.027649 255 255 0 60 19
0.130753 -0.213336 0.027649 255 255 0 60 19
0.201202 -0.201431 0.027293 255 255 0 60 19
0.120031 -0.206375 0.021649 255 255 0 60 19
0.171570 -0.230342 0.027649 255 255 0 60 19
0.159736 -0.227918 0.027288 255 255 0 60 19
0.142440 -0.253507 0.026079 255 255 0 60 19
0.125386 -0.241921 0.024649 255 255 0 60 19
0.243304 -0.202103 0.027120 255 255 0 60 19
0.162874 -0.192054 0.027034 255 255 0 60 19
0.180134 -0.235725 0.027288 255 255 0 60 19
0.141282 -0.232326 0.026646 255 255 0 60 19
0.174044 -0.202066 0.020468 255 255 0 60 19
0.170122 -0.246894 0.027350 255 255 0 60 19
0.139862 -0.214133 0.020345 255 255 0 60 19
0.167021 -0.213497 0.020372 255 255 0 60 19
0.223281 -0.224443 0.020279 255 255 0 60 19
0.241913 -0.235107 0.018649 255 255 0 60 19
0.190211 -0.258221 0.015649 255 255 0 60 19
0.194554 -0.243009 0.027436 255 255 0 60 19
0.218088 -0.214954 0.027440 255 255 0 60 19
0.188463 -0.209350 0.020304 255 255 0 60 19
0.232508 -0.222239 0.020340 255 255 0 60 19
0.257724 -0.209387 0.026125 255 255 0 60 19
0.261161 -0.215711 0.018649 255 255 0 60 19
0.212611 -0.243142 0.018649 255 255 0 60 19
0.214286 -0.226668 0.027649 255 255 0 60 19
0.255046 -0.224210 0.018649 255 255 0 60 19
0.220666 -0.254328 0.017718 255 255 0 60 19
0.241884 -0.183909 0.026982 255 255 0 60 19
0.133474 -0.252723 0.017621 255 255 0 60 19
0.162959 -0.259924 0.018649 255 255 0 60 19
0.165452 -0.231430 0.020370 255 255 0 60 19
0.187044 -0.191158 0.026715 255 255 0 60 19
0.183907 -0.227020 0.026849 255 255 0 60 19
0.209907 -0.205203 0.020284 255 255 0 60 19
0.251635 -0.175728 0.017219 255 255 0 60 19
0.238112 -0.192614 0.026437 255 255 0 60 19
0.195909 -0.261932 0.021649 255 255 0 60 19
0.184541 -0.254180 0.026290 255 255 0 60 19
0.120890 -0.190036 0.021649 255 255 0 60 19
0.192760 -0.194669 0.020270 255 255 0 60 19
0.196122 -0.225078 0.027311 255 255 0 60 19
0.205498 -0.186749 0.027195 255 255 0 60 19
0.150883 -0.260269 0.026545 255 255 0 60 19
0.154021 -0.224406 0.020327 255 255 0 60 19
0.248599 -0.193532 0.018649 255 255 0 60 19
0.178452 -0.220521 0.020263 255 255 0 60 19
0.132316 -0.231541 0.026543 255 255 0 60 19
0.248235 -0.214580 0.020297 255 255 0 60 19
0.197280 -0.246259 0.011203 255 255 0 60 19
0.180530 -0.247805 0.018649 255 255 0 60 19
0.266017 -0.252273 0.023699 255 255 0 60 19
0.248087 -0.250705 0.025592 255 255 0 60 19
0.160782 -0.215963 0.026678 255 255 0 60 19
0.146997 -0.235837 0.020374 255 255 0 60 19
0.230678 -0.243159 0.017192 255 255 0 60 19
0.129440 -0.264416 0.025879 255 255 0 60 19
0.240167 -0.237966 0.026660 255 255 0 60 19
0.135057 -0.200214 0.018649 255 255 0 60 19
0.253839 -0.184956 0.011269 255 255 0 60 19
0.252644 -0.233034 0.027352 255 255 0 60 19
0.258221 -0.238137 0.018649 255 255 0 60 19
0.123238 -0.197621 0.026486 255 255 0 60 19
0.158168 -0.245849 0.027274 255 255 0 60 19
0.144158 -0.199451 0.020287 255 255 0 60 19
0.237066 -0.204569 0.020271 255 255 0 60 19
0.225373 -0.200534 0.020348 255 255 0 60 19
0.169113 -0.189588 0.020282 255 255 0 60 19
0.135093 -0.268644 0.018649 255 255 0 60 19
0.125953 -0.258088 0.021649 255 255 0 60 19
0.223692 -0.185329 0.020394 255 255 0 60 19
0.152601 -0.206213 0.027958 255 255 0 60 19
0.195076 -0.237032 0.020323 255 255 0 60 19
0.218985 -0.239124 0.027398 255 255 0 60 19
0.158840 -0.203747 0.020384 255 255 0 60 19
0.224439 -0.245625 0.027334 255 255 0 60 19
0.248871 -0.241739 0.017203 255 255 0 60 19
0.208861 -0.217158 0.026998 255 255 0 60 19
0.190929 -0.215590 0.027352 255 255 0 60 19
0.182861 -0.238975 0.020414 255 255 0 60 19
0.224066 -0.215478 0.020359 255 255 0 60 19
0.139758 -0.232192 0.018649 255 255 0 60 19
0.202275 -0.258019 0.024649 255 255 0 60 19
0.178220 -0.257597 0.015649 255 255 0 60 19
0.208749 -0.184023 0.020396 255 255 0 60 19
0.156374 -0.197509 0.027144 255 255 0 60 19
0.217467 -0.256478 0.024649 255 255 0 60 19
0.218462 -0.245101 0.011110 255 255 0 60 19
0.172849 -0.250145 0.020420 255 255 0 60 19
0.252268 -0.178795 0.024649 255 255 0 60 19
0.259027 -0.206490 0.018649 255 255 0 60 19
0.208077 -0.226124 0.020335 255 255 0 60 19
0.147853 -0.266027 0.018649 255 255 0 60 19
0.246574 -0.211423 0.027649 255 255 0 60 19
0.238634 -0.186637 0.020367 255 255 0 60 19
0.256043 -0.194183 0.026791 255 255 0 60 19
0.155964 -0.236621 0.027416 255 255 0 60 19
0.229145 -0.191830 0.020225 255 255 0 60 19
0.151271 -0.186983 0.021649 255 255 0 60 19
0.254231 -0.200047 0.018649 255 255 0 60 19
0.263328 -0.179764 0.023062 255 255 0 60 19
0.164667 -0.240395 0.020209 255 255 0 60 19
0.141399 -0.247394 0.018649 255 255 0 60 19
0.142328 -0.220371 0.027644 255 255 0 60 19
0.156430 -0.248709 0.018649 255 255 0 60 19
0.204393 -0.249893 0.012649 255 255 0 60 19
0.131270 -0.243496 0.017820 255 255 0 60 19
0.259554 -0.188467 0.018245 255 255 0 60 19
0.151265 -0.221482 0.027649 255 255 0 60 19
0.127123 -0.222053 0.017804 255 255 0 60 19
0.266167 -0.216149 0.025979 255 255 0 60 19
0.138966 -0.189963 0.022647 255 255 0 60 19
0.187157 -0.224293 0.020420 255 255 0 60 19
0.252270 -0.202887 0.026447 255 255 0 60 19
0.178042 -0.259633 0.024042 255 255 0 60 19
0.243566 -0.199114 0.020230 255 255 0 60 19
0.123725 -0.260904 0.014218 255 255 0 60 19
0.147895 -0.260007 0.014422 255 255 0 60 19
0.270053 -0.240580 0.023057 255 255 0 60 19
0.192149 -0.251834 0.012649 255 255 0 60 19
0.197487 -0.209483 0.027649 255 255 0 60 19
