ply
format ascii 1.0
element vertex 1112
property float x
property float y
property float z
property uchar red
property uchar green
property uchar blue
property uchar semantic_label
property uchar instance_label
end_header
2.078183 3.160670 -0.489154 0 255 0 51 10
2.149809 3.190428 -0.497018 0 255 0 51 10
2.135964 3.115673 -0.500184 0 255 0 51 10
2.014522 3.054168 -0.505154 0 255 0 51 10
2.177231 3.175146 -0.327154 0 255 0 51 10
2.196533 3.063950 -0.461493 0 255 0 51 10
2.083740 3.033511 -0.359154 0 255 0 51 10
2.137825 3.172528 -0.504537 0 255 0 51 10
1.986535 3.162985 -0.367154 0 255 0 51 10
2.117969 3.184927 -0.388578 0 255 0 51 10
2.143917 3.143472 -0.495154 0 255 0 51 10
2.040653 3.017341 -0.485154 0 255 0 51 10
2.106952 3.076857 -0.387154 0 255 0 51 10
2.063089 3.090269 -0.549922 0 255 0 51 10
2.092124 3.044096 -0.469154 0 255 0 51 10
2.074086 3.134960 -0.579154 0 255 0 51 10
2.175175 3.174813 -0.519154 0 255 0 51 10
2.110493 3.127221 -0.481154 0 255 0 51 10
2.056030 3.071323 -0.479154 0 255 0 51 10
2.124802 3.120090 -0.535154 0 255 0 51 10
2.157303 3.100635 -0.497154 0 255 0 51 10
2.014641 3.054728 -0.525154 0 255 0 51 10
2.076484 3.143666 -0.405154 0 255 0 51 10
2.127132 3.158444 -0.367154 0 255 0 51 10
1.982956 3.069189 -0.369154 0 255 0 51 10
2.132704 3.109956 -0.499154 0 255 0 51 10
2.084414 3.152116 -0.475154 0 255 0 51 10
2.084603 3.136814 -0.487154 0 255 0 51 10
2.057823 3.113590 -0.487154 0 255 0 51 10
1.972174 3.162755 -0.358213 0 255 0 51 10
2.124614 3.052656 -0.452476 0 255 0 51 10
2.080609 3.095738 -0.605154 0 255 0 51 10
2.202355 3.091338 -0.502145 0 255 0 51 10
2.190514 3.171552 -0.503154 0 255 0 51 10
2.083631 3.182003 -0.481154 0 255 0 51 10
1.987807 3.063156 -0.363154 0 255 0 51 10
2.190045 3.100088 -0.443154 0 255 0 51 10
2.040029 3.174168 -0.455154 0 255 0 51 10
2.150565 3.155508 -0.527695 0 255 0 51 10
2.143287 3.140507 -0.515154 0 255 0 51 10
2.008953 3.167206 -0.409154 0 255 0 51 10
2.114511 3.216754 -0.333154 0 255 0 51 10
2.076368 3.085402 -0.465854 0 255 0 51 10
2.081069 3.001704 -0.343154 0 255 0 51 10
2.108491 3.058128 -0.483154 0 255 0 51 10
2.213705 3.154355 -0.389266 0 255 0 51 10
2.189936 3.167586 -0.328275 0 255 0 51 10
2.103240 3.120584 -0.493154 0 255 0 51 10
2.195100 3.148086 -0.519154 0 255 0 51 10
2.045974 3.134800 -0.442048 0 255 0 51 10
2.075659 3.091687 -0.465295 0 255 0 51 10
2.206173 3.147777 -0.406331 0 255 0 51 10
2.196467 3.188689 -0.504093 0 255 0 51 10
2.107853 3.137334 -0.477154 0 255 0 51 10
2.106837 3.074837 -0.498743 0 255 0 51 10
2.078257 3.209726 -0.455722 0 255 0 51 10
2.106421 3.072880 -0.480081 0 255 0 51 10
2.126507 3.128900 -0.501154 0 255 0 51 10
1.995621 3.090297 -0.401997 0 255 0 51 10
2.165431 3.119633 -0.449130 0 255 0 51 10
2.080205 3.045738 -0.437928 0 255 0 51 10
2.118283 3.042110 -0.465154 0 255 0 51 10
2.171680 3.003803 -0.349154 0 255 0 51 10
2.133665 3.195904 -0.497154 0 255 0 51 10
2.129425 3.164091 -0.513154 0 255 0 51 10
2.081256 3.118021 -0.509154 0 255 0 51 10
2.100408 3.135499 -0.491154 0 255 0 51 10
2.054456 3.136229 -0.449154 0 255 0 51 10
2.104201 3.048816 -0.463154 0 255 0 51 10
2.033479 3.117010 -0.467154 0 255 0 51 10
2.132930 3.091782 -0.562416 0 255 0 51 10
2.129049 3.074205 -0.471154 0 255 0 51 10
2.028623 2.899261 -0.549847 0 255 0 57 11
2.094674 2.911803 -0.621912 0 255 0 57 11
2.065605 2.967431 -0.571154 0 255 0 57 11
2.026427 2.893594 -0.621154 0 255 0 57 11
2.096087 2.907413 -0.547154 0 255 0 57 11
2.067697 2.871458 -0.585154 0 255 0 57 11
2.049781 2.945881 -0.621154 0 255 0 57 11
2.033241 2.935084 -0.579154 0 255 0 57 11
2.079570 2.927281 -0.583154 0 255 0 57 11
2.057722 2.872629 -0.546269 0 255 0 57 11
2.055378 2.938557 -0.547060 0 255 0 57 11
2.029795 2.880610 -0.585154 0 255 0 57 11
2.075036 2.877128 -0.622093 0 255 0 57 11
2.094067 2.895574 -0.589154 0 255 0 57 11
2.024901 2.924589 -0.609154 0 255 0 57 11
2.085312 2.881078 -0.561154 0 255 0 57 11
2.046562 2.872957 -0.611154 0 255 0 57 11
2.065404 2.963006 -0.601154 0 255 0 57 11
2.077465 2.936654 -0.613154 0 255 0 57 11
2.085259 2.934842 -0.553154 0 255 0 57 11
2.026620 2.928313 -0.551369 0 255 0 57 11
2.021236 2.906966 -0.577154 0 255 0 57 11
2.055429 2.938797 -0.595154 0 255 0 57 11
2.036995 2.877035 -0.561154 0 255 0 57 11
2.061627 2.939274 -0.571154 0 255 0 57 11
2.095840 2.913599 -0.571154 0 255 0 57 11
2.094416 2.917992 -0.599154 0 255 0 57 11
2.028049 2.901428 -0.599154 0 255 0 57 11
2.091505 2.889985 -0.611154 0 255 0 57 11
2.058743 2.877429 -0.567154 0 255 0 57 11
2.074117 2.882426 -0.601154 0 255 0 57 11
2.048976 2.879581 -0.591154 0 255 0 57 11
2.041669 2.941395 -0.561154 0 255 0 57 11
2.038360 2.940130 -0.605154 0 255 0 57 11
2.052012 2.965854 -0.587154 0 255 0 57 11
2.023700 2.890084 -0.567154 0 255 0 57 11
2.030325 2.919346 -0.591154 0 255 0 57 11
2.080082 2.886279 -0.579154 0 255 0 57 11
2.058705 2.954208 -0.559621 0 255 0 57 11
2.033487 2.883663 -0.603154 0 255 0 57 11
2.030591 2.919290 -0.567154 0 255 0 57 11
2.086921 2.899138 -0.563154 0 255 0 57 11
2.074022 2.939693 -0.595154 0 255 0 57 11
2.075569 2.874970 -0.547154 0 255 0 57 11
2.091376 2.890012 -0.547154 0 255 0 57 11
2.063326 2.947091 -0.609884 0 255 0 57 11
2.079822 2.938123 -0.569154 0 255 0 57 11
2.063567 2.871267 -0.609154 0 255 0 57 11
2.047452 2.944331 -0.581154 0 255 0 57 11
2.087872 2.918279 -0.557154 0 255 0 57 11
2.086645 2.912506 -0.585154 0 255 0 57 11
2.033538 2.883904 -0.546512 0 255 0 57 11
2.084406 2.921213 -0.613154 0 255 0 57 11
2.042415 2.873838 -0.577154 0 255 0 57 11
2.070086 2.940416 -0.555154 0 255 0 57 11
2.039611 2.883615 -0.621154 0 255 0 57 11
2.088176 2.905005 -0.607154 0 255 0 57 11
2.022462 2.908750 -0.612019 0 255 0 57 11
2.049491 2.954122 -0.607154 0 255 0 57 11
2.073781 2.873305 -0.569154 0 255 0 57 11
2.021456 2.913636 -0.549154 0 255 0 57 11
2.036524 2.936430 -0.620018 0 255 0 57 11
2.040164 2.934318 -0.547154 0 255 0 57 11
2.086966 2.882771 -0.593154 0 255 0 57 11
2.056791 2.877866 -0.621154 0 255 0 57 11
2.081334 2.925998 -0.599154 0 255 0 57 11
2.022629 2.894401 -0.585154 0 255 0 57 11
2.042048 2.933555 -0.591154 0 255 0 57 11
2.051921 2.960772 -0.573154 0 255 0 57 11
2.020738 2.905027 -0.561154 0 255 0 57 11
2.068672 2.966402 -0.587154 0 255 0 57 11
2.065054 2.945600 -0.585154 0 255 0 57 11
2.095082 2.899448 -0.575154 0 255 0 57 11
2.063440 2.938007 -0.621154 0 255 0 57 11
2.086906 2.899141 -0.621154 0 255 0 57 11
2.022077 2.921099 -0.579154 0 255 0 57 11
2.036056 2.886132 -0.573154 0 255 0 57 11
2.028439 2.932015 -0.597154 0 255 0 57 11
2.089529 2.926072 -0.573154 0 255 0 57 11
2.043700 2.873998 -0.549154 0 255 0 57 11
2.030809 2.933556 -0.565154 0 255 0 57 11
2.051219 2.938226 -0.609154 0 255 0 57 11
2.061134 2.879059 -0.597154 0 255 0 57 11
2.065690 2.871637 -0.557154 0 255 0 57 11
2.055470 2.871653 -0.579154 0 255 0 57 11
2.083673 2.879381 -0.611154 0 255 0 57 11
2.020786 2.915240 -0.599154 0 255 0 57 11
2.023206 2.888145 -0.553154 0 255 0 57 11
2.086093 2.895224 -0.599154 0 255 0 57 11
2.090770 2.888096 -0.571154 0 255 0 57 11
2.023203 2.888145 -0.597154 0 255 0 57 11
2.089345 2.925204 -0.545991 0 255 0 57 11
2.049297 2.871468 -0.561154 0 255 0 57 11
2.058005 2.941293 -0.559154 0 255 0 57 11
2.071279 2.936409 -0.579154 0 255 0 57 11
2.047323 2.936180 -0.571154 0 255 0 57 11
2.052750 2.964670 -0.601154 0 255 0 57 11
2.090261 2.925009 -0.589154 0 255 0 57 11
2.029538 2.893946 -0.609154 0 255 0 57 11
2.095492 2.905495 -0.597154 0 255 0 57 11
2.085195 2.886444 -0.621154 0 255 0 57 11
2.081472 2.926877 -0.563154 0 255 0 57 11
2.096021 2.909472 -0.559154 0 255 0 57 11
2.072952 2.881660 -0.589154 0 255 0 57 11
2.027838 2.907607 -0.587154 0 255 0 57 11
2.080771 2.886132 -0.551154 0 255 0 57 11
2.081935 2.928823 -0.622005 0 255 0 57 11
2.065370 2.937466 -0.603154 0 255 0 57 11
2.073690 2.880414 -0.559154 0 255 0 57 11
2.053326 2.871183 -0.601154 0 255 0 57 11
2.050965 2.946651 -0.567154 0 255 0 57 11
2.028568 2.897228 -0.575154 0 255 0 57 11
2.070579 2.871941 -0.597154 0 255 0 57 11
2.035790 2.928408 -0.607154 0 255 0 57 11
2.033553 2.887990 -0.559154 0 255 0 57 11
2.022044 2.921106 -0.559154 0 255 0 57 11
2.067418 2.879768 -0.577154 0 255 0 57 11
2.042021 2.875967 -0.601154 0 255 0 57 11
2.088145 2.900321 -0.551154 0 255 0 57 11
2.032730 2.889719 -0.591154 0 255 0 57 11
2.092109 2.889856 -0.559154 0 255 0 57 11
2.075357 2.936355 -0.546088 0 255 0 57 11
2.094155 2.916002 -0.611154 0 255 0 57 11
2.065547 2.870965 -0.622184 0 255 0 57 11
2.067748 2.958274 -0.565154 0 255 0 57 11
2.058705 2.954208 -0.599894 0 255 0 57 11
2.037957 2.929992 -0.557154 0 255 0 57 11
2.074264 2.873494 -0.611154 0 255 0 57 11
2.070940 2.944434 -0.567154 0 255 0 57 11
2.057245 2.947338 -0.577154 0 255 0 57 11
2.086097 2.895224 -0.581154 0 255 0 57 11
2.048587 2.945084 -0.601154 0 255 0 57 11
2.096168 2.907396 -0.585154 0 255 0 57 11
2.060885 2.961923 -0.579154 0 255 0 57 11
2.082961 2.933653 -0.591154 0 255 0 57 11
2.024750 2.885772 -0.577154 0 255 0 57 11
2.020813 2.915234 -0.569154 0 255 0 57 11
2.061493 2.957704 -0.610107 0 255 0 57 11
2.027659 2.928092 -0.585154 0 255 0 57 11
2.095413 2.903467 -0.615154 0 255 0 57 11
2.040260 2.882475 -0.583154 0 255 0 57 11
2.046894 2.879403 -0.569154 0 255 0 57 11
2.057382 2.871027 -0.591154 0 255 0 57 11
2.094188 2.919135 -0.581154 0 255 0 57 11
2.047525 2.872752 -0.622224 0 255 0 57 11
2.032363 2.923002 -0.577154 0 255 0 57 11
2.087018 2.909341 -0.567154 0 255 0 57 11
2.030290 2.919354 -0.547154 0 255 0 57 11
2.048794 2.936438 -0.555154 0 255 0 57 11
2.076799 2.874709 -0.579154 0 255 0 57 11
2.078424 2.883449 -0.569154 0 255 0 57 11
2.029406 2.915452 -0.605154 0 255 0 57 11
2.027916 2.911680 -0.557154 0 255 0 57 11
2.057468 2.938771 -0.583154 0 255 0 57 11
2.084696 2.932193 -0.607154 0 255 0 57 11
2.029036 2.897129 -0.561154 0 255 0 57 11
2.036801 2.880019 -0.593154 0 255 0 57 11
2.028794 2.880823 -0.566152 0 255 0 57 11
2.056598 2.876958 -0.555522 0 255 0 57 11
2.085525 2.916855 -0.575154 0 255 0 57 11
2.087990 2.884598 -0.603154 0 255 0 57 11
2.063110 2.946074 -0.595154 0 255 0 57 11
2.027605 2.907656 -0.569154 0 255 0 57 11
2.060664 2.968104 -0.593154 0 255 0 57 11
2.061786 2.949463 -0.568011 0 255 0 57 11
2.046200 2.943471 -0.591154 0 255 0 57 11
2.087459 2.911291 -0.595154 0 255 0 57 11
2.044142 2.934812 -0.581154 0 255 0 57 11
2.094598 2.897506 -0.605154 0 255 0 57 11
2.039121 2.881310 -0.611154 0 255 0 57 11
2.074782 2.933651 -0.603154 0 255 0 57 11
2.054836 2.878291 -0.609154 0 255 0 57 11
2.063405 2.870506 -0.573154 0 255 0 57 11
2.072849 2.934178 -0.563154 0 255 0 57 11
2.065576 2.938435 -0.546389 0 255 0 57 11
2.037973 2.929989 -0.571154 0 255 0 57 11
2.020820 2.915233 -0.589154 0 255 0 57 11
2.020798 2.900925 -0.606090 0 255 0 57 11
2.088644 2.906950 -0.577154 0 255 0 57 11
2.079941 2.929062 -0.573154 0 255 0 57 11
2.089121 2.885674 -0.583154 0 255 0 57 11
2.028509 2.913598 -0.579154 0 255 0 57 11
2.044263 2.943982 -0.613154 0 255 0 57 11
2.079239 2.876235 -0.595154 0 255 0 57 11
2.086338 2.915619 -0.605154 0 255 0 57 11
2.025260 2.926557 -0.571154 0 255 0 57 11
2.031520 2.886377 -0.615154 0 255 0 57 11
2.087743 2.903052 -0.589154 0 255 0 57 11
2.038392 2.940123 -0.571154 0 255 0 57 11
2.085725 2.917794 -0.622201 0 255 0 57 11
2.059200 2.946916 -0.619154 0 255 0 57 11
2.072786 2.933877 -0.621154 0 255 0 57 11
2.040947 2.882329 -0.553154 0 255 0 57 11
2.033831 2.875663 -0.552158 0 255 0 57 11
2.092499 2.920807 -0.565154 0 255 0 57 11
2.050735 2.945570 -0.553154 0 255 0 57 11
2.032093 2.890345 -0.581154 0 255 0 57 11
2.031304 2.921492 -0.557154 0 255 0 57 11
2.071658 2.943276 -0.607154 0 255 0 57 11
2.048975 2.879571 -0.581154 0 255 0 57 11
2.094947 2.915834 -0.551154 0 255 0 57 11
2.044381 2.934761 -0.615154 0 255 0 57 11
2.067325 2.937047 -0.589154 0 255 0 57 11
2.033595 2.937053 -0.589154 0 255 0 57 11
2.086999 2.909345 -0.617154 0 255 0 57 11
2.030819 2.933554 -0.613154 0 255 0 57 11
2.084012 2.890498 -0.565154 0 255 0 57 11
2.095217 2.899419 -0.557154 0 255 0 57 11
2.066976 2.877685 -0.615154 0 255 0 57 11
2.022584 2.918947 -0.616146 0 255 0 57 11
2.067196 2.952403 -0.603154 0 255 0 57 11
2.056100 2.946583 -0.589154 0 255 0 57 11
2.090438 2.924971 -0.607154 0 255 0 57 11
2.046716 2.936284 -0.599154 0 255 0 57 11
2.077869 2.929687 -0.555154 0 255 0 57 11
2.084017 2.890521 -0.589154 0 255 0 57 11
2.079543 2.936811 -0.583154 0 255 0 57 11
2.065596 2.948152 -0.559154 0 255 0 57 11
2.021430 2.898746 -0.593154 0 255 0 57 11
2.058412 2.962449 -0.566882 0 255 0 57 11
2.083258 2.891737 -0.607154 0 255 0 57 11
2.087554 2.909227 -0.553154 0 255 0 57 11
2.088738 2.927377 -0.557154 0 255 0 57 11
2.021045 2.896783 -0.555154 0 255 0 57 11
2.035984 2.877250 -0.571154 0 255 0 57 11
2.034912 2.938467 -0.553154 0 255 0 57 11
2.032007 2.923078 -0.599154 0 255 0 57 11
2.051403 2.871757 -0.571154 0 255 0 57 11
2.067411 2.879735 -0.567154 0 255 0 57 11
2.028115 2.911637 -0.595154 0 255 0 57 11
2.095728 2.909534 -0.605154 0 255 0 57 11
2.095657 2.905460 -0.567154 0 255 0 57 11
2.067377 2.937290 -0.613154 0 255 0 57 11
2.067010 2.945181 -0.575154 0 255 0 57 11
2.060698 2.877011 -0.585154 0 255 0 57 11
2.089750 2.925117 -0.619154 0 255 0 57 11
2.021630 2.904837 -0.550332 0 255 0 57 11
2.083978 2.919197 -0.593154 0 255 0 57 11
2.047019 2.879989 -0.617154 0 255 0 57 11
2.037069 2.929374 -0.585154 0 255 0 57 11
2.078173 2.939985 -0.559154 0 255 0 57 11
2.055449 2.871554 -0.615154 0 255 0 57 11
2.049481 2.872336 -0.586078 0 255 0 57 11
2.093874 2.895615 -0.567154 0 255 0 57 11
2.052072 2.955618 -0.565154 0 255 0 57 11
2.021456 2.898740 -0.567154 0 255 0 57 11
2.034867 2.926560 -0.549154 0 255 0 57 11
2.078588 2.927490 -0.611154 0 255 0 57 11
2.094897 2.915843 -0.589154 0 255 0 57 11
2.081321 2.877837 -0.553595 0 255 0 57 11
2.053006 2.937017 -0.617513 0 255 0 57 11
2.083540 2.879410 -0.585154 0 255 0 57 11
2.028670 2.891073 -0.547154 0 255 0 57 11
2.052920 2.946232 -0.613154 0 255 0 57 11
2.036717 2.937339 -0.597154 0 255 0 57 11
2.086265 2.881858 -0.575154 0 255 0 57 11
2.091686 2.889946 -0.595154 0 255 0 57 11
2.066318 2.874593 -0.549154 0 255 0 57 11
2.030052 2.892823 -0.599154 0 255 0 57 11
2.057042 2.946382 -0.602830 0 255 0 57 11
2.021198 2.906974 -0.597154 0 255 0 57 11
2.051176 2.938026 -0.563154 0 255 0 57 11
2.066973 2.877672 -0.603154 0 255 0 57 11
2.076049 2.881894 -0.615154 0 255 0 57 11
2.076982 2.874670 -0.603154 0 255 0 57 11
2.054451 2.967380 -0.579154 0 255 0 57 11
2.029021 2.881892 -0.555154 0 255 0 57 11
2.086925 2.899137 -0.573154 0 255 0 57 11
2.087901 2.928031 -0.581154 0 255 0 57 11
2.042655 2.941262 -0.551154 0 255 0 57 11
2.032122 2.890339 -0.567154 0 255 0 57 11
2.061466 2.871005 -0.599154 0 255 0 57 11
2.024887 2.924592 -0.595154 0 255 0 57 11
2.050925 2.879129 -0.601154 0 255 0 57 11
2.091047 2.892127 -0.619154 0 255 0 57 11
2.059707 2.939682 -0.609137 0 255 0 57 11
2.051242 2.871001 -0.551154 0 255 0 57 11
2.064153 2.960602 -0.593154 0 255 0 57 11
2.085728 2.893257 -0.555154 0 255 0 57 11
2.028259 2.882981 -0.593154 0 255 0 57 11
2.034051 2.876697 -0.579154 0 255 0 57 11
2.021242 2.917188 -0.607154 0 255 0 57 11
2.025649 2.928519 -0.561154 0 255 0 57 11
2.061102 2.970056 -0.585154 0 255 0 57 11
2.086478 2.897187 -0.613154 0 255 0 57 11
2.040770 2.941662 -0.585154 0 255 0 57 11
2.062495 2.943179 -0.552369 0 255 0 57 11
2.081234 2.887042 -0.599154 0 255 0 57 11
2.065409 2.937651 -0.563154 0 255 0 57 11
2.070919 2.934714 -0.571154 0 255 0 57 11
2.035685 2.928430 -0.593154 0 255 0 57 11
2.076294 2.931144 -0.595154 0 255 0 57 11
2.089622 2.926512 -0.597154 0 255 0 57 11
2.021299 2.893662 -0.577154 0 255 0 57 11
2.041891 2.942441 -0.621154 0 255 0 57 11
2.083264 2.891736 -0.573154 0 255 0 57 11
2.057386 2.871047 -0.561154 0 255 0 57 11
2.064540 2.871180 -0.565154 0 255 0 57 11
2.067528 2.966856 -0.579154 0 255 0 57 11
2.073404 2.873385 -0.555154 0 255 0 57 11
2.023048 2.892268 -0.604113 0 255 0 57 11
2.028439 2.898395 -0.589154 0 255 0 57 11
2.050087 2.937637 -0.587154 0 255 0 57 11
2.084401 2.921186 -0.585154 0 255 0 57 11
2.048214 2.872606 -0.595154 0 255 0 57 11
2.074290 2.873618 -0.589154 0 255 0 57 11
2.088354 2.884520 -0.553154 0 255 0 57 11
2.027462 2.907687 -0.605154 0 255 0 57 11
2.084904 2.932282 -0.615154 0 255 0 57 11
2.094649 2.897495 -0.597154 0 255 0 57 11
2.087722 2.903057 -0.599154 0 255 0 57 11
2.028432 2.932017 -0.605154 0 255 0 57 11
2.042126 2.933195 -0.563154 0 255 0 57 11
2.042043 2.875821 -0.587154 0 255 0 57 11
2.044695 2.878679 -0.559154 0 255 0 57 11
2.078869 2.875923 -0.563154 0 255 0 57 11
2.037617 2.883856 -0.565154 0 255 0 57 11
2.034231 2.925641 -0.563154 0 255 0 57 11
2.081736 2.879793 -0.546041 0 255 0 57 11
2.054846 2.878335 -0.575154 0 255 0 57 11
2.094254 2.897579 -0.547154 0 255 0 57 11
2.023022 2.921008 -0.551154 0 255 0 57 11
2.063865 2.959245 -0.571844 0 255 0 57 11
2.083071 2.928582 -0.549154 0 255 0 57 11
2.044427 2.935133 -0.607154 0 255 0 57 11
2.041613 2.873795 -0.567154 0 255 0 57 11
2.092689 2.891778 -0.579154 0 255 0 57 11
2.085328 2.932191 -0.567154 0 255 0 57 11
2.027746 2.903537 -0.557154 0 255 0 57 11
2.082238 2.879686 -0.619154 0 255 0 57 11
2.085778 2.917783 -0.567154 0 255 0 57 11
2.046195 2.943453 -0.573154 0 255 0 57 11
2.080100 2.886275 -0.559154 0 255 0 57 11
2.069788 2.871670 -0.577154 0 255 0 57 11
2.055225 2.938590 -0.575154 0 255 0 57 11
2.027893 2.909640 -0.549154 0 255 0 57 11
2.081234 2.887042 -0.613154 0 255 0 57 11
2.094504 2.911839 -0.579154 0 255 0 57 11
2.079743 2.884305 -0.591154 0 255 0 57 11
2.066274 2.878990 -0.559154 0 255 0 57 11
2.030816 2.933555 -0.557154 0 255 0 57 11
2.081324 2.925949 -0.591154 0 255 0 57 11
2.022449 2.923065 -0.587154 0 255 0 57 11
2.028052 2.930053 -0.577154 0 255 0 57 11
2.025294 2.887701 -0.587154 0 255 0 57 11
2.039568 2.931695 -0.601154 0 255 0 57 11
2.066970 2.877658 -0.591154 0 255 0 57 11
2.078432 2.883488 -0.607154 0 255 0 57 11
2.071734 2.880834 -0.609154 0 255 0 57 11
2.074112 2.882403 -0.575154 0 255 0 57 11
2.068779 2.943888 -0.599476 0 255 0 57 11
2.027568 2.903574 -0.579154 0 255 0 57 11
2.058412 2.962449 -0.588835 0 255 0 57 11
2.076253 2.940567 -0.575154 0 255 0 57 11
2.041133 2.881160 -0.575154 0 255 0 57 11
2.055439 2.938844 -0.603154 0 255 0 57 11
2.056118 2.951659 -0.609154 0 255 0 57 11
2.047022 2.880007 -0.609154 0 255 0 57 11
2.065807 2.944519 -0.617154 0 255 0 57 11
2.051903 2.877956 -0.563154 0 255 0 57 11
2.041892 2.942445 -0.597154 0 255 0 57 11
2.025951 2.886687 -0.561154 0 255 0 57 11
2.092485 2.918402 -0.619154 0 255 0 57 11
2.082839 2.933079 -0.599154 0 255 0 57 11
2.038049 2.938151 -0.613154 0 255 0 57 11
2.030336 2.919343 -0.583154 0 255 0 57 11
2.038559 2.878668 -0.547154 0 255 0 57 11
2.083645 2.922326 -0.605154 0 255 0 57 11
2.063390 2.937772 -0.579154 0 255 0 57 11
2.058371 2.966547 -0.573154 0 255 0 57 11
2.048563 2.877636 -0.553154 0 255 0 57 11
2.095108 2.899442 -0.583154 0 255 0 57 11
2.063088 2.878635 -0.609154 0 255 0 57 11
2.093308 2.893691 -0.553154 0 255 0 57 11
2.063389 2.937768 -0.595154 0 255 0 57 11
2.088182 2.905004 -0.559154 0 255 0 57 11
2.055624 2.958951 -0.606120 0 255 0 57 11
2.075411 2.881137 -0.551154 0 255 0 57 11
2.047091 2.936230 -0.547154 0 255 0 57 11
2.020716 2.910155 -0.605154 0 255 0 57 11
2.031199 2.921206 -0.609154 0 255 0 57 11
2.083055 2.934094 -0.577154 0 255 0 57 11
2.083813 2.879941 -0.599154 0 255 0 57 11
2.076024 2.932124 -0.587154 0 255 0 57 11
2.029832 2.880602 -0.573154 0 255 0 57 11
2.051003 2.966068 -0.594134 0 255 0 57 11
2.056040 2.960907 -0.596196 0 255 0 57 11
2.083726 2.922307 -0.553154 0 255 0 57 11
2.035625 2.936622 -0.561154 0 255 0 57 11
2.072079 2.940173 -0.585154 0 255 0 57 11
2.083877 2.924321 -0.569154 0 255 0 57 11
2.088147 2.884564 -0.615154 0 255 0 57 11
2.080101 2.939435 -0.552422 0 255 0 57 11
2.054442 2.946935 -0.561154 0 255 0 57 11
2.031417 2.893163 -0.553154 0 255 0 57 11
2.070363 2.871987 -0.605154 0 255 0 57 11
2.040441 2.877903 -0.617154 0 255 0 57 11
2.056796 2.877890 -0.591154 0 255 0 57 11
2.070259 2.872009 -0.617154 0 255 0 57 11
2.079270 2.935524 -0.619689 0 255 0 57 11
2.077841 2.931738 -0.567154 0 255 0 57 11
2.083087 2.924489 -0.577154 0 255 0 57 11
2.073638 2.934676 -0.553154 0 255 0 57 11
2.081321 2.877837 -0.571768 0 255 0 57 11
2.061947 2.877865 -0.573154 0 255 0 57 11
2.034155 2.886807 -0.597154 0 255 0 57 11
2.052917 2.946217 -0.595154 0 255 0 57 11
2.036326 2.887401 -0.552973 0 255 0 57 11
2.091564 2.922687 -0.553154 0 255 0 57 11
2.059958 2.878288 -0.615154 0 255 0 57 11
2.072064 2.940104 -0.617154 0 255 0 57 11
2.076065 2.881971 -0.583154 0 255 0 57 11
2.021302 2.893676 -0.561154 0 255 0 57 11
2.076412 2.931697 -0.579154 0 255 0 57 11
2.091055 2.904393 -0.621979 0 255 0 57 11
2.033117 2.933066 -0.549154 0 255 0 57 11
2.040029 2.875966 -0.555154 0 255 0 57 11
2.082087 2.934925 -0.561154 0 255 0 57 11
2.061894 2.941262 -0.589154 0 255 0 57 11
2.045057 2.880380 -0.597154 0 255 0 57 11
2.069345 2.879213 -0.553154 0 255 0 57 11
2.024103 2.920669 -0.601154 0 255 0 57 11
2.058738 2.877409 -0.603154 0 255 0 57 11
2.059517 2.871454 -0.553154 0 255 0 57 11
2.094440 2.915942 -0.559154 0 255 0 57 11
2.069358 2.879274 -0.597154 0 255 0 57 11
2.024477 2.922634 -0.565154 0 255 0 57 11
2.033222 2.935088 -0.571154 0 255 0 57 11
2.087899 2.913243 -0.611154 0 255 0 57 11
2.038384 2.940125 -0.579154 0 255 0 57 11
2.050013 2.937653 -0.579154 0 255 0 57 11
2.089142 2.885775 -0.565154 0 255 0 57 11
2.023622 2.894968 -0.549154 0 255 0 57 11
2.065470 2.870602 -0.593154 0 255 0 57 11
2.028255 2.901384 -0.567154 0 255 0 57 11
2.026683 2.916031 -0.611154 0 255 0 57 11
2.039605 2.931687 -0.577323 0 255 0 57 11
2.077078 2.929855 -0.617154 0 255 0 57 11
2.057442 2.938647 -0.565154 0 255 0 57 11
2.035884 2.885324 -0.587154 0 255 0 57 11
2.034146 2.886765 -0.609154 0 255 0 57 11
2.087681 2.917378 -0.550665 0 255 0 57 11
2.027591 2.904022 -0.593154 0 255 0 57 11
2.091624 2.922674 -0.613154 0 255 0 57 11
2.088495 2.911589 -0.559154 0 255 0 57 11
2.092577 2.892310 -0.601154 0 255 0 57 11
2.026405 2.927302 -0.601154 0 255 0 57 11
2.095203 2.909646 -0.591154 0 255 0 57 11
2.071029 2.935231 -0.608194 0 255 0 57 11
2.037561 2.931691 -0.613154 0 255 0 57 11
2.095490 2.897316 -0.617154 0 255 0 57 11
2.057426 2.871236 -0.607154 0 255 0 57 11
2.047137 2.938264 -0.619887 0 255 0 57 11
2.059121 2.956164 -0.568053 0 255 0 57 11
2.028216 2.913661 -0.565154 0 255 0 57 11
2.084825 2.932298 -0.585154 0 255 0 57 11
2.061543 2.871366 -0.617154 0 255 0 57 11
2.095454 2.905851 -0.575154 0 255 0 57 11
2.092425 2.920459 -0.572060 0 255 0 57 11
2.035041 2.881356 -0.617154 0 255 0 57 11
2.044025 2.942859 -0.567154 0 255 0 57 11
2.057539 2.939102 -0.553154 0 255 0 57 11
2.047664 2.873405 -0.603154 0 255 0 57 11
2.047885 2.941781 -0.559154 0 255 0 57 11
2.091895 2.889902 -0.587154 0 255 0 57 11
2.065040 2.956950 -0.599154 0 255 0 57 11
2.095790 2.909521 -0.613154 0 255 0 57 11
2.088951 2.927331 -0.565154 0 255 0 57 11
2.061909 2.959661 -0.562332 0 255 0 57 11
2.066968 2.877649 -0.583154 0 255 0 57 11
2.092009 2.918503 -0.546118 0 255 0 57 11
2.033562 2.924792 -0.571154 0 255 0 57 11
2.061498 2.871154 -0.581154 0 255 0 57 11
2.056803 2.945262 -0.571154 0 255 0 57 11
2.030498 2.931578 -0.591154 0 255 0 57 11
2.057397 2.871100 -0.569154 0 255 0 57 11
2.041996 2.933315 -0.553154 0 255 0 57 11
2.095356 2.903479 -0.607154 0 255 0 57 11
2.070183 2.935410 -0.599154 0 255 0 57 11
2.063326 2.947091 -0.602348 0 255 0 57 11
2.029719 2.917431 -0.573154 0 255 0 57 11
2.086897 2.884830 -0.546992 0 255 0 57 11
2.063085 2.878621 -0.621154 0 255 0 57 11
2.096037 2.905379 -0.553154 0 255 0 57 11
2.036247 2.877409 -0.585154 0 255 0 57 11
2.032578 2.882062 -0.561154 0 255 0 57 11
2.049541 2.872615 -0.577154 0 255 0 57 11
2.039135 2.881377 -0.599154 0 255 0 57 11
2.095912 2.911539 -0.599154 0 255 0 57 11
2.022095 2.892470 -0.591154 0 255 0 57 11
2.046197 2.943460 -0.607154 0 255 0 57 11
2.093201 2.893713 -0.573154 0 255 0 57 11
2.028454 2.913610 -0.589154 0 255 0 57 11
2.087732 2.903055 -0.615154 0 255 0 57 11
2.095325 2.901441 -0.591154 0 255 0 57 11
2.063438 2.937999 -0.557154 0 255 0 57 11
2.089057 2.908906 -0.601154 0 255 0 57 11
2.095472 2.911633 -0.565154 0 255 0 57 11
2.021029 2.896786 -0.599154 0 255 0 57 11
2.086461 2.897191 -0.605154 0 255 0 57 11
2.086498 2.897183 -0.593154 0 255 0 57 11
2.041103 2.881018 -0.605154 0 255 0 57 11
2.029878 2.917397 -0.597154 0 255 0 57 11
2.059198 2.946908 -0.583154 0 255 0 57 11
2.060254 2.966147 -0.599154 0 255 0 57 11
2.088213 2.904997 -0.583154 0 255 0 57 11
2.052891 2.878757 -0.615154 0 255 0 57 11
2.020832 2.915230 -0.577154 0 255 0 57 11
2.022059 2.921103 -0.571154 0 255 0 57 11
2.054837 2.878292 -0.583154 0 255 0 57 11
2.020811 2.915235 -0.557154 0 255 0 57 11
2.060635 2.941529 -0.615154 0 255 0 57 11
2.034136 2.886720 -0.621154 0 255 0 57 11
2.045442 2.872574 -0.555154 0 255 0 57 11
2.033196 2.924870 -0.587154 0 255 0 57 11
2.072049 2.940031 -0.561154 0 255 0 57 11
2.078933 2.876226 -0.615154 0 255 0 57 11
2.034345 2.935798 -0.603154 0 255 0 57 11
2.072128 2.873067 -0.563154 0 255 0 57 11
2.032557 3.258289 -0.607154 0 255 255 60 12
1.994048 3.366663 -0.609154 0 255 255 60 12
1.971411 3.297867 -0.607154 0 255 255 60 12
2.050748 3.325985 -0.605154 0 255 255 60 12
1.975662 3.236886 -0.615154 0 255 255 60 12
2.015391 3.298742 -0.603055 0 255 255 60 12
2.013060 3.220438 -0.605154 0 255 255 60 12
2.039497 3.364054 -0.607154 0 255 255 60 12
1.996168 3.266024 -0.603942 0 255 255 60 12
1.972305 3.336525 -0.606460 0 255 255 60 12
2.015051 3.335618 -0.607919 0 255 255 60 12
2.048807 3.289595 -0.615154 0 255 255 60 12
2.043443 3.228708 -0.607154 0 255 255 60 12
1.993523 3.315658 -0.609154 0 255 255 60 12
1.970986 3.272602 -0.607154 0 255 255 60 12
1.999004 3.240885 -0.602403 0 255 255 60 12
2.016184 3.359914 -0.603154 0 255 255 60 12
1.993878 3.289002 -0.609154 0 255 255 60 12
2.029331 3.316226 -0.610116 0 255 255 60 12
2.043393 3.343907 -0.618162 0 255 255 60 12
1.994363 3.344105 -0.603302 0 255 255 60 12
2.029997 3.280880 -0.605154 0 255 255 60 12
2.019398 3.240639 -0.610135 0 255 255 60 12
2.050817 3.248274 -0.613154 0 255 255 60 12
2.050277 3.270478 -0.605154 0 255 255 60 12
1.976463 3.356089 -0.610118 0 255 255 60 12
1.980669 3.252961 -0.603154 0 255 255 60 12
2.047646 3.306199 -0.603890 0 255 255 60 12
1.974361 3.317338 -0.605154 0 255 255 60 12
1.990325 3.224327 -0.607154 0 255 255 60 12
2.010914 3.279247 -0.603154 0 255 255 60 12
2.031656 3.346402 -0.603211 0 255 255 60 12
2.011308 3.318012 -0.603568 0 255 255 60 12
2.031457 3.297372 -0.610100 0 255 255 60 12
2.045397 3.314856 -0.617999 0 255 255 60 12
2.027718 3.226603 -0.613154 0 255 255 60 12
1.987124 3.329287 -0.602542 0 255 255 60 12
2.034614 3.331460 -0.610153 0 255 255 60 12
2.036191 3.242686 -0.605154 0 255 255 60 12
2.048138 3.346988 -0.603441 0 255 255 60 12
1.985631 3.303023 -0.603305 0 255 255 60 12
2.043242 3.266241 -0.618138 0 255 255 60 12
1.979932 3.285832 -0.603168 0 255 255 60 12
1.984062 3.237927 -0.602455 0 255 255 60 12
2.007764 3.349436 -0.610074 0 255 255 60 12
2.000638 3.330503 -0.609154 0 255 255 60 12
2.001697 3.301652 -0.610151 0 255 255 60 12
1.993258 3.252330 -0.610133 0 255 255 60 12
1.988050 3.275928 -0.610093 0 255 255 60 12
2.007538 3.232937 -0.610123 0 255 255 60 12
2.046351 3.328965 -0.617976 0 255 255 60 12
2.047448 3.257169 -0.603230 0 255 255 60 12
2.013858 3.253052 -0.609154 0 255 255 60 12
2.019181 3.287713 -0.610032 0 255 255 60 12
2.042317 3.237812 -0.617154 0 255 255 60 12
2.043072 3.284679 -0.603890 0 255 255 60 12
2.027866 3.357431 -0.610050 0 255 255 60 12
2.023169 3.325714 -0.603709 0 255 255 60 12
2.044634 3.301645 -0.617154 0 255 255 60 12
1.982209 3.344644 -0.607992 0 255 255 60 12
1.982041 3.266896 -0.603154 0 255 255 60 12
2.039981 3.318051 -0.603154 0 255 255 60 12
1.987254 3.355840 -0.603154 0 255 255 60 12
2.005487 3.290624 -0.603241 0 255 255 60 12
2.020931 3.230090 -0.603154 0 255 255 60 12
2.000620 3.277346 -0.610116 0 255 255 60 12
2.003658 3.360532 -0.603154 0 255 255 60 12
2.037789 3.269445 -0.604899 0 255 255 60 12
2.042807 3.278602 -0.615154 0 255 255 60 12
2.008545 3.265438 -0.603154 0 255 255 60 12
2.019426 3.308108 -0.610092 0 255 255 60 12
1.972369 3.259870 -0.609154 0 255 255 60 12
2.021458 3.346525 -0.610109 0 255 255 60 12
2.049990 3.240271 -0.603993 0 255 255 60 12
2.035493 3.306736 -0.603407 0 255 255 60 12
2.043686 3.335666 -0.603135 0 255 255 60 12
2.001723 3.224820 -0.603154 0 255 255 60 12
2.041736 3.355350 -0.615154 0 255 255 60 12
1.973156 3.244334 -0.606306 0 255 255 60 12
1.996442 3.353887 -0.610050 0 255 255 60 12
2.005413 3.339712 -0.603154 0 255 255 60 12
2.050811 3.295303 -0.605154 0 255 255 60 12
1.971275 3.283583 -0.610124 0 255 255 60 12
2.016488 3.226944 -0.614045 0 255 255 60 12
2.042149 3.256250 -0.613154 0 255 255 60 12
2.050912 3.338220 -0.611154 0 255 255 60 12
2.002330 3.256535 -0.605449 0 255 255 60 12
1.977469 3.327249 -0.609154 0 255 255 60 12
1.983381 3.311680 -0.610109 0 255 255 60 12
1.993216 3.232892 -0.613154 0 255 255 60 12
2.025664 3.337451 -0.604040 0 255 255 60 12
2.005317 3.309062 -0.603005 0 255 255 60 12
1.990744 3.336696 -0.610146 0 255 255 60 12
1.982011 3.295614 -0.610146 0 255 255 60 12
2.027167 3.269658 -0.605154 0 255 255 60 12
1.972353 3.307889 -0.610151 0 255 255 60 12
1.982399 3.230102 -0.610898 0 255 255 60 12
2.011015 3.326252 -0.610098 0 255 255 60 12
1.971799 3.346857 -0.605154 0 255 255 60 12
2.020291 3.277254 -0.607154 0 255 255 60 12
1.994836 3.298233 -0.603154 0 255 255 60 12
2.001201 3.320159 -0.603154 0 255 255 60 12
2.050349 3.315848 -0.607154 0 255 255 60 12
2.040848 3.354671 -0.603154 0 255 255 60 12
2.050653 3.262622 -0.612053 0 255 255 60 12
2.039282 3.295708 -0.603720 0 255 255 60 12
1.990204 3.242754 -0.609154 0 255 255 60 12
2.033801 3.231444 -0.606378 0 255 255 60 12
2.021090 3.315933 -0.604040 0 255 255 60 12
1.988636 3.259446 -0.604175 0 255 255 60 12
2.036693 3.341242 -0.610153 0 255 255 60 12
2.035663 3.288299 -0.610083 0 255 255 60 12
1.985045 3.319505 -0.602518 0 255 255 60 12
2.026947 3.290152 -0.603154 0 255 255 60 12
1.993210 3.280965 -0.603268 0 255 255 60 12
2.050624 3.281030 -0.609154 0 255 255 60 12
1.992331 3.305688 -0.610062 0 255 255 60 12
1.993191 3.232777 -0.603154 0 255 255 60 12
2.042943 3.322550 -0.611154 0 255 255 60 12
2.026420 3.302532 -0.603795 0 255 255 60 12
2.013060 3.345492 -0.603154 0 255 255 60 12
2.022397 3.221600 -0.607154 0 255 255 60 12
2.009843 3.359217 -0.610111 0 255 255 60 12
1.990205 3.324542 -0.610050 0 255 255 60 12
1.987464 3.292410 -0.603129 0 255 255 60 12
2.040653 3.311775 -0.610083 0 255 255 60 12
2.021260 3.297495 -0.610032 0 255 255 60 12
2.033366 3.325592 -0.603188 0 255 255 60 12
2.004608 3.315347 -0.610151 0 255 255 60 12
1.981652 3.336584 -0.603154 0 255 255 60 12
2.050185 3.307703 -0.613154 0 255 255 60 12
1.978042 3.276941 -0.603154 0 255 255 60 12
2.016317 3.245383 -0.603049 0 255 255 60 12
1.983787 3.361685 -0.609154 0 255 255 60 12
2.042039 3.246050 -0.613154 0 255 255 60 12
2.000006 3.226359 -0.611907 0 255 255 60 12
2.010647 3.295660 -0.610109 0 255 255 60 12
2.000232 3.342858 -0.610062 0 255 255 60 12
2.040197 3.250531 -0.603154 0 255 255 60 12
2.033631 3.249882 -0.610066 0 255 255 60 12
2.024662 3.351978 -0.603666 0 255 255 60 12
2.001895 3.350683 -0.603433 0 255 255 60 12
2.010524 3.285464 -0.610146 0 255 255 60 12
2.002869 3.268689 -0.610068 0 255 255 60 12
2.034859 3.351855 -0.610109 0 255 255 60 12
2.010770 3.305858 -0.610068 0 255 255 60 12
2.003332 3.242009 -0.610111 0 255 255 60 12
2.021467 3.365806 -0.607154 0 255 255 60 12
2.048974 3.234353 -0.611154 0 255 255 60 12
2.050144 3.346809 -0.613154 0 255 255 60 12
1.976740 3.233349 -0.605154 0 255 255 60 12
1.987927 3.265731 -0.610118 0 255 255 60 12
1.979544 3.351344 -0.603250 0 255 255 60 12
2.042734 3.335868 -0.613154 0 255 255 60 12
1.977275 3.308889 -0.603154 0 255 255 60 12
2.007934 3.330997 -0.603616 0 255 255 60 12
1.989514 3.249036 -0.603154 0 255 255 60 12
2.035124 3.276145 -0.610123 0 255 255 60 12
2.024416 3.331583 -0.610092 0 255 255 60 12
2.008526 3.224548 -0.611154 0 255 255 60 12
1.981313 3.258958 -0.609154 0 255 255 60 12
2.038574 3.301993 -0.610083 0 255 255 60 12
2.016837 3.353641 -0.610098 0 255 255 60 12
1.986788 3.284375 -0.609154 0 255 255 60 12
1.996612 3.335448 -0.603625 0 255 255 60 12
2.049244 3.273144 -0.615154 0 255 255 60 12
2.004004 3.274031 -0.603154 0 255 255 60 12
1.989326 3.349265 -0.607972 0 255 255 60 12
2.040918 3.236064 -0.603038 0 255 255 60 12
1.982229 3.248539 -0.610124 0 255 255 60 12
2.010977 3.229877 -0.603154 0 255 255 60 12
1.980934 3.271307 -0.610148 0 255 255 60 12
2.023819 3.241744 -0.603154 0 255 255 60 12
1.995367 3.358445 -0.603154 0 255 255 60 12
2.018009 3.320677 -0.610146 0 255 255 60 12
1.989250 3.310432 -0.603922 0 255 255 60 12
2.043195 3.294877 -0.612159 0 255 255 60 12
2.043365 3.276439 -0.603475 0 255 255 60 12
2.040039 3.260787 -0.603475 0 255 255 60 12
2.021267 3.249429 -0.609154 0 255 255 60 12
2.049697 3.248512 -0.603839 0 255 255 60 12
2.042269 3.348235 -0.610089 0 255 255 60 12
1.974895 3.290992 -0.610122 0 255 255 60 12
2.029624 3.307985 -0.610153 0 255 255 60 12
1.979762 3.304271 -0.610097 0 255 255 60 12
2.029038 3.324467 -0.610101 0 255 255 60 12
2.013535 3.288913 -0.603154 0 255 255 60 12
2.002850 3.364793 -0.610126 0 255 255 60 12
1.978514 3.298402 -0.603153 0 255 255 60 12
2.001990 3.293412 -0.610056 0 255 255 60 12
2.039595 3.344714 -0.603154 0 255 255 60 12
2.033905 3.337745 -0.603396 0 255 255 60 12
2.043242 3.266241 -0.610048 0 255 255 60 12
2.003823 3.282799 -0.604725 0 255 255 60 12
2.015340 3.327378 -0.603154 0 255 255 60 12
1.997491 3.310725 -0.603512 0 255 255 60 12
2.007566 3.300405 -0.603568 0 255 255 60 12
2.041518 3.325904 -0.603154 0 255 255 60 12
1.994949 3.327623 -0.603771 0 255 255 60 12
1.991547 3.273139 -0.603328 0 255 255 60 12
1.990668 3.297863 -0.610062 0 255 255 60 12
2.009761 3.355145 -0.603154 0 255 255 60 12
1.980565 3.240715 -0.610118 0 255 255 60 12
1.994921 3.260155 -0.610071 0 255 255 60 12
1.998030 3.322879 -0.610103 0 255 255 60 12
2.028868 3.342905 -0.610127 0 255 255 60 12
2.035342 3.229072 -0.613840 0 255 255 60 12
1.998841 3.249740 -0.603154 0 255 255 60 12
1.972674 3.251683 -0.609154 0 255 255 60 12
2.012433 3.313684 -0.610068 0 255 255 60 12
2.006810 3.335326 -0.610114 0 255 255 60 12
1.983627 3.332075 -0.610136 0 255 255 60 12
1.981132 3.320337 -0.610120 0 255 255 60 12
2.032194 3.358556 -0.603625 0 255 255 60 12
2.015098 3.306983 -0.603666 0 255 255 60 12
2.027006 3.286050 -0.610058 0 255 255 60 12
2.003625 3.233768 -0.603513 0 255 255 60 12
2.032703 3.315509 -0.603154 0 255 255 60 12
2.033045 3.266364 -0.610123 0 255 255 60 12
1.986106 3.229314 -0.603154 0 255 255 60 12
1.995044 3.270352 -0.610151 0 255 255 60 12
2.050680 3.330090 -0.611582 0 255 255 60 12
1.981476 3.244997 -0.603154 0 255 255 60 12
1.996437 3.238430 -0.609154 0 255 255 60 12
2.012386 3.342319 -0.610056 0 255 255 60 12
2.050123 3.297493 -0.613154 0 255 255 60 12
2.019691 3.232398 -0.610081 0 255 255 60 12
1.976833 3.261632 -0.603154 0 255 255 60 12
2.038961 3.236481 -0.610090 0 255 255 60 12
2.042113 3.284883 -0.611154 0 255 255 60 12
2.050632 3.287162 -0.605154 0 255 255 60 12
1.970995 3.324536 -0.607154 0 255 255 60 12
2.050960 3.334120 -0.605154 0 255 255 60 12
1.989203 3.339068 -0.602542 0 255 255 60 12
1.985096 3.278601 -0.603154 0 255 255 60 12
2.023755 3.309232 -0.603211 0 255 255 60 12
1.978690 3.322901 -0.603154 0 255 255 60 12
2.050549 3.254465 -0.609154 0 255 255 60 12
2.020428 3.293581 -0.603211 0 255 255 60 12
2.045675 3.354640 -0.609154 0 255 255 60 12
2.021751 3.338284 -0.610146 0 255 255 60 12
2.020504 3.332415 -0.603703 0 255 255 60 12
2.034160 3.290663 -0.603154 0 255 255 60 12
2.028329 3.330752 -0.603211 0 255 255 60 12
1.978590 3.337235 -0.610151 0 255 255 60 12
1.998295 3.247170 -0.610147 0 255 255 60 12
2.003143 3.356552 -0.610095 0 255 255 60 12
2.036031 3.318891 -0.610100 0 255 255 60 12
2.017716 3.328918 -0.610109 0 255 255 60 12
2.050130 3.322028 -0.611154 0 255 255 60 12
1.980108 3.281706 -0.609154 0 255 255 60 12
2.044981 3.312899 -0.603305 0 255 255 60 12
2.020627 3.342612 -0.604153 0 255 255 60 12
1.999032 3.308353 -0.610074 0 255 255 60 12
2.018444 3.236753 -0.603154 0 255 255 60 12
1.987559 3.235139 -0.607959 0 255 255 60 12
1.983307 3.354634 -0.609154 0 255 255 60 12
1.990409 3.359259 -0.609154 0 255 255 60 12
2.044244 3.251715 -0.618111 0 255 255 60 12
2.018349 3.283801 -0.603211 0 255 255 60 12
2.045907 3.259541 -0.618021 0 255 255 60 12
2.034566 3.360096 -0.610059 0 255 255 60 12
2.000327 3.285587 -0.610056 0 255 255 60 12
2.016544 3.361882 -0.610056 0 255 255 60 12
2.027877 3.275641 -0.609154 0 255 255 60 12
2.046644 3.320724 -0.603305 0 255 255 60 12
1.993286 3.319798 -0.603625 0 255 255 60 12
2.038082 3.261204 -0.610107 0 255 255 60 12
1.973553 3.342395 -0.610116 0 255 255 60 12
1.977531 3.264917 -0.609154 0 255 255 60 12
1.972107 3.287496 -0.604537 0 255 255 60 12
2.048034 3.240687 -0.613609 0 255 255 60 12
2.042439 3.329797 -0.610040 0 255 255 60 12
1.976018 3.270307 -0.603154 0 255 255 60 12
1.983646 3.235970 -0.614130 0 255 255 60 12
1.971058 3.330657 -0.610116 0 255 255 60 12
1.986450 3.253777 -0.609154 0 255 255 60 12
2.043489 3.286636 -0.618167 0 255 255 60 12
1.996085 3.257863 -0.603154 0 255 255 60 12
2.042042 3.231737 -0.613815 0 255 255 60 12
2.028206 3.320554 -0.603521 0 255 255 60 12
2.051032 3.262541 -0.605154 0 255 255 60 12
2.024369 3.360219 -0.604860 0 255 255 60 12
2.000191 3.232454 -0.609154 0 255 255 60 12
1.991914 3.240346 -0.603154 0 255 255 60 12
2.000157 3.304025 -0.604096 0 255 255 60 12
2.042581 3.243890 -0.603645 0 255 255 60 12
2.007122 3.279077 -0.609154 0 255 255 60 12
2.008854 3.364183 -0.605154 0 255 255 60 12
2.036372 3.282014 -0.603720 0 255 255 60 12
2.044440 3.304836 -0.611154 0 255 255 60 12
2.036726 3.331778 -0.603154 0 255 255 60 12
2.036637 3.225548 -0.607154 0 255 255 60 12
1.973477 3.303562 -0.604663 0 255 255 60 12
1.971303 3.351051 -0.610142 0 255 255 60 12
1.976237 3.239590 -0.603036 0 255 255 60 12
1.977881 3.343519 -0.603236 0 255 255 60 12
1.998655 3.364295 -0.605154 0 255 255 60 12
1.975386 3.331782 -0.603223 0 255 255 60 12
1.982720 3.289329 -0.608015 0 255 255 60 12
2.009110 3.324613 -0.603154 0 255 255 60 12
1.981447 3.314136 -0.603154 0 255 255 60 12
2.042949 3.274482 -0.610145 0 255 255 60 12
2.050870 3.301424 -0.607154 0 255 255 60 12
1.994335 3.276637 -0.607959 0 255 255 60 12
2.016421 3.351685 -0.603983 0 255 255 60 12
2.043842 3.268157 -0.603154 0 255 255 60 12
2.001622 3.262820 -0.607772 0 255 255 60 12
2.011749 3.338365 -0.603154 0 255 255 60 12
2.013998 3.234470 -0.607154 0 255 255 60 12
2.047345 3.338978 -0.617154 0 255 255 60 12
2.017920 3.224066 -0.603154 0 255 255 60 12
1.988078 3.343396 -0.610129 0 255 255 60 12
2.001491 3.295563 -0.603154 0 255 255 60 12
2.049650 3.277147 -0.604006 0 255 255 60 12
2.048846 3.340703 -0.603932 0 255 255 60 12
1.975311 3.292949 -0.604054 0 255 255 60 12
2.042486 3.301162 -0.603305 0 255 255 60 12
1.984997 3.348141 -0.602889 0 255 255 60 12
1.988343 3.267687 -0.603678 0 255 255 60 12
2.007150 3.221492 -0.603154 0 255 255 60 12
2.037080 3.275730 -0.603305 0 255 255 60 12
2.031873 3.299328 -0.603965 0 255 255 60 12
2.044735 3.292505 -0.603890 0 255 255 60 12
2.043148 3.323512 -0.618143 0 255 255 60 12
1.971644 3.314175 -0.610087 0 255 255 60 12
2.028159 3.349190 -0.610092 0 255 255 60 12
2.026297 3.292335 -0.610153 0 255 255 60 12
1.993409 3.329995 -0.610119 0 255 255 60 12
2.044036 3.341726 -0.611154 0 255 255 60 12
2.004315 3.323588 -0.610114 0 255 255 60 12
1.985215 3.301067 -0.610050 0 255 255 60 12
1.994779 3.346062 -0.610050 0 255 255 60 12
2.029576 3.336620 -0.610057 0 255 255 60 12
2.022630 3.313561 -0.610131 0 255 255 60 12
2.005317 3.309062 -0.610056 0 255 255 60 12
2.016223 3.302655 -0.610050 0 255 255 60 12
2.024464 3.302948 -0.610076 0 255 255 60 12
1.986585 3.317132 -0.610146 0 255 255 60 12
2.035322 3.325176 -0.610058 0 255 255 60 12
1.977928 3.314884 -0.610124 0 255 255 60 12
1.993654 3.350390 -0.603504 0 255 255 60 12
1.995422 3.225289 -0.603154 0 255 255 60 12
1.978216 3.349582 -0.609154 0 255 255 60 12
2.030674 3.264823 -0.603161 0 255 255 60 12
2.049369 3.314306 -0.613154 0 255 255 60 12
1.990299 3.286505 -0.603154 0 255 255 60 12
2.002536 3.267121 -0.603154 0 255 255 60 12
2.045151 3.294461 -0.618059 0 255 255 60 12
1.991915 3.303731 -0.603207 0 255 255 60 12
1.994640 3.282706 -0.609154 0 255 255 60 12
2.012779 3.228739 -0.609154 0 255 255 60 12
2.030040 3.309941 -0.603380 0 255 255 60 12
2.040213 3.357802 -0.609154 0 255 255 60 12
2.045502 3.349593 -0.617154 0 255 255 60 12
1.976127 3.248692 -0.603154 0 255 255 60 12
2.031464 3.244208 -0.609154 0 255 255 60 12
2.050229 3.234086 -0.605154 0 255 255 60 12
2.045064 3.308792 -0.617154 0 255 255 60 12
2.000592 3.348915 -0.609154 0 255 255 60 12
2.050657 3.268754 -0.611154 0 255 255 60 12
2.024634 3.284509 -0.603380 0 255 255 60 12
1.988950 3.228709 -0.611154 0 255 255 60 12
1.975161 3.237774 -0.609154 0 255 255 60 12
2.044537 3.243474 -0.618068 0 255 255 60 12
1.980839 3.328578 -0.602889 0 255 255 60 12
2.001234 3.328331 -0.603512 0 255 255 60 12
1.998663 3.277761 -0.603853 0 255 255 60 12
2.007348 3.347479 -0.602712 0 255 255 60 12
1.983306 3.272847 -0.603821 0 255 255 60 12
1.974356 3.278839 -0.607972 0 255 255 60 12
1.987464 3.292410 -0.610146 0 255 255 60 12
2.043607 3.272298 -0.617154 0 255 255 60 12
2.010691 3.320188 -0.609154 0 255 255 60 12
2.010208 3.273263 -0.603154 0 255 255 60 12
1.976558 3.298817 -0.610136 0 255 255 60 12
2.032875 3.236704 -0.609154 0 255 255 60 12
1.982607 3.259938 -0.603154 0 255 255 60 12
1.772177 3.395422 -0.561991 255 0 255 77 13
1.809148 3.338491 -0.596750 255 0 255 77 13
1.827145 3.371470 -0.535154 255 0 255 77 13
1.816075 3.398359 -0.603154 255 0 255 77 13
1.743157 3.345469 -0.563154 255 0 255 77 13
1.789292 3.350890 -0.556004 255 0 255 77 13
1.793139 3.426702 -0.581154 255 0 255 77 13
1.825999 3.369668 -0.576361 255 0 255 77 13
1.809886 3.399675 -0.560878 255 0 255 77 13
1.736038 3.403103 -0.563154 255 0 255 77 13
1.768955 3.371570 -0.533154 255 0 255 77 13
1.816092 3.367685 -0.607154 255 0 255 77 13
1.749581 3.375689 -0.556946 255 0 255 77 13
1.797528 3.375720 -0.541154 255 0 255 77 13
1.765633 3.422348 -0.563154 255 0 255 77 13
1.812768 3.345900 -0.569808 255 0 255 77 13
1.768200 3.338235 -0.563154 255 0 255 77 13
1.791417 3.346349 -0.613154 255 0 255 77 13
1.775012 3.370283 -0.563918 255 0 255 77 13
1.788735 3.414394 -0.559154 255 0 255 77 13
1.814564 3.412066 -0.583154 255 0 255 77 13
1.804229 3.368162 -0.565154 255 0 255 77 13
1.824384 3.392503 -0.577154 255 0 255 77 13
1.728919 3.369857 -0.563154 255 0 255 77 13
1.759859 3.356710 -0.555154 255 0 255 77 13
1.822672 3.354018 -0.590452 255 0 255 77 13
1.793733 3.337677 -0.573154 255 0 255 77 13
1.803430 3.417404 -0.600094 255 0 255 77 13
1.791324 3.389307 -0.555716 255 0 255 77 13
1.826122 3.379866 -0.594189 255 0 255 77 13
1.753668 3.395267 -0.555154 255 0 255 77 13
1.814677 3.374120 -0.549766 255 0 255 77 13
1.780226 3.375571 -0.547154 255 0 255 77 13
1.810349 3.372995 -0.528625 255 0 255 77 13
1.803608 3.415322 -0.569154 255 0 255 77 13
1.751196 3.412149 -0.560305 255 0 255 77 13
1.810680 3.384174 -0.569154 255 0 255 77 13
1.809618 3.383374 -0.611154 255 0 255 77 13
1.806190 3.353432 -0.606162 255 0 255 77 13
1.780180 3.423448 -0.571154 255 0 255 77 13
1.742060 3.360930 -0.557154 255 0 255 77 13
1.812794 3.360207 -0.577154 255 0 255 77 13
1.774644 3.354004 -0.561154 255 0 255 77 13
1.789954 3.373241 -0.559959 255 0 255 77 13
1.784010 3.335656 -0.561049 255 0 255 77 13
1.765848 3.370186 -0.549154 255 0 255 77 13
1.804234 3.353848 -0.558503 255 0 255 77 13
1.805522 3.345396 -0.583154 255 0 255 77 13
1.773132 3.409532 -0.556643 255 0 255 77 13
1.769506 3.382857 -0.569154 255 0 255 77 13
1.795775 3.400629 -0.564141 255 0 255 77 13
1.803418 3.380603 -0.557154 255 0 255 77 13
1.760487 3.369281 -0.563945 255 0 255 77 13
1.812062 3.400298 -0.575154 255 0 255 77 13
1.818883 3.365047 -0.564667 255 0 255 77 13
1.822039 3.399136 -0.589622 255 0 255 77 13
1.818440 3.367186 -0.593154 255 0 255 77 13
1.763605 3.383953 -0.537154 255 0 255 77 13
1.784085 3.374489 -0.533807 255 0 255 77 13
1.784086 3.401069 -0.555154 255 0 255 77 13
1.761687 3.403786 -0.562141 255 0 255 77 13
1.803997 3.420070 -0.585154 255 0 255 77 13
1.797594 3.341849 -0.561154 255 0 255 77 13
1.818891 3.379358 -0.583154 255 0 255 77 13
1.822383 3.378616 -0.567154 255 0 255 77 13
1.756880 3.343467 -0.559154 255 0 255 77 13
1.810681 3.407684 -0.595154 255 0 255 77 13
1.799238 3.339965 -0.605154 255 0 255 77 13
1.738036 3.379091 -0.561154 255 0 255 77 13
1.816235 3.386057 -0.599154 255 0 255 77 13
1.813298 3.372369 -0.573154 255 0 255 77 13
1.783546 3.362335 -0.558353 255 0 255 77 13
1.817815 3.346872 -0.581154 255 0 255 77 13
1.810814 3.350405 -0.593154 255 0 255 77 13
1.792012 3.421400 -0.569154 255 0 255 77 13
1.795469 3.423186 -0.593154 255 0 255 77 13
1.796116 3.363753 -0.555899 255 0 255 77 13
1.800820 3.347404 -0.571154 255 0 255 77 13
1.818483 3.356954 -0.601154 255 0 255 77 13
1.809409 3.378193 -0.539154 255 0 255 77 13
1.773179 3.380896 -0.558177 255 0 255 77 13
1.806749 3.336956 -0.575154 255 0 255 77 13
1.818650 3.393722 -0.567154 255 0 255 77 13
1.775299 3.381249 -0.537154 255 0 255 77 13
1.823820 3.357864 -0.579154 255 0 255 77 13
1.801937 3.391140 -0.564137 255 0 255 77 13
1.788045 3.345021 -0.566115 255 0 255 77 13
1.777181 3.418964 -0.561154 255 0 255 77 13
1.743541 3.395374 -0.559898 255 0 255 77 13
1.751080 3.353887 -0.561154 255 0 255 77 13
1.827068 3.371486 -0.587154 255 0 255 77 13
1.796239 3.373950 -0.530409 255 0 255 77 13
1.777432 3.343188 -0.556582 255 0 255 77 13
1.782705 3.429987 -0.581154 255 0 255 77 13
1.803986 3.371922 -0.549154 255 0 255 77 13
1.825854 3.388228 -0.587154 255 0 255 77 13
1.811714 3.389040 -0.559154 255 0 255 77 13
1.794452 3.355927 -0.564137 255 0 255 77 13
1.820850 3.376897 -0.603154 255 0 255 77 13
1.806085 3.357543 -0.569154 255 0 255 77 13
1.818760 3.354850 -0.569538 255 0 255 77 13
1.777807 3.367644 -0.539154 255 0 255 77 13
1.768182 3.363555 -0.559154 255 0 255 77 13
1.814677 3.374120 -0.560442 255 0 255 77 13
1.751414 3.365075 -0.559945 255 0 255 77 13
1.781490 3.391138 -0.559154 255 0 255 77 13
1.734100 3.360577 -0.564084 255 0 255 77 13
1.790572 3.376150 -0.549154 255 0 255 77 13
1.764569 3.350011 -0.562122 255 0 255 77 13
1.776117 3.368003 -0.553154 255 0 255 77 13
1.813355 3.339641 -0.587154 255 0 255 77 13
1.799811 3.409995 -0.561075 255 0 255 77 13
1.808476 3.363170 -0.557154 255 0 255 77 13
1.803933 3.405029 -0.569154 255 0 255 77 13
1.808061 3.362232 -0.611154 255 0 255 77 13
1.826538 3.381822 -0.576811 255 0 255 77 13
1.814729 3.359796 -0.587154 255 0 255 77 13
1.823737 3.374238 -0.545154 255 0 255 77 13
1.813275 3.400999 -0.585154 255 0 255 77 13
1.812091 3.410051 -0.573154 255 0 255 77 13
1.763936 3.395129 -0.556467 255 0 255 77 13
1.756772 3.419143 -0.566095 255 0 255 77 13
1.798856 3.395885 -0.556233 255 0 255 77 13
1.780957 3.407868 -0.562146 255 0 255 77 13
1.760341 3.373401 -0.537154 255 0 255 77 13
1.815092 3.390389 -0.577154 255 0 255 77 13
1.807636 3.408332 -0.604135 255 0 255 77 13
1.738136 3.369943 -0.558587 255 0 255 77 13
1.798951 3.338614 -0.582150 255 0 255 77 13
1.824288 3.390479 -0.596207 255 0 255 77 13
1.803563 3.345812 -0.599154 255 0 255 77 13
1.820525 3.401503 -0.579154 255 0 255 77 13
1.818867 3.369140 -0.583154 255 0 255 77 13
1.763766 3.413567 -0.560419 255 0 255 77 13
1.816047 3.390186 -0.607747 255 0 255 77 13
1.799062 3.422422 -0.575154 255 0 255 77 13
1.804555 3.413076 -0.578138 255 0 255 77 13
1.816355 3.372393 -0.537154 255 0 255 77 13
1.807731 3.351059 -0.576130 255 0 255 77 13
1.799490 3.350767 -0.612115 255 0 255 77 13
1.771589 3.426217 -0.569154 255 0 255 77 13
1.809631 3.393595 -0.569154 255 0 255 77 13
1.813184 3.347857 -0.601612 255 0 255 77 13
