ply
format ascii 1.0
element vertex 1161
property float x
property float y
property float z
property uchar red
property uchar green
property uchar blue
property uchar semantic_label
property uchar instance_label
end_header
1.120401 1.469532 -0.896402 32 28 23 5 5
1.097471 1.463960 -0.885516 30 31 28 5 5
1.103325 1.486684 -0.901020 25 27 27 5 5
1.118347 1.481002 -0.906515 26 27 27 5 5
1.083790 1.460541 -0.893653 27 29 26 5 5
1.095024 1.476549 -0.902877 28 27 23 5 5
1.082211 1.466558 -0.903129 27 29 28 5 5
1.119303 1.475193 -0.904963 25 26 26 5 5
0.979503 2.123859 -1.043189 19 18 15 7 3
0.966905 2.118118 -1.049309 19 19 14 7 3
0.966770 2.115068 -1.033277 17 17 14 7 3
0.855669 1.909512 -1.302247 45 45 54 2 1
0.556266 2.043494 -0.912346 26 23 17 5 4
0.553585 2.051939 -0.916378 23 24 17 5 4
0.563584 2.046763 -0.904983 34 29 24 5 4
0.579815 2.066579 -0.904783 45 42 40 5 4
0.564450 2.022811 -0.905237 33 29 23 5 4
0.589320 2.063932 -0.902713 39 36 30 5 4
0.559021 2.040159 -0.922847 30 26 23 5 4
0.555583 2.032130 -0.909713 26 25 19 5 4
0.755074 1.785736 -0.956390 121 113 98 5 5
0.755599 1.809358 -0.947658 31 29 26 5 5
0.758738 1.777677 -0.936491 37 34 37 5 5
0.744783 1.783191 -0.927174 29 32 41 5 5
0.733124 1.805593 -0.945931 29 27 27 5 5
0.744919 1.808563 -0.944567 122 115 87 5 5
0.742550 1.780074 -0.940874 106 100 85 5 5
0.759166 1.783998 -0.920847 45 46 47 5 5
0.767694 1.799577 -0.959680 110 103 86 5 5
0.470960 2.003181 -0.911188 36 36 31 5 4
0.477158 1.999528 -0.909308 42 42 35 5 4
0.484760 2.016128 -0.911892 37 35 25 5 4
0.465347 1.983762 -0.913410 26 26 20 5 4
0.809566 1.491407 -0.889661 42 41 31 5 5
0.919985 2.249484 -1.146953 36 35 35 7 3
0.913794 2.266438 -1.155381 35 34 33 7 3
0.888426 2.260076 -1.143145 36 34 31 7 3
0.881094 2.052642 -1.302209 25 27 24 2 1
0.870282 2.019916 -1.301747 26 27 28 2 1
0.891860 2.019450 -1.303413 25 27 24 2 1
0.761011 1.495442 -0.904486 49 50 52 5 5
0.744821 1.514666 -0.904710 69 68 59 5 5
0.908648 2.223577 -1.172280 14 15 15 7 3
0.930776 2.213439 -1.182988 14 16 13 7 3
0.934100 2.193698 -1.176253 17 17 20 7 3
0.931194 2.189921 -1.167338 17 17 20 7 3
0.920755 2.202936 -1.166809 16 16 15 7 3
0.906902 2.217198 -1.163683 17 17 16 7 3
0.928943 2.193491 -1.158278 39 41 33 7 3
0.888093 1.764262 -0.856319 19 25 27 5 5
1.007594 1.449205 -0.779851 42 44 47 5 5
0.986282 1.449268 -0.795762 43 39 40 5 5
0.987180 1.445027 -0.762987 44 46 46 5 5
1.061515 1.590623 -0.873265 56 60 58 5 5
1.115055 1.467393 -0.804656 34 36 38 5 5
1.131276 1.470657 -0.798802 32 35 38 5 5
0.813344 1.855867 -0.913993 43 37 38 5 5
0.790102 1.858141 -0.907660 36 32 33 5 5
0.409328 1.940754 -0.897799 30 29 23 5 4
0.426914 1.945932 -0.894329 29 27 18 5 4
0.416396 1.946642 -0.890073 41 35 28 5 4
0.445560 1.951712 -0.893327 31 29 22 5 4
0.436146 1.952567 -0.888586 40 37 25 5 4
0.429868 1.971920 -0.871328 57 50 39 5 4
0.428046 1.960443 -0.879649 46 38 31 5 4
0.829923 1.854156 -0.866029 30 29 23 5 5
0.883584 1.845351 -0.863346 21 22 18 5 5
0.868265 1.858681 -0.864238 18 18 15 5 5
0.372420 2.201780 -0.853135 92 95 87 5 4
0.713689 2.331860 -1.285450 51 45 40 2 1
0.707636 1.834783 -0.879886 34 36 29 5 5
0.697370 1.786474 -0.917115 61 56 51 5 5
0.706894 1.778056 -0.923596 51 47 41 5 5
0.701696 1.786365 -0.931721 61 61 57 5 5
0.931440 2.183889 -1.116322 37 33 34 7 3
0.940408 2.178777 -1.111937 37 33 34 7 3
1.038301 1.454747 -0.850082 35 35 38 5 5
1.050743 1.456034 -0.864979 35 35 39 5 5
0.837872 2.119804 -1.292325 34 34 39 2 1
0.855237 2.137608 -1.288777 31 29 31 2 1
0.841375 1.979405 -1.298405 37 39 45 2 1
0.851418 2.000943 -1.300789 35 36 40 2 1
0.832428 1.991632 -1.297615 35 34 37 2 1
0.725810 1.819538 -0.989414 36 36 42 5 5
0.727108 1.818875 -0.973747 26 28 31 5 5
0.956990 2.165333 -0.824857 34 35 36 7 3
0.970214 2.147081 -0.822617 36 31 26 7 3
0.957880 2.163560 -0.809439 26 26 25 7 3
0.966052 2.149633 -0.845533 22 22 20 7 3
0.811625 1.416744 -0.736120 26 25 16 5 5
0.860125 2.090912 -1.137225 24 24 24 7 3
0.883415 1.817091 -0.859035 30 26 19 5 5
0.865836 1.818008 -0.858236 25 26 21 5 5
0.733590 2.329186 -1.285189 27 24 18 2 1
0.728750 2.318334 -1.285281 45 40 36 2 1
0.767091 2.336637 -1.285402 29 26 21 2 1
0.720406 1.744332 -0.868937 45 43 29 5 5
0.892437 1.551161 -0.874786 40 41 43 5 5
0.889251 1.417006 -0.765979 39 34 26 5 5
0.707257 1.838359 -0.892218 43 44 38 5 5
0.718198 1.852937 -0.889090 41 41 40 5 5
0.733321 1.864985 -0.884079 26 23 19 5 5
0.728283 1.857697 -0.901593 32 35 39 5 5
0.714022 1.841287 -0.904174 46 47 45 5 5
0.725918 1.847219 -0.911335 48 55 63 5 5
0.523969 2.235546 -0.879216 40 38 31 5 4
0.527382 2.235772 -0.884335 36 33 26 5 4
0.497956 2.006824 -0.914007 28 25 17 5 4
0.508305 2.019007 -0.918708 28 27 16 5 4
0.529045 1.995662 -0.915076 67 63 52 5 4
0.513474 2.005652 -0.916838 55 52 44 5 4
0.746477 2.309005 -1.284890 48 43 41 2 1
0.699187 2.294951 -1.285262 50 43 42 2 1
0.395315 2.094523 -0.853760 85 82 78 5 4
0.412827 2.066860 -0.852557 80 80 68 5 4
1.100068 1.582006 -0.878351 68 65 60 5 5
1.116229 1.579597 -0.886275 59 67 66 5 5
1.090234 1.568997 -0.878033 59 67 67 5 5
0.792343 1.605760 -0.867093 79 79 66 5 5
0.860631 2.078279 -1.303084 31 38 34 2 1
0.889959 2.081187 -1.297818 39 35 38 2 1
0.352250 2.012580 -0.859814 101 103 101 5 4
0.355548 1.992619 -0.862255 85 87 82 5 4
0.665219 2.200607 -1.287748 48 41 40 2 1
0.830919 1.873355 -0.895745 43 40 41 5 5
0.846045 1.877693 -0.902980 42 37 30 5 5
0.832433 1.877574 -0.883114 32 30 23 5 5
0.834526 1.871545 -0.874558 32 32 26 5 5
0.847658 1.881589 -0.890061 28 28 27 5 5
0.866117 2.263918 -1.170104 37 41 43 7 3
0.877458 2.254993 -1.152925 38 41 42 7 3
0.893905 2.237336 -1.162715 29 30 30 7 3
0.871499 2.258860 -1.163788 32 35 33 7 3
0.869522 2.258097 -1.144236 35 32 30 7 3
0.868412 2.262899 -1.142411 35 35 33 7 3
0.874575 2.270522 -1.144496 35 37 36 7 3
0.878935 2.250145 -1.141393 43 43 47 7 3
0.779976 1.766038 -0.853947 33 33 24 5 5
0.882930 1.443204 -0.768769 29 26 22 5 5
0.854530 1.442387 -0.771899 28 27 23 5 5
1.152104 1.443515 -0.788737 41 42 38 5 5
1.165308 1.433682 -0.776777 41 46 40 5 5
1.164402 1.439676 -0.783331 40 40 39 5 5
1.150054 1.435276 -0.783062 41 43 43 5 5
0.446266 2.228028 -0.853133 106 100 87 5 4
1.093596 1.688917 -0.865219 43 52 46 5 5
0.505772 2.019693 -0.858144 50 51 43 5 4
0.512246 2.053289 -0.851990 57 57 52 5 4
0.518258 2.030073 -0.856397 61 62 54 5 4
0.889878 2.239425 -1.138461 40 41 40 7 3
0.896276 2.232274 -1.154317 41 42 43 7 3
0.891952 1.678882 -0.860786 68 63 48 5 5
0.823498 1.873538 -0.901168 43 41 38 5 5
0.356076 2.157253 -0.855793 97 98 97 5 4
0.849679 2.291036 -1.175635 31 33 36 7 3
0.859188 1.537395 -0.876573 58 57 50 5 5
0.556812 2.039454 -0.937877 56 49 42 5 4
0.548186 2.054489 -0.925705 24 21 16 5 4
0.557197 2.046660 -0.952886 65 63 48 5 4
0.552834 2.056244 -0.949039 55 51 39 5 4
0.551898 2.045441 -0.933225 50 47 42 5 4
0.564793 2.034008 -0.954426 64 58 43 5 4
0.309570 2.140655 -0.859512 79 79 76 5 4
0.350821 2.138764 -0.856005 103 96 83 5 4
0.774805 2.228990 -1.289625 38 37 32 2 1
0.835441 1.511867 -0.880619 57 47 47 5 5
0.910513 1.468498 -0.890988 125 88 59 5 5
0.983721 1.412673 -0.798218 34 30 23 5 5
0.953794 1.411611 -0.783090 34 32 24 5 5
0.957849 1.409891 -0.765293 37 33 27 5 5
0.879919 1.659420 -0.861402 45 45 47 5 5
0.867241 1.641627 -0.863824 45 45 47 5 5
0.686897 1.799410 -1.146927 36 32 22 5 5
0.684859 1.815204 -1.173518 37 33 27 5 5
0.682403 1.819483 -1.138589 38 34 28 5 5
0.807939 1.441670 -0.752172 26 25 17 5 5
0.845051 1.440725 -0.745003 28 26 20 5 5
0.531518 1.994948 -0.905383 52 43 38 5 4
0.556530 2.017795 -0.908681 38 35 31 5 4
0.546448 2.000117 -0.905115 52 51 46 5 4
0.539485 1.994160 -0.889186 25 24 17 5 4
0.553033 2.001283 -0.891605 27 24 19 5 4
0.713056 1.830045 -1.173107 56 47 32 5 5
0.694900 1.842674 -1.181674 48 46 37 2 1
0.684849 1.829055 -1.155196 49 49 42 5 5
0.702506 1.807283 -1.156046 47 40 26 5 5
0.709451 1.843469 -1.160394 72 64 49 5 5
0.832076 2.308126 -1.162605 27 28 29 7 3
0.847228 2.317399 -1.163580 36 37 30 7 3
0.722447 1.785721 -0.929205 40 52 52 5 5
0.736306 1.785853 -0.933732 26 28 29 5 5
0.734924 1.793751 -0.939077 121 114 93 5 5
0.737414 1.783321 -0.921638 27 28 23 5 5
0.725006 1.780201 -0.918574 26 27 26 5 5
0.709850 1.787444 -0.938342 38 41 33 5 5
0.722565 1.800298 -0.949814 43 49 49 5 5
0.827432 1.922472 -1.296956 41 39 39 2 1
0.794774 1.932691 -1.293043 44 39 36 2 1
0.822170 1.946216 -1.294730 39 36 34 2 1
0.724305 1.823107 -0.988989 31 32 29 5 5
0.725766 1.822741 -0.965836 38 37 28 5 5
0.789064 1.733425 -0.854767 42 42 35 5 5
0.801440 1.748418 -0.854152 44 44 40 5 5
0.817358 1.728532 -0.854548 46 48 47 5 5
0.875502 2.059935 -1.137603 27 26 28 7 3
0.848225 1.514290 -0.879084 65 64 62 5 5
0.881213 1.533207 -0.876003 63 50 39 5 5
0.897069 2.162711 -1.288593 22 21 18 2 1
0.914407 2.177994 -1.288771 24 23 18 2 1
0.904547 2.151956 -1.289322 22 21 21 2 1
0.926054 1.446035 -0.874102 34 31 24 5 5
0.898711 1.445424 -0.855690 41 34 28 5 5
0.801758 2.273938 -1.290300 29 31 23 2 1
0.818195 2.280656 -1.294495 28 26 24 2 1
0.822623 1.834867 -0.861200 31 29 25 5 5
0.577924 2.091832 -0.901814 63 63 56 5 4
0.583953 2.081106 -0.907909 47 47 39 5 4
0.586823 2.084672 -0.898726 56 55 50 5 4
0.588458 2.072866 -0.889534 60 57 53 5 4
0.546947 2.148295 -0.865050 69 51 41 5 4
0.564751 2.130621 -0.878302 45 44 39 5 4
0.861365 2.034098 -1.181606 27 25 20 7 3
0.857247 2.036162 -1.187527 27 26 23 2 1
0.852998 2.026247 -1.185519 28 28 19 7 3
0.842683 2.023615 -1.189311 27 28 21 2 1
0.863172 2.032604 -1.162889 22 23 20 7 3
0.781273 2.326607 -1.285070 30 26 22 2 1
0.797526 1.444095 -0.785033 26 26 18 5 5
0.819092 1.442746 -0.767273 26 25 19 5 5
0.574267 2.033880 -1.210388 46 43 34 5 4
0.796487 1.830855 -0.859896 31 33 27 5 5
0.787329 1.847224 -0.859757 29 28 25 5 5
0.793740 1.803913 -0.856104 31 30 19 5 5
0.778208 1.833426 -0.861283 25 25 23 5 5
0.783722 1.945065 -1.289468 40 36 29 2 1
0.832347 1.667869 -0.859225 53 47 41 5 5
0.813837 1.679066 -0.857749 26 31 26 5 5
0.705807 1.931332 -1.260522 43 39 31 7 3
0.713295 1.916410 -1.255228 68 67 65 7 3
0.713509 1.912891 -1.244681 114 116 119 7 3
0.703194 1.943727 -1.262135 44 39 31 2 1
0.713876 1.935730 -1.260099 47 47 38 2 1
0.708103 1.923468 -1.259150 43 42 35 7 3
0.706824 1.934506 -1.253684 78 78 73 7 3
0.711679 1.937083 -1.252093 42 42 43 7 3
0.703463 1.943593 -1.249231 44 40 27 7 3
0.701689 1.927601 -1.246779 41 37 28 7 3
0.717888 1.919211 -1.248545 74 75 71 7 3
0.927673 1.404589 -0.733279 35 31 26 5 5
0.946196 1.396098 -0.740521 39 33 26 5 5
0.948448 1.403234 -0.743134 37 34 21 5 5
0.935966 1.396167 -0.730964 37 34 31 5 5
0.934534 1.400062 -0.727505 34 31 23 5 5
0.942852 1.405857 -0.748239 41 35 27 5 5
0.751191 1.847513 -0.864997 36 35 27 5 5
0.761137 1.863226 -0.871608 31 30 29 5 5
0.754935 1.869421 -0.878330 34 32 27 5 5
0.748788 1.870791 -0.885862 36 33 31 5 5
0.874120 2.106091 -1.144395 22 18 17 7 3
1.009511 2.149709 -0.797165 38 36 32 7 3
1.014623 2.154008 -0.770821 57 47 40 7 3
0.992485 2.136592 -0.778383 42 34 25 7 3
1.002096 2.142241 -0.777827 50 39 31 7 3
0.757470 1.983747 -1.180682 56 62 71 7 3
0.773376 1.967572 -1.179523 42 43 48 7 3
0.980675 2.139493 -0.770497 26 26 22 7 3
0.980016 2.137923 -0.753293 23 23 21 7 3
0.855896 2.089614 -1.147491 21 21 21 7 3
0.868171 2.098706 -1.155353 20 20 21 7 3
0.852260 2.086280 -1.162442 21 21 21 7 3
0.859142 2.087710 -1.165946 29 29 31 2 1
0.841581 2.071643 -1.140136 21 21 23 7 3
0.862344 2.072680 -1.138243 21 21 23 7 3
0.842663 2.077543 -1.166957 19 19 24 7 3
0.860041 2.087109 -1.134058 21 21 23 7 3
0.837257 2.075605 -1.156127 21 20 25 7 3
0.563756 2.006629 -0.944537 70 63 50 5 4
0.556968 2.026665 -0.929479 75 68 58 5 4
0.794436 1.560717 -0.874907 42 46 47 5 5
0.776113 1.548928 -0.880353 67 73 70 5 5
0.778954 1.625035 -0.916193 83 68 53 5 5
0.769563 1.675537 -0.913407 77 68 70 5 5
0.763890 1.694757 -0.910649 77 68 70 5 5
0.922348 1.753658 -0.857754 48 53 54 5 5
0.958057 2.133702 -0.952996 17 15 12 7 3
0.979702 2.124827 -0.943083 20 19 14 7 3
0.975955 2.123909 -0.952867 19 17 12 7 3
0.964851 2.128879 -0.942973 20 18 13 7 3
0.969538 2.122253 -0.964663 16 16 13 7 3
0.935184 1.453229 -0.891001 132 104 57 5 5
0.936779 1.448208 -0.886251 94 77 53 5 5
0.962739 1.445970 -0.873407 45 38 28 5 5
0.951482 1.447692 -0.879496 39 34 26 5 5
1.137852 1.444269 -0.792400 40 40 43 5 5
1.116974 1.435349 -0.794975 37 39 42 5 5
1.123875 1.440296 -0.801497 40 41 43 5 5
1.134137 1.447581 -0.812949 37 37 44 5 5
1.115077 1.441771 -0.809315 35 38 40 5 5
1.037796 1.677504 -0.862589 38 39 50 5 5
0.957816 2.176363 -0.917174 24 24 25 7 3
0.808479 1.445224 -0.815919 29 25 18 5 5
0.809067 1.444262 -0.803224 28 26 17 5 5
0.398179 2.132070 -0.853566 91 90 85 5 4
0.376890 2.162397 -0.855099 97 99 88 5 4
0.757054 2.003968 -1.296638 143 132 113 2 1
0.747249 2.010543 -1.292958 45 41 40 2 1
0.732208 1.985887 -1.281191 43 40 38 2 1
0.737102 1.982274 -1.281140 41 39 37 2 1
0.739957 1.992097 -1.281355 36 36 39 2 1
0.750597 1.996785 -1.294022 39 39 43 2 1
0.731987 1.997489 -1.284157 43 42 38 2 1
0.762589 1.992527 -1.289374 247 238 201 2 1
0.426804 2.030198 -0.852570 95 94 83 5 4
0.443544 2.052476 -0.850832 95 92 81 5 4
0.536844 2.043136 -0.944455 75 67 61 5 4
0.532783 2.052792 -0.946326 65 56 51 5 4
0.394148 1.951616 -0.918397 39 35 28 5 4
0.382428 1.959837 -0.920595 29 26 18 5 4
0.381623 1.932664 -0.897878 23 23 15 5 4
0.391568 1.937487 -0.903079 32 31 25 5 4
0.398083 1.938380 -0.894333 44 43 37 5 4
0.939479 1.625663 -0.866466 48 54 57 5 5
0.941978 1.462230 -0.891826 139 108 61 5 5
0.931499 1.482089 -0.888062 147 108 61 5 5
0.947337 2.153040 -1.006028 25 23 24 7 3
0.949130 2.164226 -1.003772 28 25 22 7 3
0.956678 2.178139 -1.007026 25 22 22 7 3
0.704716 1.823261 -0.878554 42 40 38 5 5
1.117743 1.449400 -0.861704 36 35 39 5 5
1.099998 1.441768 -0.871161 41 39 43 5 5
0.711335 1.741599 -0.875433 47 45 48 5 5
0.699353 1.720652 -0.891510 51 50 41 5 5
0.700296 1.696329 -0.893794 50 48 42 5 5
0.699961 1.725846 -0.898375 53 53 43 5 5
0.707680 1.710579 -0.912304 55 55 45 5 5
0.765830 1.950192 -1.291855 35 30 24 2 1
0.754734 1.948187 -1.282697 37 33 29 2 1
0.768322 1.929919 -1.288640 33 27 25 2 1
0.820304 2.039761 -1.302882 36 34 32 2 1
0.829427 2.043853 -1.305251 35 35 37 2 1
0.844594 2.061240 -1.306647 47 44 45 2 1
0.822234 2.076601 -1.293917 48 44 43 2 1
0.806211 2.043470 -1.299931 37 35 39 2 1
0.821887 2.058670 -1.299135 35 33 38 2 1
0.822831 2.050961 -1.304157 38 35 40 2 1
0.837260 2.072402 -1.300139 40 38 33 2 1
0.510525 1.982989 -0.882828 43 41 26 5 4
0.771013 1.582034 -0.873092 51 49 55 5 5
0.564340 2.039391 -1.108060 52 41 35 5 4
0.560080 2.040613 -1.083466 51 44 40 5 4
0.568350 2.037245 -1.098486 56 49 41 5 4
0.573781 2.020546 -1.095384 47 40 32 5 4
0.572302 2.032649 -1.103648 46 38 32 5 4
0.569001 2.038092 -1.130018 50 44 35 5 4
0.834637 1.416949 -0.758373 28 24 20 5 5
0.853322 1.415728 -0.738641 28 25 20 5 5
1.138294 1.471946 -0.829734 32 34 37 5 5
1.147673 1.474670 -0.852659 32 33 36 5 5
1.133614 1.473332 -0.854246 32 34 29 5 5
0.508595 2.167150 -0.856816 86 86 81 5 4
0.945514 1.447597 -0.811920 33 35 27 5 5
0.949033 1.446529 -0.792533 39 35 26 5 5
0.960559 1.447894 -0.813464 36 33 26 5 5
0.731317 1.602859 -0.933279 40 42 36 5 5
0.737437 1.618718 -0.931164 29 31 35 5 5
0.718544 1.607237 -0.925478 55 53 44 5 5
0.716859 1.622355 -0.923064 45 46 41 5 5
0.730453 1.622983 -0.930241 39 41 46 5 5
0.725049 1.647719 -0.926362 39 41 46 5 5
0.733080 1.647687 -0.928020 45 50 53 5 5
0.841728 2.141191 -1.298530 34 34 39 2 1
0.844619 2.169322 -1.296710 41 40 47 2 1
0.950012 2.127402 -1.098589 16 18 17 7 3
0.942139 2.145729 -1.103836 19 18 20 7 3
0.942265 2.133609 -1.111741 23 22 24 7 3
0.940202 2.167304 -1.115000 34 34 34 7 3
0.949646 2.121870 -1.111946 17 16 16 7 3
0.771614 2.288063 -1.286393 38 33 28 2 1
0.280046 2.065067 -0.865093 102 100 93 5 4
0.282952 2.035256 -0.865140 115 117 117 5 4
0.789160 2.267728 -1.289180 44 41 40 2 1
0.796889 2.017363 -1.161338 21 24 32 7 3
0.918146 1.679851 -0.860822 36 34 31 5 5
0.929251 1.661726 -0.862988 50 47 50 5 5
0.336114 2.010495 -0.860082 101 100 95 5 4
0.368782 2.037972 -0.855666 64 65 64 5 4
0.345801 2.036812 -0.858929 69 71 73 5 4
0.689182 1.831206 -1.065797 67 63 60 5 5
0.689184 1.832625 -1.092966 55 48 40 5 5
0.683908 1.820950 -1.095083 48 48 41 5 5
0.879259 2.147376 -1.287253 29 27 24 2 1
0.855522 2.163101 -1.298136 23 25 24 2 1
0.861546 2.161289 -1.296940 21 24 25 2 1
0.883271 2.168077 -1.288578 37 36 35 2 1
0.758168 2.000939 -1.177901 49 53 57 7 3
0.758538 2.012759 -1.195577 41 44 48 7 3
0.772505 2.017439 -1.174083 30 33 38 7 3
0.780296 1.983907 -1.174553 45 50 57 7 3
0.772346 2.007821 -1.170604 31 34 43 7 3
0.959198 2.163091 -0.754050 47 47 50 7 3
0.959293 2.163752 -0.792312 44 42 42 7 3
0.957257 2.164928 -0.779260 61 58 53 7 3
0.968661 2.151956 -0.774112 26 24 23 7 3
0.766721 1.951843 -1.230777 132 128 118 7 3
0.864332 2.278262 -1.295074 46 47 52 2 1
0.887606 2.276283 -1.297040 39 40 45 2 1
0.564225 2.043026 -0.993361 55 49 32 5 4
0.560472 2.052269 -0.995850 74 60 47 5 4
0.558502 2.049061 -1.009708 52 49 39 5 4
0.562064 2.047741 -1.012022 55 48 39 5 4
0.553055 2.042029 -1.005315 49 46 37 5 4
0.559748 2.107013 -0.866682 72 73 69 5 4
0.544788 2.120234 -0.859994 72 74 65 5 4
0.522250 2.107588 -0.853392 66 68 51 5 4
1.138644 1.439435 -0.783602 44 44 43 5 5
1.126281 1.436088 -0.784468 42 40 38 5 5
1.124356 1.422660 -0.769792 43 43 47 5 5
0.807236 2.356901 -1.197211 28 31 35 7 3
0.824722 2.354137 -1.197139 25 28 30 7 3
0.890947 1.875398 -0.870617 43 41 35 5 5
0.702288 1.836709 -1.003633 46 39 34 5 5
0.689050 1.809354 -0.948605 46 41 32 5 5
0.688567 1.803273 -0.963767 45 41 37 5 5
0.690832 1.802082 -0.944636 43 41 37 5 5
0.693441 1.825600 -0.965502 43 40 35 5 5
0.713362 1.645694 -0.918837 55 48 37 5 5
0.727427 1.593550 -0.892187 62 56 41 5 5
0.484667 2.000462 -0.860965 59 62 41 5 4
0.496336 1.989847 -0.870944 45 44 33 5 4
0.928460 2.034394 -1.304778 25 26 26 2 1
0.931783 2.050879 -1.302838 25 25 25 2 1
0.957577 1.905610 -0.903172 16 17 20 5 5
0.792138 1.963531 -1.184444 36 36 38 7 3
0.918386 2.151272 -1.153717 24 20 17 7 3
0.927037 2.159698 -1.153025 20 17 18 7 3
0.943950 2.174004 -1.156972 28 26 28 7 3
0.934122 2.175416 -1.154804 19 19 19 7 3
0.826516 2.351170 -1.290667 41 40 37 2 1
0.836274 2.353987 -1.291888 38 38 36 2 1
0.576499 2.029983 -1.220429 45 41 32 5 4
0.576563 2.023143 -1.174064 46 41 29 5 4
0.576694 2.031301 -1.193689 48 42 32 5 4
0.576252 2.022704 -1.204672 44 43 32 5 4
0.575895 2.031779 -1.174772 47 42 33 5 4
0.565773 2.033708 -1.211753 47 43 31 5 4
0.720823 1.565418 -0.914912 49 42 41 5 5
0.730560 1.552522 -0.930934 53 46 38 5 5
0.726367 1.574823 -0.930469 53 47 35 5 5
0.737149 1.554341 -0.938089 54 50 44 5 5
0.845260 1.808377 -0.857245 27 26 27 5 5
0.850362 1.837791 -0.860914 30 32 30 5 5
0.919753 1.710423 -0.859055 65 69 74 5 5
0.702098 1.838221 -1.025004 47 40 33 5 5
0.799468 1.875142 -0.885388 53 52 44 5 5
0.814369 1.874852 -0.879243 53 52 44 5 5
0.802567 1.869538 -0.896310 43 42 40 5 5
0.791310 1.872465 -0.878652 34 29 27 5 5
0.795902 1.873937 -0.893535 46 42 39 5 5
0.820460 1.878806 -0.893444 36 31 24 5 5
0.970133 2.194110 -0.889625 29 30 30 7 3
0.974249 2.196613 -0.893670 33 36 37 7 3
0.976309 2.196103 -0.873316 36 36 36 7 3
0.983937 2.195788 -0.879300 39 28 19 7 3
0.906794 1.449886 -0.891362 160 113 76 5 5
0.690512 1.834785 -1.112339 105 107 111 5 5
1.059771 1.455724 -0.884700 39 37 33 5 5
1.020190 1.461352 -0.894412 26 27 31 5 5
1.048682 1.458108 -0.894827 28 31 30 5 5
1.024774 1.452867 -0.887860 28 29 32 5 5
1.029733 1.452243 -0.872973 32 33 33 5 5
1.033151 1.459292 -0.894628 23 27 27 5 5
0.941907 2.163661 -1.095653 22 24 22 7 3
0.943264 2.168565 -1.103551 30 26 24 7 3
0.940144 2.156086 -1.088667 20 22 21 7 3
0.907928 2.078036 -1.152743 21 18 21 7 3
0.899808 2.074373 -1.175598 40 40 40 7 3
0.429792 1.985927 -0.864093 76 73 70 5 4
0.424610 2.006945 -0.856934 76 69 65 5 4
0.410233 1.982354 -0.863318 72 64 54 5 4
0.834649 2.038604 -1.151155 20 22 26 7 3
0.822865 2.054080 -1.147069 20 19 25 7 3
0.392071 2.176102 -0.853676 104 105 86 5 4
1.055365 1.513498 -0.885756 72 79 82 5 5
1.098252 1.552779 -0.882874 63 61 54 5 5
0.915325 1.413425 -0.758946 35 29 27 5 5
0.483259 2.078327 -0.849804 75 76 70 5 4
0.460742 2.050853 -0.850030 73 73 61 5 4
0.451040 2.061963 -0.849859 78 77 66 5 4
0.884464 2.303441 -1.295418 31 30 34 2 1
0.864477 2.329966 -1.294092 36 35 36 2 1
0.859282 2.359048 -1.292684 32 31 34 2 1
0.875681 2.318675 -1.294627 33 33 37 2 1
1.081725 1.457860 -0.766425 47 43 41 5 5
1.065952 1.449957 -0.745473 49 43 38 5 5
0.945408 1.820994 -0.859636 55 54 43 5 5
0.956656 1.862230 -0.863388 50 45 35 5 5
0.922974 1.909822 -1.307762 19 17 19 2 1
0.924083 1.894248 -1.307287 23 22 20 2 1
0.867696 2.118810 -1.289455 29 29 26 2 1
0.881322 2.136261 -1.289002 28 25 28 2 1
0.914708 1.876078 -0.919108 94 77 56 5 5
0.901824 1.891988 -0.885628 33 29 25 5 5
0.916658 1.901548 -0.900319 86 68 43 5 5
0.893304 1.896932 -0.899544 90 74 51 5 5
0.914992 1.885262 -0.910946 79 62 42 5 5
0.916735 1.895666 -0.892949 28 26 23 5 5
0.894099 1.893054 -0.894311 42 34 24 5 5
1.114876 1.509321 -0.900512 74 83 89 5 5
0.566193 1.990663 -1.097348 48 44 31 5 4
0.568908 1.997788 -1.077981 41 43 31 5 4
0.570549 1.998563 -1.105105 46 41 33 5 4
0.283946 2.188941 -0.859751 93 93 88 5 4
0.310153 2.208110 -0.856631 114 99 85 5 4
0.762999 1.957500 -1.289060 45 41 37 2 1
0.738338 1.986238 -1.293973 36 34 25 2 1
0.818933 2.100571 -1.293808 34 32 31 2 1
0.762088 1.830868 -0.918141 19 21 18 5 5
0.752287 1.840757 -0.912538 28 31 27 5 5
0.738853 1.821824 -0.909939 24 25 21 5 5
0.737746 1.833444 -0.903961 32 33 39 5 5
0.737157 1.816385 -0.915990 39 37 41 5 5
0.748692 1.826942 -0.916854 38 41 37 5 5
0.702783 1.986563 -1.279701 46 40 37 2 1
0.711977 1.995115 -1.280577 43 42 39 2 1
1.014233 1.646020 -0.865464 61 67 62 5 5
0.963623 1.634308 -0.865385 65 71 64 5 5
1.001899 1.903269 -0.906431 64 49 39 5 5
0.988766 1.903984 -0.905807 29 32 34 5 5
1.007636 1.905736 -0.903532 51 45 42 5 5
0.964467 1.758216 -0.857713 41 38 33 5 5
0.961075 1.739365 -0.858228 49 51 47 5 5
0.981129 1.756028 -0.857921 48 47 43 5 5
0.386907 2.256859 -0.850914 83 88 79 5 4
0.923013 2.065049 -1.302312 25 24 26 2 1
0.560582 2.022122 -1.200187 43 38 31 5 4
0.754903 1.603885 -0.918901 31 34 34 5 5
0.745317 1.609958 -0.929055 38 37 32 5 5
0.849494 2.047894 -1.179342 24 24 30 2 1
0.864000 2.060120 -1.176321 24 22 21 2 1
0.770662 1.729520 -0.855074 47 42 27 5 5
0.555415 2.024016 -1.138512 47 38 36 5 4
0.576274 2.020028 -1.153870 44 42 33 5 4
0.574550 2.033655 -1.139380 48 42 32 5 4
0.574553 2.020429 -1.115350 48 42 32 5 4
0.553544 2.001974 -1.099382 45 40 33 5 4
0.571759 1.997171 -1.147788 50 47 35 5 4
0.559968 2.036855 -1.122008 45 41 37 5 4
0.558542 2.033731 -1.142412 46 41 32 5 4
0.563872 2.037959 -1.141376 46 44 33 5 4
0.574519 2.032888 -1.151821 47 43 37 5 4
0.688210 2.149654 -1.288377 36 32 28 2 1
0.706395 2.192649 -1.288329 39 33 33 2 1
0.707782 1.803868 -1.067622 115 111 101 5 5
0.685112 1.821788 -1.054981 52 46 42 5 5
0.683943 1.805679 -1.059087 52 45 38 5 5
0.683859 1.820011 -1.070126 56 52 47 5 5
0.858764 1.696780 -0.858645 37 35 28 5 5
0.702186 1.839805 -1.072198 71 69 62 5 5
0.712007 1.599722 -0.905329 48 44 42 5 5
0.717183 1.588716 -0.916648 55 54 52 5 5
0.974743 2.139805 -0.853815 21 19 18 7 3
0.471865 1.978293 -0.909536 44 44 34 5 4
0.764921 2.058944 -1.298192 67 71 79 2 1
0.511657 1.994570 -0.870546 48 43 35 5 4
0.522120 2.003819 -0.867253 38 40 32 5 4
0.521477 2.011125 -0.863048 62 64 52 5 4
0.548732 2.011518 -0.870877 50 45 36 5 4
0.990483 2.135541 -0.817651 31 31 28 7 3
0.993604 2.136600 -0.825588 28 27 26 7 3
0.984569 2.136231 -0.803220 39 32 25 7 3
0.995312 2.138453 -0.795923 41 35 27 7 3
1.004438 1.450597 -0.819183 34 38 38 5 5
0.883039 2.101561 -1.296079 35 31 27 2 1
0.869307 2.090767 -1.298454 36 38 32 2 1
0.845446 2.081076 -1.296623 34 34 33 2 1
0.854022 1.738530 -0.856165 38 45 37 5 5
0.388834 2.099247 -0.854350 80 75 69 5 4
0.956712 2.177942 -1.060820 27 23 19 7 3
0.946554 2.164776 -1.079237 27 27 23 7 3
0.943260 2.157542 -1.076827 26 25 23 7 3
0.819955 2.325662 -1.181030 22 25 25 7 3
0.812595 2.342946 -1.175759 45 43 39 7 3
0.827044 2.327564 -1.167757 39 42 35 7 3
0.820306 2.345015 -1.193695 32 36 38 7 3
0.821861 2.334086 -1.189027 24 26 27 7 3
0.841729 2.337984 -1.194617 18 19 20 7 3
0.839499 2.353840 -1.191419 41 42 38 7 3
0.832374 2.343127 -1.178051 35 35 33 7 3
0.819205 2.326329 -1.170180 38 39 36 7 3
0.413042 1.995473 -0.921680 34 34 29 5 4
0.404255 1.971726 -0.916336 33 30 25 5 4
1.017629 1.864553 -0.868727 40 36 33 5 5
1.018306 1.591566 -0.872644 65 70 57 5 5
1.008907 1.567564 -0.876043 50 54 45 5 5
0.848804 2.057160 -1.144547 21 22 23 7 3
0.849868 2.032891 -1.146743 29 27 31 7 3
0.865294 2.056918 -1.139591 23 23 26 7 3
0.785371 2.037891 -1.186156 33 37 37 7 3
0.787822 2.035316 -1.192748 31 32 37 2 1
0.838370 1.551391 -0.873916 46 51 50 5 5
0.812459 1.549148 -0.875978 86 93 104 5 5
0.962152 1.512152 -0.880169 135 104 68 5 5
0.777380 1.445660 -0.801793 27 25 17 5 5
0.983454 2.130309 -0.907062 24 19 13 7 3
0.974226 2.123259 -0.924564 20 17 14 7 3
0.983924 2.127658 -0.923026 21 21 14 7 3
0.969830 2.131802 -0.902708 20 17 13 7 3
0.796479 2.356888 -1.180156 44 44 38 7 3
0.801291 2.346435 -1.189173 28 28 33 7 3
0.809124 2.339941 -1.184222 26 30 34 7 3
0.794198 2.350372 -1.182569 28 31 35 7 3
0.550157 2.183598 -0.883592 35 37 30 5 4
0.537289 2.204565 -0.877330 35 37 30 5 4
0.529704 2.195864 -0.868616 37 39 32 5 4
0.538169 2.212714 -0.882859 37 39 31 5 4
0.959063 1.568258 -0.873595 99 84 66 5 5
0.972283 1.582172 -0.873673 40 38 43 5 5
0.993203 1.595256 -0.872571 74 76 73 5 5
0.529476 2.231802 -0.888461 38 36 45 5 4
0.516527 2.234477 -0.891372 62 63 71 5 4
0.520926 2.246449 -0.886962 47 49 42 5 4
0.511934 2.250165 -0.889619 37 33 36 5 4
0.332734 1.958954 -0.926791 53 51 45 5 4
0.331174 1.970063 -0.933969 49 48 43 5 4
0.329192 1.978461 -0.936919 48 47 41 5 4
0.570340 2.036875 -1.193506 44 39 31 5 4
0.560534 2.028607 -1.196513 45 40 36 5 4
0.562228 2.035318 -1.186319 42 36 27 5 4
0.866772 2.250110 -1.296630 31 30 33 2 1
0.563707 2.042933 -1.064794 51 47 37 5 4
0.569378 2.036624 -1.064468 50 46 34 5 4
0.928154 1.445130 -0.857154 36 32 27 5 5
0.743272 1.449455 -0.734276 22 22 15 5 5
1.025694 1.503272 -0.885756 43 47 41 5 5
0.511911 2.262658 -0.885378 35 34 27 5 4
0.874297 1.984778 -1.302952 28 30 27 2 1
0.794549 1.780220 -0.854664 27 29 23 5 5
0.824870 1.782554 -0.855060 27 28 23 5 5
0.829813 1.765300 -0.853942 29 29 26 5 5
0.847853 1.783370 -0.855692 31 31 28 5 5
0.359663 2.092642 -0.856586 98 93 83 5 4
1.037290 1.640984 -0.866260 29 32 32 5 5
1.005628 1.631301 -0.867410 66 71 74 5 5
0.869177 2.045765 -1.142902 17 21 17 7 3
0.855659 2.031412 -1.148640 22 23 24 7 3
0.771060 1.786944 -0.963144 30 30 28 5 5
0.712087 1.830149 -1.186772 31 28 21 5 5
0.707936 1.842457 -1.178331 37 31 21 5 5
0.708435 1.842117 -1.199297 31 30 23 5 5
0.687380 1.809927 -1.187458 41 38 32 5 5
0.687659 1.814615 -1.201996 39 37 32 5 5
0.698287 1.811180 -1.204957 43 36 29 5 5
0.703045 1.821140 -1.210280 42 35 33 5 5
0.694826 1.842159 -1.197680 39 32 30 2 1
0.706485 1.842755 -1.210838 40 35 30 5 5
0.974235 1.446697 -0.780755 33 36 28 5 5
0.952281 1.444905 -0.774371 36 32 27 5 5
0.912755 1.843786 -0.862494 61 57 47 5 5
0.921753 1.867496 -0.863271 35 33 29 5 5
0.713384 1.829392 -1.145463 220 213 180 5 5
0.715239 1.825360 -1.106924 176 168 144 5 5
0.707691 1.813903 -1.132195 223 213 180 5 5
0.738867 1.814375 -0.945135 62 57 60 5 5
0.766173 1.814940 -0.931466 73 76 79 5 5
0.740796 1.813506 -0.932293 36 36 35 5 5
0.750869 1.818799 -0.924489 45 48 49 5 5
0.891907 2.122811 -1.146141 26 23 23 7 3
0.890662 2.116691 -1.131236 23 22 22 7 3
0.832064 2.026501 -1.186640 26 24 28 2 1
0.843161 2.016734 -1.185510 27 27 30 7 3
0.772776 1.545378 -0.923386 101 86 62 5 5
0.763280 1.583559 -0.919112 70 71 64 5 5
0.770022 1.591866 -0.919299 67 69 61 5 5
0.782043 1.581276 -0.918791 105 85 63 5 5
1.040693 1.457225 -0.801960 39 40 39 5 5
0.555818 2.038141 -1.061081 57 55 54 5 4
0.560074 2.044565 -1.051659 52 47 34 5 4
0.721457 1.965085 -1.239931 40 40 27 2 1
0.740848 1.938226 -1.238257 197 188 163 7 3
0.725975 1.969970 -1.233109 60 59 56 2 1
0.747478 1.946952 -1.233553 137 134 123 2 1
0.736843 1.969798 -1.228332 85 84 83 2 1
0.719707 1.979143 -1.228519 63 65 66 7 3
0.770683 1.532347 -0.927109 43 44 52 5 5
0.789563 1.536459 -0.919805 60 59 53 5 5
0.789052 1.558217 -0.918699 131 101 77 5 5
0.747622 1.933726 -1.232621 204 188 160 7 3
0.735750 1.922991 -1.241910 72 60 45 7 3
0.751023 1.926229 -1.207329 199 183 159 7 3
0.747011 1.928872 -1.224301 230 215 183 7 3
1.002953 1.694225 -0.861960 50 53 41 5 5
1.011465 1.712091 -0.859874 32 39 35 5 5
1.036436 1.727926 -0.859377 39 44 42 5 5
0.906579 2.236222 -1.134042 38 37 35 7 3
0.910786 2.210051 -1.140289 51 52 46 7 3
0.929348 2.208665 -1.126617 30 27 24 7 3
0.929372 2.225523 -1.135489 30 27 24 7 3
1.035375 1.852390 -0.865248 31 28 22 5 5
0.929823 1.414411 -0.784775 36 35 25 5 5
0.930654 1.410350 -0.760299 35 32 21 5 5
0.799921 1.437622 -0.723846 24 23 16 5 5
0.781358 1.441706 -0.746229 26 20 17 5 5
0.696492 1.796524 -0.915282 63 64 56 5 5
0.701567 1.800514 -0.905814 57 58 50 5 5
0.695286 1.785447 -0.904653 56 53 46 5 5
0.699489 1.763697 -0.897306 51 51 42 5 5
0.701849 1.766307 -0.909115 52 49 41 5 5
0.695199 1.783990 -0.888992 45 44 40 5 5
0.684886 1.814702 -1.014151 48 43 42 5 5
0.689665 1.825626 -1.006164 45 42 35 5 5
0.687302 1.817647 -0.982647 44 40 33 5 5
0.693979 1.828328 -0.980973 44 43 37 5 5
0.705760 1.837836 -0.988035 47 46 44 5 5
0.953997 2.141772 -0.971778 18 18 16 7 3
0.951873 2.134175 -0.994369 20 19 20 7 3
0.962568 2.120975 -0.991423 17 17 12 7 3
0.960835 2.127064 -0.962724 17 16 16 7 3
0.725551 1.744823 -0.916922 38 40 38 5 5
0.839621 1.437484 -0.728009 28 24 19 5 5
0.820934 1.436700 -0.724606 26 23 18 5 5
0.912636 1.547051 -0.875579 83 71 51 5 5
0.914251 1.523048 -0.879477 127 99 57 5 5
0.877188 1.889147 -0.889331 35 33 30 5 5
0.887031 1.883985 -0.908084 153 114 76 5 5
0.861238 1.879934 -0.900031 123 91 62 5 5
0.863338 1.883843 -0.881658 23 22 18 5 5
0.880437 1.891190 -0.900087 131 99 61 5 5
0.849538 1.869664 -0.911901 56 45 33 5 5
0.331769 2.157727 -0.857199 106 100 80 5 4
0.774038 1.840557 -0.914841 23 24 18 5 5
0.773112 1.829139 -0.919507 24 26 22 5 5
0.799444 1.833481 -0.917546 14 16 10 5 5
0.785030 1.828851 -0.918561 21 22 16 5 5
0.741400 1.720113 -0.861729 53 51 34 5 5
0.723395 1.932396 -1.199514 89 93 103 7 3
0.750844 1.931570 -1.195295 152 144 136 7 3
0.739573 1.944038 -1.193519 131 127 123 7 3
0.741446 1.924299 -1.201489 168 159 145 7 3
0.762850 1.933460 -1.202184 169 162 147 7 3
0.881921 1.472080 -0.890527 58 48 35 5 5
0.866045 1.462888 -0.893406 135 99 59 5 5
0.855863 1.498306 -0.884150 57 59 49 5 5
0.838511 1.489172 -0.890311 123 83 42 5 5
0.967336 1.884085 -1.308861 24 22 23 2 1
0.942676 1.915997 -1.307876 21 20 18 2 1
0.768785 2.023568 -1.197801 46 51 55 7 3
0.739926 2.012811 -1.293568 57 55 52 2 1
0.726710 2.042292 -1.292673 44 43 36 2 1
0.743831 2.034206 -1.300501 48 51 54 2 1
0.742962 2.057165 -1.296092 76 78 85 2 1
0.374413 1.974357 -0.913696 38 35 26 5 4
0.399401 1.990716 -0.918549 55 50 38 5 4
0.385054 1.988156 -0.917180 50 42 36 5 4
0.386064 1.980771 -0.914390 45 44 30 5 4
0.870113 1.443915 -0.792675 29 29 22 5 5
0.887480 1.444345 -0.788125 32 30 24 5 5
0.900012 1.442580 -0.759915 29 29 20 5 5
0.954130 2.164241 -0.920362 21 20 16 7 3
0.956957 2.172722 -0.892064 24 25 27 7 3
1.027222 1.452507 -0.782624 47 45 39 5 5
1.015460 1.448708 -0.760483 53 45 44 5 5
1.037997 1.450659 -0.761048 44 43 40 5 5
0.852569 1.937860 -1.301927 38 34 40 2 1
0.865883 1.921805 -1.305259 24 25 33 2 1
0.845124 1.923327 -1.301723 41 41 42 2 1
0.837058 1.943533 -1.299195 44 43 46 2 1
0.875754 1.415699 -0.747450 32 28 20 5 5
0.870656 1.413817 -0.717410 31 29 22 5 5
0.821248 2.060970 -1.153122 20 20 23 7 3
0.901410 2.114877 -1.296520 29 24 31 2 1
0.899605 2.128789 -1.292402 25 24 20 2 1
0.916613 2.133435 -1.295111 25 25 23 2 1
0.554408 1.994504 -0.964540 55 50 39 5 4
0.781885 1.656688 -0.860531 42 35 28 5 5
0.807492 1.694053 -0.855721 44 47 50 5 5
0.796445 1.669273 -0.858646 32 34 35 5 5
0.832054 1.443476 -0.788550 29 25 19 5 5
0.854351 1.444406 -0.806672 28 26 19 5 5
0.867194 1.444000 -0.808194 33 30 25 5 5
0.868912 1.444821 -0.832494 33 31 26 5 5
0.887543 1.444704 -0.830631 35 31 25 5 5
0.312890 2.006744 -0.862984 108 103 86 5 4
0.554949 1.992738 -1.016238 53 47 40 5 4
0.562437 1.994857 -0.999036 52 46 35 5 4
0.551050 1.996585 -1.004079 54 47 47 5 4
0.858534 1.438389 -0.731062 27 26 20 5 5
0.877939 1.440962 -0.742675 28 27 18 5 5
0.309777 2.106333 -0.860244 92 93 86 5 4
0.327064 2.083817 -0.859496 92 91 87 5 4
0.279696 2.095136 -0.864274 97 95 91 5 4
0.906676 1.446000 -0.805798 37 29 25 5 5
1.158022 1.479153 -0.786439 36 37 41 5 5
0.716998 1.577917 -0.908386 47 44 39 5 5
0.729440 1.558223 -0.901163 54 53 48 5 5
0.862514 2.032143 -1.303238 29 30 36 2 1
0.827975 1.835033 -0.921602 29 28 30 5 5
0.812521 1.842026 -0.917783 17 15 16 5 5
0.899761 2.128062 -1.132464 53 41 36 7 3
0.910186 2.126208 -1.122761 21 20 18 7 3
0.901192 2.130794 -1.147479 36 30 28 7 3
0.911946 2.142883 -1.138143 18 19 20 7 3
0.918908 2.140577 -1.126620 17 18 19 7 3
0.906963 2.138285 -1.144774 32 24 21 7 3
0.749211 2.215288 -1.289287 42 37 37 2 1
0.768130 2.244728 -1.288452 46 43 40 2 1
0.953876 2.154259 -0.964400 20 18 13 7 3
0.950706 2.151550 -0.988649 20 18 18 7 3
0.963398 2.186220 -0.984507 19 20 16 7 3
0.955140 2.174516 -0.980741 61 49 38 7 3
0.850927 2.281591 -1.294211 29 29 28 2 1
0.897137 1.867313 -0.921352 100 76 51 5 5
0.906404 1.858377 -0.923448 99 74 47 5 5
1.097462 1.466349 -0.842402 33 36 32 5 5
1.081608 1.461825 -0.811385 34 35 40 5 5
1.118117 1.468699 -0.826423 34 34 40 5 5
0.715844 1.834001 -1.110237 171 158 143 5 5
0.714272 1.816181 -1.080176 156 146 136 5 5
0.706057 1.807507 -1.102564 180 166 147 5 5
0.715205 1.830733 -1.096780 131 120 113 5 5
0.997499 2.138757 -0.755249 59 53 43 7 3
0.456151 2.020317 -0.853943 79 84 77 5 4
0.404785 2.041285 -0.853859 75 75 65 5 4
0.280576 2.153015 -0.861771 94 93 93 5 4
0.340917 2.107835 -0.857577 88 86 77 5 4
0.702524 1.799106 -1.057802 141 128 120 5 5
0.690885 1.799932 -1.068201 50 46 38 5 5
0.691212 1.800373 -1.094650 111 98 88 5 5
0.696845 1.798613 -1.044154 87 81 70 5 5
0.685410 1.802074 -1.065958 55 49 44 5 5
0.711571 1.830784 -0.949855 83 87 91 5 5
0.731851 1.816731 -0.953437 32 32 29 5 5
0.715178 1.830895 -0.965054 104 102 110 5 5
0.706907 1.834959 -0.973837 68 63 62 5 5
0.691782 1.798155 -1.153421 48 43 35 5 5
0.753086 1.996945 -1.214633 83 81 75 2 1
0.735573 1.989277 -1.222709 76 78 90 2 1
0.707774 1.946292 -1.258390 44 44 46 2 1
0.706104 1.959833 -1.260649 45 41 31 2 1
0.700896 1.951854 -1.270792 45 41 31 2 1
0.703566 1.960851 -1.248820 40 38 33 7 3
0.772174 2.188229 -1.293242 53 53 54 2 1
0.768469 2.153009 -1.295042 40 43 39 2 1
0.881457 2.304521 -1.167950 33 31 28 7 3
0.865963 2.308553 -1.163858 38 35 28 7 3
0.857035 2.300667 -1.155558 37 36 30 7 3
0.690446 2.098284 -1.289216 33 28 25 2 1
0.682526 2.124471 -1.288967 35 30 29 2 1
0.805787 1.660444 -0.859587 37 35 30 5 5
0.830418 1.632780 -0.863510 34 39 35 5 5
0.855009 1.659082 -0.861062 41 39 40 5 5
0.986148 1.902452 -0.897823 40 37 34 5 5
0.986870 1.620905 -0.867910 38 39 34 5 5
1.025216 1.614697 -0.870243 63 60 60 5 5
0.743410 1.783429 -0.860305 31 32 31 5 5
0.740817 1.754611 -0.860035 50 50 43 5 5
0.759774 1.442734 -0.743533 22 22 14 5 5
0.778429 1.419494 -0.711062 24 22 17 5 5
0.772463 1.433773 -0.707177 23 24 17 5 5
0.769444 1.438396 -0.722549 23 23 15 5 5
0.760351 1.435469 -0.698524 21 20 15 5 5
0.918396 2.271158 -1.167752 25 27 29 7 3
0.902465 2.285859 -1.167011 24 25 23 7 3
1.070801 1.702157 -0.862159 53 57 43 5 5
0.731225 1.518648 -0.920488 45 45 44 5 5
0.822401 1.994758 -1.198152 34 34 28 7 3
0.720932 2.195831 -1.287790 45 43 40 2 1
0.735309 2.210016 -1.288433 38 36 29 2 1
0.281559 2.005399 -0.866328 96 102 99 5 4
0.884249 1.743273 -0.856948 50 51 49 5 5
0.897467 1.711860 -0.858424 36 39 32 5 5
0.962521 1.465999 -0.890844 106 87 66 5 5
0.974038 1.509334 -0.881493 101 80 58 5 5
0.966087 1.488145 -0.885342 114 89 64 5 5
0.558848 1.991209 -1.046181 53 48 40 5 4
0.564427 1.992972 -1.060053 51 44 38 5 4
0.553195 1.996757 -1.058750 50 43 39 5 4
0.554402 1.997477 -1.083387 49 41 35 5 4
0.560435 1.990682 -1.078775 50 43 37 5 4
0.902052 2.109175 -1.163140 54 33 36 7 3
0.913996 2.090156 -1.172663 26 24 22 7 3
0.924483 2.093963 -1.141845 25 23 21 7 3
0.427353 2.263183 -0.852650 99 97 83 5 4
0.899951 1.411418 -0.729601 33 30 25 5 5
0.890172 1.414309 -0.741501 37 31 22 5 5
0.986001 2.135206 -0.837369 32 28 23 7 3
0.991185 2.136954 -0.872255 41 33 25 7 3
0.860991 2.291593 -1.179943 17 21 23 7 3
0.870574 2.300686 -1.187151 14 18 18 7 3
0.885233 2.266085 -1.179283 27 32 31 7 3
0.862417 2.278717 -1.177424 37 38 38 7 3
0.971793 1.602697 -0.869900 50 57 59 5 5
0.563342 2.047079 -1.020674 49 45 37 5 4
0.572423 2.028805 -1.044737 51 43 36 5 4
0.708035 1.965642 -1.230599 44 43 39 7 3
0.954113 1.915402 -1.308265 18 17 15 2 1
0.753814 1.957838 -1.188232 92 88 89 7 3
0.764305 1.982372 -1.216617 91 87 86 2 1
0.781806 1.960925 -1.219412 52 52 54 7 3
0.777293 1.967095 -1.220362 73 72 72 2 1
0.893390 2.325121 -1.294285 38 37 40 2 1
0.847641 2.343112 -1.294353 34 34 34 2 1
0.421586 2.201875 -0.852875 87 90 92 5 4
0.394174 2.214173 -0.852128 84 86 88 5 4
0.407842 2.253191 -0.851586 82 83 82 5 4
0.744365 1.773156 -0.911291 44 42 40 5 5
0.761045 1.778553 -0.911334 67 59 54 5 5
0.768037 1.779106 -0.919129 67 58 51 5 5
0.763431 1.754948 -0.911729 59 55 48 5 5
1.065281 1.564286 -0.877691 60 72 69 5 5
1.081048 1.570024 -0.876571 77 84 78 5 5
1.053455 1.548921 -0.879235 62 74 73 5 5
0.718184 1.701097 -0.875537 46 39 33 5 5
0.731877 1.700905 -0.868233 41 37 31 5 5
0.723903 1.702783 -0.871669 50 48 50 5 5
0.704944 2.075517 -1.289002 44 39 29 2 1
0.943179 1.703403 -0.859306 50 52 36 5 5
0.534641 2.015402 -0.946316 71 70 60 5 4
0.529263 2.014493 -0.933708 63 56 48 5 4
0.540174 1.996379 -0.929771 80 77 65 5 4
0.551113 1.999343 -0.922923 89 84 62 5 4
0.560314 2.005784 -0.936337 72 69 51 5 4
0.520398 2.018235 -0.926366 64 57 49 5 4
0.558714 2.044020 -1.033265 54 47 43 5 4
0.556779 2.042809 -1.026226 59 56 54 5 4
0.763902 1.956440 -1.233556 168 162 147 2 1
0.753132 1.969963 -1.224689 108 101 90 2 1
0.766212 1.967598 -1.225786 123 119 113 2 1
0.455168 1.955626 -0.889247 37 39 36 5 4
0.469259 1.960155 -0.891703 26 24 20 5 4
0.475262 1.963038 -0.886786 39 39 39 5 4
0.448824 1.964368 -0.880605 50 51 45 5 4
0.954772 1.988129 -1.307512 19 19 20 2 1
0.693758 2.043755 -1.289216 32 32 23 2 1
0.720572 2.063570 -1.289811 41 35 29 2 1
0.936011 2.178053 -1.141531 39 41 33 7 3
0.920516 2.157181 -1.148350 15 14 17 7 3
0.934329 2.175683 -1.131399 69 69 64 7 3
0.936117 2.161530 -1.124127 50 50 49 7 3
0.929459 2.153214 -1.127818 51 51 47 7 3
0.935622 2.170311 -1.139241 17 18 20 7 3
0.961745 1.687197 -0.861196 84 75 52 5 5
0.401989 2.009178 -0.920540 41 37 27 5 4
0.701521 1.686545 -0.900591 44 39 29 5 5
0.704861 1.666587 -0.895213 46 41 31 5 5
0.702813 1.702167 -0.904835 41 38 33 5 5
0.709116 1.682732 -0.913427 36 39 35 5 5
0.706414 1.696335 -0.912343 41 38 33 5 5
0.361680 1.926008 -0.900328 43 41 27 5 4
0.375537 1.936065 -0.908858 30 28 19 5 4
0.577006 2.084617 -0.878771 51 49 45 5 4
0.586421 2.053621 -0.882400 68 67 60 5 4
0.572040 2.034721 -0.871770 67 67 63 5 4
0.578515 2.046805 -0.873910 57 61 58 5 4
0.562401 2.063485 -0.862671 57 61 58 5 4
0.566818 2.074417 -0.866377 61 66 63 5 4
0.364548 2.002447 -0.924726 50 47 32 5 4
0.793135 1.536529 -0.880875 93 88 74 5 5
0.737396 1.555977 -0.893231 87 90 90 5 5
0.759107 1.551800 -0.883821 76 79 78 5 5
0.747983 1.564308 -0.885156 57 58 52 5 5
0.754953 1.595581 -0.875471 67 69 56 5 5
0.571449 2.109238 -0.889096 60 64 61 5 4
0.563087 2.124598 -0.890317 49 49 46 5 4
0.563807 2.102973 -0.894287 51 50 52 5 4
0.561282 2.117466 -0.893911 54 55 51 5 4
0.551388 2.136849 -0.890804 50 51 47 5 4
0.539940 2.135668 -0.859408 80 76 69 5 4
0.743920 1.519888 -0.942165 54 59 57 5 5
0.848293 1.593045 -0.868800 61 57 47 5 5
0.854533 1.571197 -0.872029 76 88 93 5 5
0.822256 1.580661 -0.870448 53 53 47 5 5
0.916755 1.415111 -0.806097 38 35 29 5 5
0.848193 2.069635 -1.171961 21 22 29 2 1
0.591718 2.057563 -0.898036 50 49 36 5 4
0.929856 1.890560 -0.880527 35 32 28 5 5
0.952281 1.892971 -0.882332 40 35 28 5 5
0.910437 2.249846 -1.142571 37 34 30 7 3
0.964626 2.193816 -0.965066 23 25 25 7 3
0.950933 2.162285 -0.976531 21 18 16 7 3
0.955275 2.171712 -0.949338 31 31 32 7 3
0.773485 1.514747 -0.890267 64 61 57 5 5
0.780020 1.492244 -0.897976 34 38 45 5 5
0.805686 1.525448 -0.880033 53 53 59 5 5
0.795658 1.506792 -0.887759 60 58 58 5 5
0.799781 1.477011 -0.899021 28 28 31 5 5
0.906312 1.415597 -0.775678 39 32 26 5 5
0.920374 1.444161 -0.768621 40 35 31 5 5
0.922717 1.441561 -0.745025 35 32 24 5 5
0.906738 1.445046 -0.783657 38 33 25 5 5
0.699937 1.803853 -1.135138 248 235 191 5 5
0.933200 2.105752 -1.183538 15 14 11 7 3
0.915887 2.102212 -1.177965 17 16 15 7 3
0.935132 2.116817 -1.185902 20 21 19 7 3
0.965960 2.151294 -0.873585 19 20 17 7 3
0.959438 2.162020 -0.852971 23 24 25 7 3
0.952254 2.166276 -0.840031 36 38 38 7 3
0.955791 2.172198 -0.848242 31 33 33 7 3
0.899113 1.733408 -0.857857 40 41 33 5 5
0.808385 1.978350 -1.191398 37 34 34 7 3
0.792711 1.982261 -1.211986 45 46 48 2 1
0.779343 1.982241 -1.211336 51 53 57 2 1
0.789266 1.990742 -1.206793 61 59 47 2 1
0.811390 1.988286 -1.206999 42 42 35 7 3
0.797803 1.973290 -1.214425 34 32 29 7 3
0.795256 1.962337 -1.201916 27 27 27 7 3
0.741174 1.968621 -1.276595 247 238 204 2 1
0.764197 1.984063 -1.275377 164 150 133 2 1
0.750082 1.970791 -1.257118 240 227 193 2 1
0.747807 1.954010 -1.275268 61 50 39 2 1
0.757853 1.956249 -1.275746 47 41 36 2 1
0.746495 1.963264 -1.271225 230 215 185 2 1
0.758120 1.958941 -1.268635 62 52 44 2 1
0.760468 1.976646 -1.257724 193 178 155 2 1
0.743087 1.988433 -1.264568 71 72 60 2 1
0.751760 1.982710 -1.257541 188 180 153 2 1
0.470739 1.984013 -0.868638 54 53 40 5 4
0.444865 1.980885 -0.867377 57 52 50 5 4
0.460490 1.993057 -0.862251 55 52 48 5 4
0.445655 2.000327 -0.858553 88 90 83 5 4
0.731046 1.988554 -1.221870 73 78 82 2 1
1.042281 1.875226 -0.878215 31 29 21 5 5
0.726426 1.632995 -0.881667 48 46 35 5 5
0.738106 1.623129 -0.877543 73 73 61 5 5
0.888165 2.092546 -1.165074 18 19 14 2 1
0.888659 2.073500 -1.180208 24 23 21 2 1
0.900683 2.084146 -1.179310 21 21 25 2 1
0.886907 2.111747 -1.156539 27 25 27 7 3
0.875139 2.098805 -1.160885 25 26 29 2 1
0.932156 1.877174 -0.920055 98 74 55 5 5
0.845331 2.211435 -1.297078 18 18 17 2 1
0.891420 2.236504 -1.297461 17 17 17 2 1
0.861444 2.227630 -1.297751 20 20 21 2 1
0.568099 2.033493 -0.968794 57 50 37 5 4
0.571213 2.022705 -0.985973 55 48 34 5 4
0.568413 2.021165 -0.961526 54 50 36 5 4
0.565875 2.003120 -0.964590 55 51 36 5 4
0.719076 1.970882 -1.243230 41 36 32 2 1
0.710849 1.970277 -1.240531 46 46 43 7 3
0.719567 1.952853 -1.248033 38 38 26 2 1
0.732427 1.955667 -1.266666 28 30 31 2 1
0.720404 1.963826 -1.262745 42 39 38 2 1
0.706260 1.972960 -1.265447 42 41 36 2 1
0.719666 1.974436 -1.260943 37 35 34 2 1
0.713953 1.974981 -1.255858 44 46 42 2 1
0.725166 1.950448 -1.254680 39 39 35 2 1
0.849188 2.303866 -1.294563 36 35 38 2 1
0.879350 1.518053 -0.879386 146 106 65 5 5
0.900470 2.050135 -1.302085 33 32 37 2 1
0.908408 2.024091 -1.303605 25 25 28 2 1
0.746291 1.997106 -1.191798 64 67 74 7 3
0.751311 2.007134 -1.207822 73 78 88 7 3
0.759501 2.004902 -1.210619 61 62 64 2 1
0.785237 2.006643 -1.202067 65 69 70 2 1
0.736602 1.993778 -1.211136 63 68 73 7 3
0.764021 2.016683 -1.204800 58 58 63 2 1
1.081096 1.595770 -0.872138 79 85 73 5 5
0.494097 2.019477 -0.856663 89 88 73 5 4
0.484848 2.045219 -0.851204 70 74 74 5 4
0.571102 2.012363 -0.884841 31 27 20 5 4
0.586385 2.037863 -0.889590 51 49 41 5 4
0.567208 2.014163 -0.878255 45 43 39 5 4
0.581009 2.032179 -0.879511 50 47 41 5 4
0.902985 2.079477 -1.134687 33 22 19 7 3
0.890519 2.072093 -1.134954 28 23 21 7 3
0.787371 1.994370 -1.169442 32 33 43 7 3
0.738270 1.577602 -0.935644 50 46 41 5 5
0.746580 1.586641 -0.933097 39 39 35 5 5
0.741178 1.595942 -0.934228 49 51 38 5 5
0.725077 1.589903 -0.929878 50 49 50 5 5
0.346711 1.973631 -0.925894 51 46 40 5 4
0.367006 1.962813 -0.918053 33 31 20 5 4
0.365993 1.984362 -0.920098 59 60 41 5 4
0.338683 1.983366 -0.934453 53 48 42 5 4
0.356034 1.987599 -0.922872 51 53 35 5 4
0.687667 1.824710 -1.027109 46 43 37 5 5
0.688380 1.801828 -1.044313 48 42 31 5 5
0.683330 1.810637 -1.037507 46 43 36 5 5
0.711802 1.834138 -1.005053 42 38 31 5 5
0.692674 1.832092 -1.031418 44 40 32 5 5
0.716596 1.808204 -1.004501 53 49 44 5 5
0.684750 1.804869 -1.020816 47 42 36 5 5
0.706427 1.838329 -1.023890 43 36 30 5 5
0.564420 1.991217 -1.159687 44 40 33 5 4
0.569354 1.995254 -1.174821 44 42 30 5 4
0.567132 1.996524 -1.186358 44 42 30 5 4
0.573874 2.010927 -1.177779 47 43 30 5 4
0.945712 2.138911 -1.022048 20 19 17 7 3
0.948804 2.131250 -1.023903 18 14 11 7 3
0.949499 2.132573 -1.008238 20 18 15 7 3
0.545197 2.050699 -0.857644 51 53 47 5 4
0.548909 2.060579 -0.857808 63 64 58 5 4
0.528234 2.034684 -0.857920 50 48 42 5 4
0.922178 1.861500 -0.924848 34 23 15 5 5
0.932304 1.865768 -0.923532 73 58 36 5 5
0.748652 2.130748 -1.291114 51 50 47 2 1
0.746674 2.157724 -1.289170 38 35 35 2 1
0.272043 2.195149 -0.860679 83 87 87 5 4
0.550095 2.030454 -1.049126 59 55 60 5 4
0.545549 2.015449 -1.025336 51 47 42 5 4
0.944443 1.609385 -0.868110 50 50 57 5 5
0.953292 1.576550 -0.873055 52 48 41 5 5
0.931801 1.584841 -0.871348 80 84 64 5 5
0.876242 1.872254 -0.915015 51 42 29 5 5
0.736360 2.280621 -1.286528 49 40 39 2 1
0.746219 2.283827 -1.287422 43 41 35 2 1
0.904212 1.610458 -0.867873 52 59 65 5 5
0.881222 1.968667 -1.305108 23 26 29 2 1
0.890357 1.986790 -1.305197 21 24 23 2 1
0.761957 1.791807 -0.857371 33 32 25 5 5
0.713454 2.038463 -1.289555 39 36 33 2 1
0.976632 1.409560 -0.768717 39 38 29 5 5
0.958346 1.399858 -0.753907 42 35 31 5 5
0.963439 1.405844 -0.756955 38 34 27 5 5
0.776913 2.020063 -1.200762 60 62 62 2 1
0.800704 2.005028 -1.199331 43 44 32 2 1
0.800344 1.993875 -1.205437 46 49 44 2 1
0.812859 2.024993 -1.189516 36 41 44 2 1
0.755152 1.441509 -0.720808 21 21 14 5 5
0.735629 1.442169 -0.719606 20 19 14 5 5
0.744210 1.445335 -0.708600 20 19 15 5 5
0.893511 2.066348 -1.166553 39 38 37 7 3
0.897954 2.067007 -1.157716 24 20 19 7 3
0.888702 2.059024 -1.148094 25 24 23 7 3
0.869296 2.042673 -1.170620 20 22 21 7 3
0.875953 2.045270 -1.157183 20 20 16 7 3
0.750693 1.705634 -0.861255 42 46 36 5 5
0.724211 1.822835 -1.011830 49 50 48 5 5
0.710314 1.835538 -1.054244 61 65 63 5 5
0.711170 1.836160 -1.035644 50 43 43 5 5
0.721824 1.824969 -1.028800 26 31 30 5 5
0.688154 2.198475 -1.287389 41 37 32 2 1
0.479617 2.058854 -0.849520 62 61 61 5 4
0.476812 2.097975 -0.850177 60 58 58 5 4
0.804190 2.123853 -1.296818 44 46 49 2 1
0.818186 2.157533 -1.297612 40 38 47 2 1
0.817955 2.140197 -1.296294 42 42 41 2 1
0.969615 2.118071 -0.998617 19 18 12 7 3
0.975316 2.120594 -0.976172 20 19 15 7 3
0.740366 2.092584 -1.289724 44 40 39 2 1
0.751538 2.093010 -1.295559 49 47 42 2 1
0.757891 2.117966 -1.294268 48 48 41 2 1
1.001390 1.484435 -0.887759 75 62 48 5 5
0.965786 2.127872 -0.922859 20 17 13 7 3
0.962138 2.136861 -0.914062 20 17 13 7 3
0.811654 1.631618 -0.862749 59 59 58 5 5
0.884250 1.619609 -0.866278 30 29 39 5 5
0.904915 1.656191 -0.862793 34 37 47 5 5
0.579254 2.098178 -0.892605 59 60 54 5 4
0.568233 2.113516 -0.878162 52 53 47 5 4
0.561234 2.122643 -0.871336 64 63 60 5 4
0.576546 2.097486 -0.882087 48 45 40 5 4
0.833294 2.010171 -1.299273 35 32 31 2 1
0.817623 2.015013 -1.294217 37 36 39 2 1
0.838881 2.029829 -1.300161 37 35 33 2 1
0.517145 1.987841 -0.908213 44 43 36 5 4
0.499073 1.993089 -0.912896 50 45 39 5 4
0.831954 2.068647 -1.172235 20 21 25 7 3
0.772816 1.875335 -0.889858 40 35 32 5 5
0.792026 1.860069 -0.866664 32 27 25 5 5
1.086583 1.499931 -0.890594 23 24 26 5 5
1.072858 1.506860 -0.887216 69 75 76 5 5
