ply
format ascii 1.0
element vertex 1089
property float x
property float y
property float z
property uchar red
property uchar green
property uchar blue
property uchar semantic_label
property uchar instance_label
end_header
-0.215176 0.454668 -0.635037 245 226 209 7 3
-0.231693 0.450715 -0.633860 241 222 204 7 3
-0.316350 0.459781 -0.634470 134 105 78 7 3
-0.341622 0.491510 -0.629195 30 44 74 7 3
-0.323745 0.501531 -0.635698 145 117 89 7 3
-0.332194 0.470538 -0.632546 62 63 71 7 3
-0.245724 0.213920 -0.635629 233 213 188 7 3
-0.248519 0.190442 -0.657676 248 232 210 7 3
-0.261652 0.178626 -0.657945 241 223 201 7 3
-0.322258 0.607862 -0.609150 76 93 138 7 3
-0.314654 0.602761 -0.607379 192 211 241 7 3
-0.332253 0.594961 -0.624120 157 150 161 7 3
-0.281942 0.196171 -0.659124 195 183 175 7 3
-0.328099 0.583961 -0.613590 106 119 164 7 3
-0.321229 0.555233 -0.628534 105 113 155 7 3
-0.323478 0.573712 -0.614714 188 182 187 7 3
-0.323267 0.584747 -0.610032 185 162 132 7 3
-0.301713 0.586641 -0.614612 169 154 135 7 3
-0.330089 0.573763 -0.626218 111 124 151 7 3
-0.324589 0.349283 -0.661757 200 185 174 7 3
-0.331669 0.370417 -0.660693 214 177 124 7 3
-0.332340 0.623538 -0.626279 174 165 166 7 3
-0.446492 0.353118 -0.640094 210 203 211 7 3
-0.440238 0.362872 -0.648834 187 177 189 7 3
-0.297880 0.286514 -0.635719 233 212 195 7 3
-0.231407 0.646873 -0.615492 139 108 67 7 3
-0.334710 0.249227 -0.656283 238 223 211 7 3
-0.384585 0.245906 -0.642753 217 198 181 7 3
-0.362499 0.251046 -0.642545 217 199 182 7 3
-0.370760 0.267509 -0.653369 224 206 192 7 3
-0.290393 0.575482 -0.612424 105 93 88 7 3
-0.292624 0.589910 -0.613431 154 143 142 7 3
-0.277010 0.571313 -0.613123 104 98 98 7 3
-0.291805 0.552351 -0.614257 203 201 215 7 3
-0.331419 0.708258 -0.628174 200 184 173 7 3
-0.283013 0.254160 -0.681271 119 116 114 7 3
-0.301003 0.236727 -0.671818 42 41 51 7 3
-0.294986 0.253319 -0.678439 49 47 49 7 3
-0.312496 0.481183 -0.667412 92 81 72 7 3
-0.337013 0.499064 -0.666344 75 89 117 7 3
-0.291380 0.221764 -0.636093 214 196 174 7 3
-0.275550 0.183568 -0.635790 215 194 172 7 3
-0.293356 0.185029 -0.655957 244 230 215 7 3
-0.328852 0.087597 -0.652889 192 171 151 7 3
-0.336977 0.102380 -0.640531 185 164 141 7 3
-0.323791 0.102169 -0.654380 225 206 186 7 3
-0.292565 0.105694 -0.654126 222 202 180 7 3
-0.282290 0.095069 -0.638391 198 174 148 7 3
-0.284601 0.110085 -0.638904 196 172 147 7 3
-0.281121 0.076581 -0.640477 197 174 148 7 3
-0.315296 0.083098 -0.638078 193 171 145 7 3
-0.350062 0.578400 -0.630375 205 191 187 7 3
-0.340700 0.596065 -0.627482 170 163 167 7 3
-0.359438 0.595668 -0.633091 210 215 228 7 3
-0.346380 0.627764 -0.628444 198 187 180 7 3
-0.228906 0.575176 -0.627379 231 195 125 7 3
-0.225088 0.589506 -0.626973 86 62 40 7 3
-0.283017 0.597779 -0.611735 199 191 183 7 3
-0.431490 0.447491 -0.641887 148 127 111 7 3
-0.444350 0.444808 -0.645972 148 130 112 7 3
-0.448292 0.433073 -0.645403 160 142 127 7 3
-0.258170 0.493823 -0.628925 207 182 163 7 3
-0.246562 0.491798 -0.632435 238 202 133 7 3
-0.239105 0.526139 -0.630108 234 197 129 7 3
-0.321512 0.425569 -0.635133 200 161 98 7 3
-0.333316 0.408067 -0.639631 184 148 96 7 3
-0.198472 0.461025 -0.634168 245 225 204 7 3
-0.216774 0.480680 -0.633642 245 225 204 7 3
-0.193466 0.496202 -0.634270 243 222 201 7 3
-0.301323 0.328310 -0.635743 235 219 201 7 3
-0.305380 0.215764 -0.638066 225 206 184 7 3
-0.404465 0.493631 -0.651812 165 154 142 7 3
-0.424513 0.496638 -0.646182 165 154 142 7 3
-0.414361 0.503692 -0.646038 166 151 140 7 3
-0.413471 0.490098 -0.636977 190 183 169 7 3
-0.408429 0.506680 -0.640909 200 196 192 7 3
-0.328470 0.646336 -0.627042 153 147 152 7 3
-0.385228 0.039286 -0.646128 170 149 128 7 3
-0.373961 0.038556 -0.641378 170 149 129 7 3
-0.343951 0.065976 -0.651351 184 165 141 7 3
-0.366763 0.055825 -0.650063 185 166 144 7 3
-0.429008 0.394171 -0.644260 110 112 112 7 3
-0.409505 0.414382 -0.642916 105 82 65 7 3
-0.430181 0.388638 -0.650830 109 109 109 7 3
-0.428082 0.417142 -0.650299 109 112 110 7 3
-0.408454 0.415308 -0.654124 115 95 87 7 3
-0.429207 0.412470 -0.646081 144 136 111 7 3
-0.423372 0.395695 -0.638968 110 109 109 7 3
-0.422721 0.421213 -0.633359 156 139 120 7 3
-0.399586 0.424707 -0.645645 116 93 78 7 3
-0.424249 0.431841 -0.627668 176 163 152 7 3
-0.415290 0.436356 -0.655776 103 98 84 7 3
-0.432855 0.238491 -0.641895 197 180 167 7 3
-0.398962 0.237486 -0.655109 217 201 186 7 3
-0.407586 0.247720 -0.653837 227 214 202 7 3
-0.429816 0.243610 -0.651573 202 182 169 7 3
-0.436090 0.237978 -0.650086 199 182 168 7 3
-0.430150 0.257684 -0.652153 212 196 180 7 3
-0.421600 0.239503 -0.641033 188 171 153 7 3
-0.379254 0.602184 -0.654643 148 160 173 7 3
-0.248319 0.588857 -0.615006 91 78 69 7 3
-0.259397 0.622729 -0.616131 77 68 67 7 3
-0.262571 0.584949 -0.612499 102 95 99 7 3
-0.267699 0.603095 -0.613840 97 91 91 7 3
-0.296057 0.245439 -0.636065 234 214 195 7 3
-0.274073 0.246716 -0.635191 233 214 192 7 3
-0.294142 0.272202 -0.635024 230 211 189 7 3
-0.230628 0.546194 -0.629921 234 197 130 7 3
-0.218437 0.552810 -0.626643 240 204 139 7 3
-0.375761 0.282858 -0.653292 230 214 200 7 3
-0.362442 0.297799 -0.643850 223 206 191 7 3
-0.351639 0.267462 -0.640512 224 206 190 7 3
-0.348115 0.267429 -0.654534 231 214 201 7 3
-0.337380 0.287014 -0.655767 233 218 206 7 3
-0.355571 0.293352 -0.654028 235 220 207 7 3
-0.190864 0.149620 -0.637347 233 210 184 7 3
-0.209728 0.157721 -0.637769 234 213 184 7 3
-0.279798 0.182194 -0.656268 197 203 235 7 3
-0.264741 0.192935 -0.661508 207 221 249 7 3
-0.350812 0.151597 -0.642645 192 171 150 7 3
-0.357574 0.146249 -0.653664 198 180 157 7 3
-0.368577 0.167981 -0.652948 198 178 159 7 3
-0.240232 0.289833 -0.635584 243 226 202 7 3
-0.267439 0.330574 -0.635800 240 223 207 7 3
-0.300323 0.222960 -0.667522 54 57 71 7 3
-0.288057 0.212705 -0.663828 111 118 142 7 3
-0.264827 0.206889 -0.670579 168 177 207 7 3
-0.284511 0.228706 -0.673121 54 58 71 7 3
-0.318319 0.236953 -0.661097 141 134 135 7 3
-0.323694 0.250678 -0.659102 42 42 53 7 3
-0.309572 0.215674 -0.659863 46 48 59 7 3
-0.233943 0.560324 -0.628661 191 162 99 7 3
-0.251226 0.564044 -0.616617 191 162 99 7 3
-0.218699 0.563053 -0.625948 232 201 142 7 3
-0.215193 0.580902 -0.620956 189 151 91 7 3
-0.227049 0.411818 -0.636467 248 230 214 7 3
-0.304221 0.437042 -0.672063 76 67 59 7 3
-0.311080 0.465217 -0.670087 77 67 59 7 3
-0.319341 0.435354 -0.670504 114 135 180 7 3
-0.314101 0.448238 -0.671674 61 54 45 7 3
-0.320184 0.461142 -0.670218 142 169 218 7 3
-0.313519 0.239989 -0.638581 224 202 177 7 3
-0.333832 0.239322 -0.637373 223 202 181 7 3
-0.328902 0.276883 -0.638776 227 208 192 7 3
-0.330444 0.268527 -0.655898 236 220 208 7 3
-0.366034 0.628443 -0.633346 186 205 240 7 3
-0.357524 0.615121 -0.629830 226 206 187 7 3
-0.349619 0.517514 -0.642561 136 154 191 7 3
-0.355067 0.496314 -0.650866 10 16 25 7 3
-0.353173 0.524678 -0.657312 27 51 100 7 3
-0.361785 0.525852 -0.650152 58 95 163 7 3
-0.358088 0.511519 -0.644677 156 187 227 7 3
-0.364446 0.528843 -0.646907 113 149 207 7 3
-0.344185 0.506103 -0.634226 65 83 127 7 3
-0.371013 0.521311 -0.654704 75 112 173 7 3
-0.307032 0.346293 -0.634982 237 220 206 7 3
-0.230433 0.665653 -0.615464 130 136 113 7 3
-0.236949 0.680704 -0.618388 158 140 117 7 3
-0.247094 0.667470 -0.619864 153 145 136 7 3
-0.264503 0.380443 -0.635373 237 217 193 7 3
-0.285878 0.396862 -0.634596 235 211 183 7 3
-0.232545 0.509403 -0.629364 231 208 172 7 3
-0.224669 0.525387 -0.625814 239 211 177 7 3
-0.211057 0.520468 -0.630725 244 218 186 7 3
-0.240911 0.507356 -0.629311 236 208 164 7 3
-0.219348 0.504011 -0.632151 237 215 190 7 3
-0.390898 0.101923 -0.638096 174 153 132 7 3
-0.398180 0.092231 -0.645693 181 162 143 7 3
-0.404626 0.100483 -0.650781 184 164 148 7 3
-0.381614 0.094525 -0.650361 196 178 159 7 3
-0.195196 0.392601 -0.636407 252 237 217 7 3
-0.234193 0.367470 -0.636263 250 233 213 7 3
-0.230038 0.395242 -0.635942 248 231 211 7 3
-0.256295 0.233856 -0.674168 178 191 214 7 3
-0.250826 0.217812 -0.667654 136 98 57 7 3
-0.390929 0.313845 -0.643928 209 189 176 7 3
-0.397591 0.320553 -0.646163 161 152 153 7 3
-0.380322 0.328357 -0.644892 193 179 166 7 3
-0.360785 0.335764 -0.645029 213 194 180 7 3
-0.385061 0.298540 -0.653260 227 211 205 7 3
-0.380220 0.324183 -0.650334 217 202 198 7 3
-0.374545 0.309418 -0.652680 215 199 188 7 3
-0.367476 0.621367 -0.664820 138 151 162 7 3
-0.372962 0.644941 -0.665707 156 168 184 7 3
-0.168350 0.198427 -0.657364 189 166 143 7 3
-0.193147 0.231324 -0.669413 139 95 55 7 3
-0.267409 0.627144 -0.614291 212 208 208 7 3
-0.252535 0.642273 -0.618589 180 178 159 7 3
-0.239107 0.640602 -0.613860 52 55 48 7 3
-0.234931 0.102941 -0.655334 232 213 186 7 3
-0.268364 0.094100 -0.655236 221 202 175 7 3
-0.242254 0.098124 -0.638402 209 185 156 7 3
-0.255054 0.114574 -0.638753 207 185 158 7 3
-0.202448 0.432824 -0.634974 248 230 213 7 3
-0.338640 0.041435 -0.650413 186 165 139 7 3
-0.308075 0.054286 -0.650569 198 174 149 7 3
-0.302516 0.070683 -0.639414 187 165 140 7 3
-0.332438 0.068590 -0.640611 184 163 139 7 3
-0.323324 0.064374 -0.652558 195 173 147 7 3
-0.325538 0.437808 -0.634412 156 124 79 7 3
-0.343303 0.430757 -0.638439 87 78 70 7 3
-0.329876 0.425469 -0.661016 152 118 83 7 3
-0.351805 0.465803 -0.636760 60 62 67 7 3
-0.319463 0.448164 -0.633998 161 127 86 7 3
-0.331059 0.487160 -0.669874 10 13 20 7 3
-0.341491 0.471323 -0.659555 6 12 22 7 3
-0.371625 0.661599 -0.668050 146 163 178 7 3
-0.372489 0.691134 -0.671113 131 140 170 7 3
-0.386505 0.138993 -0.654067 187 167 146 7 3
-0.398768 0.122796 -0.640723 178 158 140 7 3
-0.393181 0.114367 -0.652537 191 173 158 7 3
-0.370723 0.138052 -0.641120 186 168 149 7 3
-0.397472 0.140277 -0.640563 179 160 141 7 3
-0.344894 0.452279 -0.654076 128 103 86 7 3
-0.351272 0.453476 -0.648400 69 66 75 7 3
-0.351950 0.436745 -0.636054 54 57 76 7 3
-0.343161 0.450758 -0.637473 40 50 72 7 3
-0.354928 0.456047 -0.636983 56 73 113 7 3
-0.285039 0.292667 -0.634850 242 224 208 7 3
-0.250322 0.346461 -0.635637 243 226 205 7 3
-0.240787 0.169795 -0.656153 248 233 214 7 3
-0.251832 0.152915 -0.638685 219 197 170 7 3
-0.202159 0.624467 -0.620066 152 119 88 7 3
-0.347255 0.532710 -0.635125 181 200 240 7 3
-0.359522 0.545091 -0.646376 94 112 147 7 3
-0.359093 0.566477 -0.643134 177 193 228 7 3
-0.334095 0.570213 -0.628903 105 115 130 7 3
-0.339329 0.264780 -0.637308 225 207 190 7 3
-0.317020 0.273162 -0.638416 227 210 187 7 3
-0.323736 0.291525 -0.639898 229 211 195 7 3
-0.307448 0.309305 -0.636087 232 213 196 7 3
-0.428020 0.148260 -0.646289 172 153 137 7 3
-0.429514 0.166681 -0.650159 178 160 144 7 3
-0.416518 0.178728 -0.652313 183 165 146 7 3
-0.406360 0.166230 -0.654228 183 163 143 7 3
-0.413678 0.155760 -0.642293 182 163 144 7 3
-0.420959 0.170606 -0.642814 182 162 143 7 3
-0.417148 0.134664 -0.640040 176 156 138 7 3
-0.424147 0.138234 -0.650020 186 169 154 7 3
-0.404956 0.146260 -0.651980 189 171 156 7 3
-0.311067 0.424699 -0.675564 159 174 211 7 3
-0.318421 0.418536 -0.668445 130 147 182 7 3
-0.339949 0.403451 -0.657544 214 178 123 7 3
-0.322320 0.402026 -0.667468 141 155 183 7 3
-0.434003 0.461768 -0.646060 143 123 102 7 3
-0.422748 0.476396 -0.636715 200 195 196 7 3
-0.416457 0.480306 -0.633024 219 219 222 7 3
-0.423271 0.479459 -0.650152 160 145 128 7 3
-0.428155 0.475444 -0.645842 150 136 116 7 3
-0.409956 0.475330 -0.653850 182 165 145 7 3
-0.409040 0.474634 -0.637954 188 172 151 7 3
-0.277948 0.655990 -0.609481 148 151 140 7 3
-0.302846 0.626893 -0.605971 193 198 220 7 3
-0.285501 0.632712 -0.609495 198 184 167 7 3
-0.356525 0.405666 -0.649862 84 76 82 7 3
-0.349991 0.414937 -0.653764 135 109 83 7 3
-0.353601 0.431185 -0.648657 79 73 79 7 3
-0.355955 0.418313 -0.639052 56 56 72 7 3
-0.345454 0.412492 -0.640219 135 107 76 7 3
-0.447012 0.340528 -0.645633 196 183 178 7 3
-0.440581 0.300155 -0.641268 208 188 178 7 3
-0.445115 0.310407 -0.645681 200 182 172 7 3
-0.445119 0.329599 -0.650454 199 183 179 7 3
-0.439016 0.316724 -0.641285 204 184 174 7 3
-0.377247 0.052438 -0.641657 172 151 130 7 3
-0.392757 0.074040 -0.647002 172 151 131 7 3
-0.383622 0.085436 -0.641977 175 152 131 7 3
-0.384657 0.056199 -0.646153 174 151 131 7 3
-0.372067 0.076907 -0.650476 175 154 133 7 3
-0.388588 0.189358 -0.643415 190 172 153 7 3
-0.397815 0.180127 -0.654267 221 204 192 7 3
-0.330678 0.311261 -0.657760 224 210 198 7 3
-0.314803 0.311589 -0.664191 90 86 82 7 3
-0.319005 0.328227 -0.663986 80 73 67 7 3
-0.353698 0.181471 -0.654280 227 211 194 7 3
-0.317040 0.166815 -0.654759 238 224 210 7 3
-0.307225 0.195994 -0.638396 212 193 171 7 3
-0.226848 0.235293 -0.635712 244 227 200 7 3
-0.213192 0.217139 -0.635564 243 223 196 7 3
-0.322999 0.206126 -0.638364 224 204 184 7 3
-0.337474 0.225284 -0.638687 222 203 184 7 3
-0.325093 0.222980 -0.657474 241 225 211 7 3
-0.283039 0.515484 -0.621099 218 187 159 7 3
-0.295022 0.523108 -0.622837 196 172 148 7 3
-0.305001 0.527350 -0.629685 215 189 159 7 3
-0.386078 0.223846 -0.643045 192 175 154 7 3
-0.320299 0.281152 -0.660384 39 41 48 7 3
-0.310377 0.294385 -0.665717 143 143 149 7 3
-0.327044 0.484690 -0.634571 34 41 72 7 3
-0.326778 0.526382 -0.634148 138 112 88 7 3
-0.335176 0.511804 -0.633762 59 63 83 7 3
-0.265035 0.516353 -0.617417 190 155 95 7 3
-0.198429 0.087091 -0.654615 226 205 177 7 3
-0.199116 0.073493 -0.650044 217 194 163 7 3
-0.175199 0.095056 -0.653439 217 193 162 7 3
-0.196738 0.088680 -0.642395 218 194 163 7 3
-0.284653 0.487507 -0.632166 219 183 137 7 3
-0.303948 0.477763 -0.632056 195 155 102 7 3
-0.262902 0.484832 -0.632892 225 196 171 7 3
-0.287069 0.445111 -0.633869 234 209 188 7 3
-0.311928 0.461989 -0.633393 220 185 129 7 3
-0.392283 0.153116 -0.641480 183 163 146 7 3
-0.378373 0.161149 -0.642549 184 163 145 7 3
-0.395682 0.169045 -0.641979 182 162 143 7 3
-0.381469 0.155910 -0.653067 197 175 157 7 3
-0.377918 0.192308 -0.654224 218 201 187 7 3
-0.369109 0.218162 -0.655142 232 216 203 7 3
-0.350777 0.220739 -0.655072 242 229 218 7 3
-0.369383 0.230338 -0.643098 206 186 169 7 3
-0.330444 0.190018 -0.640564 208 190 171 7 3
-0.351993 0.219014 -0.641266 205 187 167 7 3
-0.206780 0.368284 -0.636458 251 237 217 7 3
-0.210049 0.253093 -0.636523 245 226 201 7 3
-0.236537 0.249795 -0.635847 245 225 206 7 3
-0.210151 0.628206 -0.626852 78 59 33 7 3
-0.214288 0.648288 -0.625800 75 55 30 7 3
-0.216480 0.624660 -0.627722 75 55 30 7 3
-0.371766 0.307589 -0.645234 222 203 189 7 3
-0.383813 0.286774 -0.643350 221 202 189 7 3
-0.394379 0.268162 -0.653190 213 196 181 7 3
-0.226315 0.081475 -0.654386 239 219 193 7 3
-0.213308 0.107105 -0.638093 209 183 154 7 3
-0.234143 0.076894 -0.643053 206 180 150 7 3
-0.272204 0.470721 -0.632585 233 207 189 7 3
-0.308555 0.248525 -0.671551 40 44 52 7 3
-0.309739 0.260410 -0.665107 39 43 48 7 3
-0.233302 0.471566 -0.633803 234 214 200 7 3
-0.232718 0.490469 -0.631600 233 211 189 7 3
-0.326555 0.188340 -0.655109 212 194 174 7 3
-0.341380 0.186264 -0.641306 196 179 159 7 3
-0.358323 0.186904 -0.642615 196 176 155 7 3
-0.335171 0.208856 -0.655993 237 224 210 7 3
-0.214983 0.291766 -0.636498 250 234 209 7 3
-0.212682 0.270362 -0.635823 249 233 207 7 3
-0.330875 0.117717 -0.637275 191 170 150 7 3
-0.314958 0.684056 -0.606673 217 219 231 7 3
-0.322570 0.681825 -0.622721 116 124 132 7 3
-0.325963 0.688917 -0.626118 138 132 138 7 3
-0.316205 0.702976 -0.609728 60 66 95 7 3
-0.430655 0.226431 -0.655850 203 188 177 7 3
-0.444907 0.224941 -0.650007 187 170 153 7 3
-0.436757 0.192137 -0.646014 173 155 142 7 3
-0.441875 0.221021 -0.645830 186 168 154 7 3
-0.441373 0.208056 -0.650831 187 169 155 7 3
-0.371212 0.617936 -0.662172 157 171 185 7 3
-0.358271 0.588947 -0.665740 136 153 171 7 3
-0.253353 0.446470 -0.634485 243 224 206 7 3
-0.269380 0.410764 -0.635896 241 218 197 7 3
-0.363256 0.648604 -0.629860 217 218 222 7 3
-0.371728 0.662264 -0.633356 214 219 233 7 3
-0.366547 0.674532 -0.630297 216 220 229 7 3
-0.304380 0.171639 -0.638611 215 195 175 7 3
-0.273000 0.158054 -0.655351 245 231 217 7 3
-0.279593 0.156535 -0.638183 218 198 174 7 3
-0.336627 0.514565 -0.668937 44 54 73 7 3
-0.332309 0.500062 -0.671176 9 17 34 7 3
-0.321790 0.488717 -0.673273 111 124 145 7 3
-0.304807 0.561598 -0.623312 157 143 123 7 3
-0.218662 0.324108 -0.636561 249 231 206 7 3
-0.244756 0.311389 -0.635899 245 228 207 7 3
-0.247103 0.613831 -0.611003 73 59 50 7 3
-0.232965 0.628072 -0.617347 73 57 42 7 3
-0.231613 0.344601 -0.635914 248 232 212 7 3
-0.344422 0.537640 -0.666573 60 107 183 7 3
-0.366401 0.560590 -0.657457 136 155 172 7 3
-0.210827 0.676144 -0.623813 199 156 100 7 3
-0.182509 0.689139 -0.624183 210 182 151 7 3
-0.227151 0.693119 -0.617141 46 49 58 7 3
-0.305382 0.694659 -0.604549 174 189 220 7 3
-0.286995 0.683340 -0.605279 236 199 174 7 3
-0.317380 0.371764 -0.636393 215 177 122 7 3
-0.318969 0.406480 -0.635683 208 173 111 7 3
-0.305689 0.375173 -0.634502 209 175 121 7 3
-0.331911 0.374594 -0.639867 215 185 145 7 3
-0.378415 0.706522 -0.670963 154 169 181 7 3
-0.409525 0.101607 -0.639074 171 151 133 7 3
-0.411284 0.092163 -0.644164 157 139 123 7 3
-0.415833 0.099301 -0.650232 177 159 142 7 3
-0.260988 0.674051 -0.615716 178 175 181 7 3
-0.269300 0.687576 -0.611123 176 169 177 7 3
-0.254431 0.692038 -0.617901 180 174 176 7 3
-0.314863 0.642184 -0.605847 194 206 238 7 3
-0.320365 0.632313 -0.609170 110 129 172 7 3
-0.324343 0.626340 -0.621336 113 121 143 7 3
-0.275422 0.059197 -0.650179 198 173 146 7 3
-0.301172 0.072810 -0.654311 198 176 150 7 3
-0.291400 0.053949 -0.650079 199 174 149 7 3
-0.398444 0.428892 -0.650128 103 92 99 7 3
-0.380589 0.234311 -0.653957 229 215 202 7 3
-0.361250 0.243437 -0.655074 219 203 188 7 3
-0.386775 0.275306 -0.652378 215 196 180 7 3
-0.368924 0.269486 -0.644137 214 196 181 7 3
-0.421620 0.377479 -0.652539 126 115 118 7 3
-0.412900 0.376060 -0.650106 107 97 107 7 3
-0.406626 0.389099 -0.644914 109 97 110 7 3
-0.405967 0.399447 -0.645489 89 79 92 7 3
-0.425361 0.379621 -0.636472 143 135 143 7 3
-0.435072 0.369422 -0.641592 167 159 167 7 3
-0.434753 0.386130 -0.646113 156 149 155 7 3
-0.419124 0.396637 -0.655014 126 114 105 7 3
-0.406409 0.400438 -0.650172 95 79 78 7 3
-0.227550 0.268154 -0.682478 113 84 49 7 3
-0.232635 0.243380 -0.676151 114 83 51 7 3
-0.383311 0.115341 -0.637851 182 162 143 7 3
-0.371955 0.129970 -0.654062 191 172 152 7 3
-0.347756 0.113396 -0.653766 193 174 153 7 3
-0.342068 0.112887 -0.638568 189 170 148 7 3
-0.364332 0.534459 -0.659697 105 128 163 7 3
-0.383703 0.552972 -0.650902 121 139 153 7 3
-0.384858 0.543359 -0.640984 139 164 181 7 3
-0.382440 0.559529 -0.642377 76 88 107 7 3
-0.384459 0.537225 -0.647820 108 124 136 7 3
-0.387957 0.555075 -0.646046 85 96 105 7 3
-0.398531 0.470021 -0.642499 164 127 79 7 3
-0.391212 0.454772 -0.649990 131 107 86 7 3
-0.396137 0.451993 -0.646327 143 111 94 7 3
-0.424628 0.468672 -0.627334 179 168 162 7 3
-0.417282 0.469212 -0.631678 207 186 179 7 3
-0.432914 0.458707 -0.650349 160 143 120 7 3
-0.418072 0.449731 -0.654224 146 135 117 7 3
-0.427552 0.435476 -0.640440 156 143 128 7 3
-0.424254 0.442927 -0.628013 175 164 154 7 3
-0.435372 0.441059 -0.649797 151 138 113 7 3
-0.424161 0.440127 -0.651731 158 138 115 7 3
-0.433353 0.432308 -0.646333 162 150 126 7 3
-0.406250 0.436478 -0.655410 152 116 77 7 3
-0.403100 0.460615 -0.654486 141 106 72 7 3
-0.426188 0.455841 -0.636066 168 153 136 7 3
-0.411798 0.450033 -0.639778 136 106 68 7 3
-0.417934 0.344129 -0.645813 175 168 174 7 3
-0.443533 0.339078 -0.640310 172 164 167 7 3
-0.434165 0.364516 -0.636995 166 162 168 7 3
-0.425565 0.349934 -0.652528 137 133 149 7 3
-0.418890 0.338648 -0.650015 153 149 167 7 3
-0.412694 0.365767 -0.645658 185 179 182 7 3
-0.255343 0.061960 -0.650219 204 180 151 7 3
-0.279713 0.053724 -0.646484 198 174 144 7 3
-0.252115 0.060961 -0.645947 197 172 144 7 3
-0.262087 0.075418 -0.640689 198 174 144 7 3
-0.263330 0.075274 -0.654058 209 185 156 7 3
-0.325380 0.359514 -0.639118 232 216 202 7 3
-0.206128 0.277184 -0.680573 100 78 47 7 3
-0.210845 0.267764 -0.681124 89 66 44 7 3
-0.180822 0.273245 -0.681092 88 66 45 7 3
-0.390967 0.211663 -0.654465 232 218 207 7 3
-0.419369 0.213518 -0.654186 227 213 202 7 3
-0.407146 0.225087 -0.641086 192 171 154 7 3
-0.293242 0.421430 -0.634558 226 188 133 7 3
-0.337667 0.547504 -0.630632 90 94 117 7 3
-0.339573 0.531994 -0.631195 153 149 159 7 3
-0.304940 0.546177 -0.630290 192 161 129 7 3
-0.324170 0.536017 -0.631969 186 174 165 7 3
-0.443591 0.282166 -0.646032 198 178 165 7 3
-0.442595 0.278607 -0.650758 199 179 165 7 3
-0.445858 0.302975 -0.650133 204 186 175 7 3
-0.179404 0.209598 -0.635976 243 223 195 7 3
-0.188387 0.180308 -0.637337 246 226 201 7 3
-0.275287 0.241384 -0.677621 173 172 189 7 3
-0.263203 0.260498 -0.682118 110 91 53 7 3
-0.239547 0.268929 -0.682293 92 73 53 7 3
-0.417164 0.310305 -0.652511 228 214 206 7 3
-0.438237 0.314018 -0.652734 173 163 165 7 3
-0.412746 0.308599 -0.641755 168 157 149 7 3
-0.424049 0.302141 -0.641128 177 169 168 7 3
-0.431339 0.335465 -0.653461 183 173 176 7 3
-0.406497 0.320127 -0.650280 145 137 152 7 3
-0.429500 0.326994 -0.642562 177 167 169 7 3
-0.415064 0.324889 -0.645832 163 157 161 7 3
-0.427788 0.346591 -0.642295 161 149 148 7 3
-0.383432 0.512588 -0.641105 175 136 86 7 3
-0.384559 0.494850 -0.645033 179 141 102 7 3
-0.387521 0.495530 -0.652023 177 141 91 7 3
-0.396345 0.507889 -0.650950 177 141 91 7 3
-0.379865 0.525325 -0.640844 163 135 97 7 3
-0.374857 0.511272 -0.650659 61 109 184 7 3
-0.385161 0.513008 -0.649788 126 121 132 7 3
-0.390177 0.522770 -0.646396 165 136 95 7 3
-0.206733 0.148798 -0.656378 245 227 201 7 3
-0.209491 0.099832 -0.655435 251 233 208 7 3
-0.206954 0.133015 -0.637703 219 198 169 7 3
-0.424021 0.132564 -0.645954 166 149 134 7 3
-0.407599 0.121994 -0.639566 176 158 141 7 3
-0.423688 0.112362 -0.650367 181 162 144 7 3
-0.423406 0.104697 -0.645577 153 137 121 7 3
-0.417253 0.122316 -0.641589 170 153 136 7 3
-0.360895 0.319068 -0.643352 226 206 192 7 3
-0.346900 0.317334 -0.637524 230 211 197 7 3
-0.350929 0.332378 -0.637357 228 208 195 7 3
-0.345881 0.299002 -0.637502 229 211 197 7 3
-0.355314 0.320009 -0.653556 229 212 198 7 3
-0.353390 0.465884 -0.648399 45 59 95 7 3
-0.349001 0.491805 -0.641283 54 70 108 7 3
-0.347801 0.498604 -0.658888 10 12 24 7 3
-0.354517 0.487269 -0.646185 33 44 66 7 3
-0.347541 0.497082 -0.633560 61 77 125 7 3
-0.346211 0.474124 -0.633036 40 49 77 7 3
-0.380131 0.646197 -0.660718 144 160 175 7 3
-0.374830 0.637984 -0.645814 181 204 242 7 3
-0.389640 0.647312 -0.650914 148 157 172 7 3
-0.388712 0.630205 -0.645408 124 138 155 7 3
-0.387164 0.650684 -0.646812 141 159 185 7 3
-0.260864 0.536980 -0.616226 157 130 80 7 3
-0.274801 0.540941 -0.616360 50 44 51 7 3
-0.261816 0.562589 -0.612836 91 90 97 7 3
-0.298811 0.568788 -0.619333 215 214 241 7 3
-0.292773 0.538183 -0.620809 202 206 216 7 3
-0.443847 0.375784 -0.648841 166 163 172 7 3
-0.443867 0.368005 -0.639424 179 173 184 7 3
-0.347203 0.098860 -0.650498 193 171 150 7 3
-0.351246 0.056906 -0.641844 182 164 141 7 3
-0.365592 0.094619 -0.642822 182 162 141 7 3
-0.350662 0.087639 -0.642626 184 165 141 7 3
-0.367080 0.359550 -0.645943 165 148 127 7 3
-0.349922 0.364462 -0.654246 218 189 153 7 3
-0.371603 0.344073 -0.644734 182 165 151 7 3
-0.336561 0.331654 -0.656517 226 204 185 7 3
-0.368911 0.342945 -0.650049 192 178 168 7 3
-0.366395 0.355414 -0.641780 159 145 132 7 3
-0.339381 0.361264 -0.639612 229 213 205 7 3
-0.337880 0.336264 -0.639249 230 210 196 7 3
-0.358498 0.357595 -0.638362 225 206 189 7 3
-0.353334 0.373566 -0.636603 181 160 132 7 3
-0.338380 0.669514 -0.628563 186 173 165 7 3
-0.347505 0.705108 -0.629596 224 202 178 7 3
-0.256281 0.189343 -0.635880 234 214 187 7 3
-0.226965 0.189737 -0.635941 235 213 184 7 3
-0.218400 0.194183 -0.657572 252 236 212 7 3
-0.352895 0.562279 -0.634433 185 210 246 7 3
-0.365394 0.572477 -0.644929 167 186 219 7 3
-0.373824 0.546007 -0.653581 108 125 147 7 3
-0.373562 0.574652 -0.654633 116 133 151 7 3
-0.202051 0.584037 -0.623408 205 175 125 7 3
-0.211684 0.601471 -0.619436 67 59 46 7 3
-0.184464 0.616807 -0.621318 233 194 126 7 3
-0.323776 0.313999 -0.640271 235 217 202 7 3
-0.228062 0.227587 -0.669794 132 94 51 7 3
-0.242477 0.209009 -0.662308 224 206 184 7 3
-0.222675 0.214736 -0.663509 250 233 211 7 3
-0.398360 0.507316 -0.642378 162 135 106 7 3
-0.382742 0.489164 -0.650065 175 136 94 7 3
-0.392807 0.479132 -0.656101 170 134 85 7 3
-0.288142 0.140530 -0.638414 207 185 160 7 3
-0.261695 0.126182 -0.637975 219 197 170 7 3
-0.264132 0.115741 -0.654863 220 199 171 7 3
-0.257706 0.136590 -0.655845 231 212 188 7 3
-0.236233 0.132223 -0.637866 206 186 160 7 3
-0.437467 0.237144 -0.645854 197 180 166 7 3
-0.438982 0.267746 -0.644658 197 179 166 7 3
-0.310168 0.046762 -0.645339 188 164 140 7 3
-0.332746 0.039752 -0.645188 177 155 132 7 3
-0.435828 0.185982 -0.650341 176 158 143 7 3
-0.239440 0.061138 -0.650054 216 191 161 7 3
-0.235363 0.072743 -0.652203 206 180 150 7 3
-0.235188 0.063352 -0.646381 204 179 147 7 3
-0.220835 0.063536 -0.649934 206 181 149 7 3
-0.212531 0.075458 -0.645099 206 180 151 7 3
-0.360459 0.025563 -0.646157 170 149 130 7 3
-0.347416 0.031776 -0.646444 177 155 132 7 3
-0.370118 0.043011 -0.649457 176 154 134 7 3
-0.349331 0.038003 -0.642819 176 154 133 7 3
-0.326215 0.165304 -0.641148 201 182 160 7 3
-0.313969 0.151365 -0.639334 202 182 158 7 3
-0.337040 0.162215 -0.641495 191 170 149 7 3
-0.347041 0.164301 -0.653456 225 209 192 7 3
-0.319679 0.140318 -0.655112 241 227 215 7 3
-0.340340 0.144595 -0.655247 220 202 184 7 3
-0.214373 0.242564 -0.672596 120 82 45 7 3
-0.187219 0.250704 -0.673445 139 99 56 7 3
-0.357375 0.384003 -0.649295 111 96 74 7 3
-0.360672 0.362655 -0.650560 151 121 83 7 3
-0.344254 0.388127 -0.638879 188 155 119 7 3
-0.363193 0.365882 -0.643550 123 102 81 7 3
-0.361639 0.398612 -0.640519 90 71 78 7 3
-0.358166 0.388654 -0.639830 98 79 73 7 3
-0.350816 0.381158 -0.654298 180 142 89 7 3
-0.404215 0.273943 -0.642689 212 193 179 7 3
-0.423808 0.264867 -0.640492 198 179 165 7 3
-0.400653 0.289417 -0.652468 222 206 193 7 3
-0.417197 0.297955 -0.653223 207 191 178 7 3
-0.421571 0.282696 -0.652936 212 193 180 7 3
-0.388270 0.567404 -0.646789 36 35 38 7 3
-0.388597 0.568346 -0.641594 115 127 140 7 3
-0.302742 0.652375 -0.604302 216 216 214 7 3
-0.322685 0.660414 -0.623542 128 130 138 7 3
-0.320649 0.670265 -0.611009 62 71 105 7 3
-0.203668 0.670363 -0.625518 199 172 134 7 3
-0.193655 0.649281 -0.619591 194 165 134 7 3
-0.270260 0.213439 -0.635277 235 218 192 7 3
-0.221113 0.132165 -0.655300 246 229 206 7 3
-0.228670 0.122165 -0.638768 219 199 170 7 3
-0.396057 0.678569 -0.650619 107 112 114 7 3
-0.383440 0.680486 -0.663713 152 169 183 7 3
-0.391806 0.665659 -0.651623 151 167 188 7 3
-0.394387 0.687816 -0.646308 133 143 173 7 3
-0.387903 0.666952 -0.646523 169 190 229 7 3
-0.377934 0.666549 -0.642533 178 198 240 7 3
-0.376503 0.651683 -0.646839 179 198 239 7 3
-0.376772 0.682000 -0.634714 198 217 243 7 3
-0.385373 0.690180 -0.646207 173 196 233 7 3
-0.384792 0.706465 -0.641409 176 193 228 7 3
-0.402690 0.724617 -0.655467 144 157 171 7 3
-0.398721 0.690769 -0.649911 156 169 185 7 3
-0.198792 0.559013 -0.626886 243 221 194 7 3
-0.188772 0.516591 -0.634030 250 225 196 7 3
-0.195889 0.536517 -0.629728 245 223 193 7 3
-0.301433 0.120324 -0.637678 193 172 146 7 3
-0.289593 0.135301 -0.655438 230 212 189 7 3
-0.306711 0.109641 -0.638708 194 172 147 7 3
-0.307878 0.117798 -0.654955 222 204 181 7 3
-0.230407 1.151608 -1.310661 10 13 15 2 2
-0.218549 1.147272 -1.313160 38 36 35 2 2
-0.228365 1.179161 -1.311957 68 66 64 2 2
-0.340840 0.957443 -1.315767 109 112 106 2 2
-0.318082 0.947351 -1.314259 80 86 88 2 2
-0.360674 0.902656 -1.314635 46 50 58 2 2
-0.408784 0.898382 -1.314703 108 103 115 2 2
-0.371173 0.708586 -1.316863 46 52 60 2 2
-0.379556 0.751836 -1.316842 46 49 61 2 2
-0.328532 0.862942 -1.306681 20 28 49 2 2
-0.333025 0.853935 -1.304969 14 24 39 2 2
-0.308836 0.861924 -1.313345 13 19 37 2 2
-0.320619 0.706384 -1.318507 38 42 54 2 2
-0.360255 0.761481 -1.315645 40 43 55 2 2
-0.367173 0.852764 -1.313465 48 55 66 2 2
-0.361851 0.866691 -1.311593 49 55 65 2 2
-0.350395 0.870211 -1.310917 27 34 49 2 2
-0.265131 0.988139 -1.316832 36 43 55 2 2
-0.208098 0.921154 -1.316837 40 49 64 2 2
-0.311192 0.750787 -1.317091 39 47 59 2 2
-0.335999 0.756864 -1.316502 40 46 59 2 2
-0.299213 0.790192 -1.315983 30 39 53 2 2
-0.276186 0.747128 -1.312264 32 40 61 2 2
-0.285748 0.770524 -1.313680 30 39 61 2 2
-0.281932 0.789391 -1.311646 30 38 56 2 2
-0.277161 0.770625 -1.313326 32 41 65 2 2
-0.294747 0.762079 -1.315987 32 41 60 2 2
-0.440640 0.903671 -1.317837 96 102 110 2 2
-0.491108 0.802181 -1.316885 70 67 68 2 2
-0.267509 0.759372 -1.313925 41 49 71 2 2
-0.249018 0.780239 -1.311269 46 51 55 2 2
-0.271741 0.787408 -1.314490 53 55 61 2 2
-0.315344 0.970540 -1.317002 110 114 109 2 2
-0.306278 0.997560 -1.318528 97 108 106 2 2
-0.327606 0.988257 -1.317721 155 141 121 2 2
-0.321842 0.877696 -1.305924 26 32 59 2 2
-0.311036 0.880013 -1.312936 18 25 47 2 2
-0.313522 0.893426 -1.306919 27 35 63 2 2
-0.310431 0.913106 -1.310314 35 41 56 2 2
-0.331813 0.889827 -1.312522 35 42 60 2 2
-0.197276 0.860221 -1.316386 21 28 30 2 2
-0.219368 0.864391 -1.318643 25 25 20 2 2
-0.382460 0.843217 -1.314622 50 55 63 2 2
-0.302961 0.836946 -1.313892 19 21 31 2 2
-0.283921 0.855644 -1.313855 44 45 46 2 2
-0.275337 0.843552 -1.313021 44 44 43 2 2
-0.290504 0.829962 -1.313946 47 48 52 2 2
-0.224192 0.991077 -1.315340 39 48 56 2 2
-0.320150 0.924305 -1.314092 39 45 56 2 2
-0.337193 0.945422 -1.314553 75 83 86 2 2
-0.330564 0.911990 -1.315022 40 46 58 2 2
-0.433247 0.935782 -1.317825 105 102 105 2 2
-0.418248 0.925822 -1.316861 88 87 97 2 2
-0.283031 0.715918 -1.317122 30 39 58 2 2
-0.275883 0.738601 -1.310942 29 40 64 2 2
-0.286645 0.732739 -1.315944 27 37 57 2 2
-0.385123 0.738281 -1.316563 45 53 64 2 2
-0.364349 0.733064 -1.316308 45 51 62 2 2
-0.327337 0.739057 -1.318159 39 46 58 2 2
-0.279068 1.059859 -1.314960 44 51 61 2 2
-0.247098 1.060751 -1.314699 40 47 59 2 2
-0.248970 1.088059 -1.315083 40 46 57 2 2
-0.279264 1.028271 -1.316617 39 47 59 2 2
-0.254843 1.009450 -1.315934 35 43 55 2 2
-0.348022 0.988718 -1.317371 141 129 116 2 2
-0.355679 0.938337 -1.316409 43 48 56 2 2
-0.348539 0.895952 -1.314484 38 46 55 2 2
-0.194051 0.952979 -1.315805 46 52 62 2 2
-0.212662 0.973503 -1.314737 39 47 58 2 2
-0.271503 0.713664 -1.313089 28 37 60 2 2
-0.259114 0.728115 -1.316087 40 46 53 2 2
-0.413175 0.946778 -1.317075 144 137 120 2 2
-0.306145 1.071179 -1.314616 45 51 62 2 2
-0.436154 0.820674 -1.315565 46 51 61 2 2
-0.406384 0.846141 -1.315841 50 55 64 2 2
-0.426380 0.835764 -1.315621 49 54 63 2 2
-0.479291 0.722870 -1.317820 68 65 66 2 2
-0.471889 0.763802 -1.317917 80 75 74 2 2
-0.372391 0.937225 -1.315671 117 116 110 2 2
-0.396067 0.930457 -1.316867 124 112 112 2 2
-0.398497 0.972077 -1.316278 139 129 116 2 2
-0.367545 0.967677 -1.316958 149 139 121 2 2
-0.275750 0.817149 -1.313570 50 49 57 2 2
-0.259691 0.822556 -1.315944 52 51 50 2 2
-0.241969 0.954786 -1.315654 45 51 63 2 2
-0.223938 0.959148 -1.315384 42 49 64 2 2
-0.264928 0.806720 -1.314509 55 58 59 2 2
-0.510033 0.690038 -1.315722 77 75 76 2 2
-0.225852 1.092005 -1.314735 67 69 69 2 2
-0.212751 1.086364 -1.315180 45 54 63 2 2
-0.288610 0.994731 -1.317007 72 79 79 2 2
-0.295708 1.025719 -1.316658 73 77 79 2 2
-0.203974 1.045823 -1.314882 34 38 50 2 2
-0.270313 1.161306 -1.313804 74 73 71 2 2
-0.290170 1.154679 -1.314293 78 70 71 2 2
-0.192442 0.786227 -1.319469 27 29 33 2 2
-0.294739 1.106925 -1.314448 71 66 63 2 2
-0.286365 1.127727 -1.313092 70 66 62 2 2
-0.267650 1.113228 -1.311902 50 54 58 2 2
-0.213573 0.802967 -1.319247 28 31 35 2 2
-0.247293 0.930624 -1.317475 45 49 61 2 2
-0.273728 0.934077 -1.315394 45 51 63 2 2
-0.285507 0.808798 -1.310375 39 46 70 2 2
-0.299294 0.812511 -1.311369 16 25 33 2 2
-0.263648 1.139891 -1.312805 25 26 28 2 2
-0.239929 1.137079 -1.309725 10 11 15 2 2
-0.242218 1.122811 -1.310312 11 12 17 2 2
-0.305115 0.924496 -1.312108 45 49 61 2 2
-0.296798 0.914477 -1.311976 67 70 87 2 2
-0.322664 0.838742 -1.304754 23 29 55 2 2
-0.332741 0.835064 -1.305744 13 13 18 2 2
-0.312299 0.819338 -1.307889 14 14 22 2 2
-0.345448 0.851526 -1.309922 16 22 37 2 2
-0.421381 0.864764 -1.315792 53 57 68 2 2
-0.419693 0.884845 -1.315071 44 48 60 2 2
-0.201130 0.992764 -1.315458 41 46 56 2 2
-0.187630 1.020389 -1.315532 36 41 51 2 2
-0.188968 0.844214 -1.316173 27 29 31 2 2
-0.435792 0.750771 -1.317621 52 53 62 2 2
-0.402485 0.720541 -1.317028 48 52 62 2 2
-0.233948 0.876964 -1.318690 43 43 47 2 2
-0.256166 0.907819 -1.317623 44 46 54 2 2
-0.411662 0.992291 -1.316870 146 131 114 2 2
-0.228763 0.722540 -1.315123 43 46 52 2 2
-0.268989 0.895097 -1.318654 52 55 66 2 2
-0.279176 0.918615 -1.317600 54 55 66 2 2
-0.497880 0.779264 -1.316657 79 74 74 2 2
-0.277081 0.879907 -1.318962 44 43 43 2 2
-0.298724 0.885321 -1.312976 35 37 43 2 2
-0.299916 0.860276 -1.312875 27 28 32 2 2
-0.255445 0.844597 -1.317771 46 46 44 2 2
-0.266350 0.868608 -1.318288 48 47 51 2 2
-0.342556 0.803014 -1.314276 37 44 57 2 2
-0.346591 0.832567 -1.313397 36 44 56 2 2
-0.477854 0.782096 -1.316128 70 67 69 2 2
-0.460778 0.799197 -1.316822 68 63 65 2 2
-0.433887 0.783728 -1.318281 64 62 64 2 2
-0.236285 0.903469 -1.319930 38 35 40 2 2
-0.211288 0.893288 -1.318491 39 43 53 2 2
-0.228830 0.916507 -1.318384 43 47 56 2 2
-0.362694 0.994237 -1.317771 145 130 117 2 2
-0.377055 0.994564 -1.317189 145 131 112 2 2
-0.425140 0.759528 -1.317109 51 54 65 2 2
-0.401431 0.739459 -1.315892 49 52 65 2 2
-0.393204 0.758002 -1.316300 40 47 57 2 2
-0.245538 1.157174 -1.311766 68 65 67 2 2
-0.253758 1.168590 -1.314527 69 69 67 2 2
-0.214744 1.169282 -1.308426 62 59 59 2 2
-0.234053 1.188720 -1.314157 68 67 67 2 2
-0.217762 1.195751 -1.311568 73 69 67 2 2
-0.464700 0.832717 -1.317130 64 65 71 2 2
-0.223783 1.023077 -1.314868 36 45 55 2 2
-0.242026 0.998568 -1.316477 40 48 57 2 2
-0.429943 0.949825 -1.317137 120 111 104 2 2
-0.310086 0.943521 -1.315077 48 56 66 2 2
-0.289558 0.942512 -1.316828 49 56 67 2 2
-0.280525 0.956992 -1.317031 48 54 65 2 2
-0.388396 0.908467 -1.315279 49 53 63 2 2
-0.394603 0.870383 -1.315930 45 50 62 2 2
-0.380469 0.874133 -1.314757 46 52 63 2 2
-0.188721 1.111525 -1.314762 64 64 65 2 2
-0.186918 1.061777 -1.315248 46 54 64 2 2
-0.199152 1.165450 -1.313397 74 70 64 2 2
-0.200161 1.136378 -1.314824 70 62 45 2 2
-0.195282 1.155725 -1.314996 68 62 51 2 2
-0.229810 1.116513 -1.314709 58 52 36 2 2
-0.248091 1.105817 -1.313416 69 63 51 2 2
-0.216072 1.119529 -1.315485 57 53 32 2 2
-0.263814 0.954505 -1.317039 47 52 68 2 2
-0.204834 0.767639 -1.317436 29 31 35 2 2
-0.193984 0.751738 -1.319589 30 32 37 2 2
-0.189062 0.769092 -1.318377 30 31 31 2 2
-0.328486 0.770116 -1.316214 35 42 56 2 2
-0.380486 0.779887 -1.316009 40 45 57 2 2
-0.356130 0.781892 -1.315332 38 44 55 2 2
-0.415983 0.811661 -1.316224 48 51 60 2 2
-0.315430 1.026273 -1.317600 149 141 120 2 2
-0.324363 1.013315 -1.319057 148 137 118 2 2
-0.367815 1.053641 -1.319572 160 141 120 2 2
-0.358331 1.059086 -1.318767 153 140 114 2 2
-0.342140 1.042549 -1.317001 166 147 129 2 2
-0.334677 0.817956 -1.312623 26 32 42 2 2
-0.321703 0.809090 -1.311740 14 19 25 2 2
-0.324194 0.795716 -1.314263 35 41 54 2 2
-0.298899 0.802192 -1.315064 25 32 45 2 2
-0.302455 1.134922 -1.312775 74 69 65 2 2
-0.313630 1.088264 -1.315571 114 105 93 2 2
-0.321655 1.123446 -1.314985 157 134 112 2 2
-0.170898 0.970864 -1.316294 37 45 61 2 2
-0.510823 0.737531 -1.317054 82 77 78 2 2
-0.491067 0.751813 -1.318371 81 77 77 2 2
-0.395782 0.824030 -1.314886 47 53 62 2 2
-0.201856 1.191212 -1.312293 69 64 63 2 2
-0.191365 1.203207 -1.313976 73 71 71 2 2
-0.444139 0.723582 -1.316834 55 56 61 2 2
-0.467526 0.754264 -1.318045 72 68 71 2 2
-0.219663 1.055097 -1.314995 37 44 58 2 2
-0.383632 1.022047 -1.317555 156 137 123 2 2
-0.368743 1.026125 -1.318075 145 131 117 2 2
-0.347955 1.020847 -1.317616 143 125 114 2 2
-0.231638 0.813390 -1.316558 46 46 48 2 2
-0.235386 0.831156 -1.316373 30 29 27 2 2
-0.208691 0.818526 -1.318308 27 27 30 2 2
-0.242199 0.856847 -1.317661 31 31 29 2 2
-0.214856 0.837138 -1.319056 29 30 28 2 2
-0.309235 1.054004 -1.314463 144 131 112 2 2
-0.324842 1.047870 -1.317205 162 144 121 2 2
-0.208211 1.221725 -1.312151 67 61 61 2 2
-0.228966 0.746020 -1.313160 47 49 54 2 2
-0.246332 0.736862 -1.313017 39 43 50 2 2
-0.218230 0.732174 -1.316384 40 42 46 2 2
-0.373446 0.826158 -1.314880 40 45 57 2 2
-0.394166 0.783498 -1.315834 42 45 60 2 2
-0.463877 0.869916 -1.316378 99 103 109 2 2
-0.326699 1.084422 -1.318757 144 131 111 2 2
-0.339047 1.072641 -1.318686 151 132 115 2 2
-0.201677 0.709527 -1.319163 35 38 39 2 2
-0.441644 0.874644 -1.315989 83 88 94 2 2
-0.469723 0.849999 -1.316132 83 84 90 2 2
-0.444348 0.854953 -1.316658 49 51 63 2 2
-0.203146 1.027266 -0.705713 68 58 37 5 1
-0.186438 1.003002 -0.717966 98 81 52 5 1
-0.187006 1.021760 -0.720585 99 79 50 5 1
-0.184294 1.038764 -0.721251 73 58 36 5 1
-0.240970 0.734851 -0.621940 98 87 98 7 3
-0.250567 0.725031 -0.617905 36 37 37 7 3
-0.275229 0.713947 -0.612579 184 149 104 7 3
-0.295748 0.699273 -0.606386 201 170 119 7 3
-0.188308 1.131906 -0.591708 45 44 40 5 1
-0.208030 1.150269 -0.589115 42 45 38 5 1
-0.207244 1.128980 -0.577452 46 45 38 5 1
-0.212816 1.134460 -0.572572 49 44 38 5 1
-0.199093 1.147419 -0.566955 45 42 36 5 1
-0.182313 1.157948 -0.567899 43 44 38 5 1
-0.199312 1.167717 -0.578744 49 47 36 5 1
-0.193895 1.141406 -0.575656 46 45 40 5 1
-0.211041 1.132789 -0.600710 46 46 42 5 1
-0.174786 0.858051 -0.630199 243 213 177 7 3
-0.200655 0.947842 -0.693295 94 79 47 5 1
-0.203770 0.970844 -0.694652 125 105 66 5 1
-0.193929 0.958815 -0.693934 122 97 59 5 1
-0.187539 0.970158 -0.703873 117 96 61 5 1
-0.197111 0.951370 -0.687635 113 88 54 5 1
-0.189641 0.938008 -0.623634 137 114 91 7 3
-0.444439 0.857349 -0.645567 168 182 214 7 3
-0.449286 0.846323 -0.642046 61 57 53 7 3
-0.440800 0.855987 -0.642713 170 189 224 7 3
-0.469620 0.856184 -0.642976 67 62 55 7 3
-0.439008 0.865879 -0.637324 221 220 220 7 3
-0.457890 0.876147 -0.626886 47 44 44 7 3
-0.447472 0.874442 -0.648126 115 122 134 7 3
-0.451504 0.865138 -0.637436 58 55 50 7 3
-0.458302 0.868920 -0.642741 47 43 40 7 3
-0.213426 1.134049 -0.586263 48 42 37 5 1
-0.211844 1.150904 -0.580471 52 45 40 5 1
-0.210469 1.147269 -0.570823 47 41 36 5 1
-0.347200 0.942702 -0.646572 141 125 113 7 3
-0.339005 0.939492 -0.650120 170 152 140 7 3
-0.317972 0.954637 -0.644100 147 130 118 7 3
-0.254501 0.959712 -0.641285 56 52 48 7 3
-0.270514 0.954383 -0.646216 154 140 126 7 3
-0.250228 0.936933 -0.625470 73 69 58 7 3
-0.257787 0.946026 -0.651020 211 199 179 7 3
-0.220934 0.938839 -0.692058 115 94 59 5 1
-0.302423 0.948700 -0.637546 107 92 80 7 3
-0.288615 0.923374 -0.625764 207 187 158 7 3
-0.307497 0.937208 -0.651865 215 196 176 7 3
-0.212306 0.964372 -0.641301 70 56 42 7 3
-0.183946 0.962453 -0.636470 130 109 85 7 3
-0.202744 0.946302 -0.652917 221 195 170 7 3
-0.195552 0.966002 -0.646506 208 181 160 7 3
-0.417972 0.811595 -0.659445 139 140 144 7 3
-0.425151 0.795055 -0.641662 203 195 192 7 3
-0.426119 0.803256 -0.653789 154 174 199 7 3
-0.432307 0.816051 -0.646115 156 175 208 7 3
-0.415479 0.784439 -0.644264 194 188 188 7 3
-0.427238 0.791746 -0.645601 128 141 157 7 3
-0.410230 0.804553 -0.640720 203 189 178 7 3
-0.419951 0.786020 -0.651128 69 68 67 7 3
-0.241663 0.941277 -0.692318 90 76 60 5 1
-0.203213 1.095246 -0.622854 41 44 45 5 1
-0.347447 0.895728 -0.628964 234 210 179 7 3
-0.349685 0.908155 -0.626248 231 208 179 7 3
-0.257906 1.008994 -0.699158 41 41 31 5 1
-0.247900 1.023427 -0.708796 6 6 11 5 1
-0.254936 1.007269 -0.711216 77 66 46 5 1
-0.345058 0.789173 -0.630162 208 191 178 7 3
-0.313380 0.802378 -0.629687 201 185 173 7 3
-0.208755 0.711196 -0.626882 140 112 79 7 3
-0.202950 0.737181 -0.626987 152 127 97 7 3
-0.355196 0.744801 -0.629653 205 187 177 7 3
-0.337351 0.779675 -0.628324 192 177 173 7 3
-0.367410 0.763062 -0.629497 214 196 184 7 3
-0.290774 0.865583 -0.629806 237 209 180 7 3
-0.307940 0.848770 -0.630255 236 211 179 7 3
-0.381124 0.733121 -0.674703 156 167 175 7 3
-0.386880 0.772696 -0.675329 77 75 76 7 3
-0.395191 0.741431 -0.666191 89 95 105 7 3
-0.307122 0.786685 -0.626054 210 190 178 7 3
-0.227664 0.919377 -0.628443 237 211 171 7 3
-0.219358 0.945287 -0.652742 218 197 172 7 3
-0.227571 0.928271 -0.653152 219 198 171 7 3
-0.439406 0.839194 -0.645632 184 204 236 7 3
-0.435082 0.884098 -0.659352 126 138 150 7 3
-0.426899 0.888794 -0.663510 189 203 223 7 3
-0.423735 0.901579 -0.668285 113 115 119 7 3
-0.227990 0.937248 -0.625521 149 130 101 7 3
-0.205907 0.940440 -0.624447 125 106 78 7 3
-0.210834 0.792269 -0.630396 227 204 175 7 3
-0.216439 1.010519 -0.698394 75 63 42 5 1
-0.242940 1.019057 -0.701278 39 39 34 5 1
-0.237660 1.032302 -0.706896 16 18 19 5 1
-0.232285 1.039726 -0.719939 28 29 31 5 1
-0.226364 1.026048 -0.698939 48 42 30 5 1
-0.205649 1.042683 -0.703870 43 41 30 5 1
-0.210047 1.053346 -0.696183 38 30 17 5 1
-0.182727 1.061940 -0.706634 43 32 23 5 1
-0.184680 1.046434 -0.712340 34 29 24 5 1
-0.197412 1.051938 -0.704250 45 34 27 5 1
-0.210814 1.119369 -0.589999 45 45 41 5 1
-0.248943 0.810896 -0.629829 229 205 179 7 3
-0.254071 0.830761 -0.630544 231 207 180 7 3
-0.246958 0.912460 -0.629302 234 211 175 7 3
-0.280996 0.909218 -0.629243 232 205 174 7 3
-0.263296 0.924024 -0.626941 238 212 173 7 3
-0.277068 0.932169 -0.652652 219 200 178 7 3
-0.256667 0.926374 -0.653438 228 206 178 7 3
-0.413424 0.774731 -0.657609 64 61 56 7 3
-0.403265 0.776912 -0.667885 65 63 60 7 3
-0.203073 1.084828 -0.674622 27 28 28 5 1
-0.201190 1.098545 -0.662595 26 27 23 5 1
-0.199836 1.092311 -0.684188 27 24 20 5 1
-0.187938 1.096311 -0.693753 26 22 19 5 1
-0.209772 1.074870 -0.679921 30 28 22 5 1
-0.189961 1.074536 -0.669216 31 23 18 5 1
-0.182814 1.103931 -0.682580 28 25 22 5 1
-0.290977 0.791560 -0.628757 208 189 175 7 3
-0.240446 0.984574 -0.722794 35 29 30 5 1
-0.251590 0.988149 -0.697510 64 54 38 5 1
-0.248535 0.972094 -0.699301 68 60 47 5 1
-0.241560 0.995855 -0.722509 84 66 40 5 1
-0.255275 0.990054 -0.703928 44 38 26 5 1
-0.221577 0.721066 -0.619826 44 51 70 7 3
-0.235891 0.721136 -0.622081 43 48 56 7 3
-0.216733 0.741432 -0.623736 88 87 108 7 3
-0.398584 0.842951 -0.629688 233 210 184 7 3
-0.235194 0.751315 -0.626804 168 147 132 7 3
-0.254485 0.762782 -0.626680 204 179 150 7 3
-0.239229 0.775880 -0.630382 211 186 161 7 3
-0.203022 1.158552 -0.570338 49 45 37 5 1
-0.189276 1.175859 -0.574296 50 47 36 5 1
-0.187739 1.176761 -0.582620 42 42 37 5 1
-0.186095 1.166997 -0.594352 45 45 38 5 1
-0.384244 0.801555 -0.630090 205 192 181 7 3
-0.405617 0.818354 -0.634100 205 191 182 7 3
-0.395551 0.801000 -0.631157 202 191 179 7 3
-0.339947 0.751999 -0.627161 155 164 194 7 3
-0.377050 0.738505 -0.630103 233 210 182 7 3
-0.401968 0.932700 -0.637155 100 88 78 7 3
-0.396688 0.937922 -0.650096 87 79 73 7 3
-0.389081 0.919094 -0.628423 108 95 86 7 3
-0.399783 0.938329 -0.642188 97 86 78 7 3
-0.219127 0.864922 -0.630268 242 211 176 7 3
-0.327330 0.737195 -0.628897 200 191 202 7 3
-0.308710 0.906177 -0.628591 235 211 179 7 3
-0.203775 0.764275 -0.630122 213 185 162 7 3
-0.230120 0.770284 -0.630934 214 189 165 7 3
-0.392236 0.828006 -0.630037 206 191 178 7 3
-0.303402 0.881110 -0.629241 237 212 178 7 3
-0.321389 0.896540 -0.629247 236 210 176 7 3
-0.457248 0.895753 -0.644878 71 65 60 7 3
-0.450155 0.910081 -0.649962 176 176 180 7 3
-0.462200 0.902361 -0.627895 78 70 62 7 3
-0.463398 0.884588 -0.637121 77 71 66 7 3
-0.467301 0.898665 -0.637980 74 67 61 7 3
-0.464568 0.872939 -0.647410 72 67 61 7 3
-0.464259 0.887523 -0.626358 75 69 63 7 3
-0.438272 0.909991 -0.660280 131 121 115 7 3
-0.405206 0.778057 -0.644896 158 177 212 7 3
-0.409356 0.743822 -0.645458 95 103 115 7 3
-0.413123 0.763064 -0.647225 90 90 93 7 3
-0.414933 0.755645 -0.650569 111 116 129 7 3
-0.409360 0.753244 -0.655960 74 70 66 7 3
-0.419942 0.774206 -0.648294 62 54 52 7 3
-0.410019 0.825669 -0.667774 141 141 149 7 3
-0.415660 0.832493 -0.663377 58 54 52 7 3
-0.384665 0.764778 -0.629947 211 193 182 7 3
-0.399283 0.750332 -0.645710 130 140 170 7 3
-0.397650 0.766673 -0.643404 137 154 185 7 3
-0.392431 0.766148 -0.633959 195 196 205 7 3
-0.404603 0.904421 -0.625101 217 196 171 7 3
-0.410518 0.880382 -0.630371 231 212 186 7 3
-0.356119 0.883796 -0.629582 234 211 185 7 3
-0.383304 0.894206 -0.629511 231 211 185 7 3
-0.475510 0.867001 -0.636910 85 76 74 7 3
-0.481634 0.868706 -0.642262 77 71 69 7 3
-0.475783 0.846369 -0.640380 67 61 61 7 3
-0.289006 0.832361 -0.630189 229 209 184 7 3
-0.315642 0.819787 -0.629490 231 210 184 7 3
-0.335084 0.836039 -0.629952 230 209 185 7 3
-0.227027 0.902367 -0.629481 244 213 174 7 3
-0.192641 0.886470 -0.630219 244 211 173 7 3
-0.210279 0.992650 -0.698856 118 98 60 5 1
-0.224321 0.971062 -0.695660 125 103 65 5 1
-0.237717 1.004544 -0.697521 73 62 39 5 1
-0.429502 0.874867 -0.634287 231 212 186 7 3
-0.414109 0.852086 -0.631757 230 209 188 7 3
-0.430018 0.840749 -0.657372 197 204 213 7 3
-0.406212 0.795208 -0.665128 79 76 76 7 3
-0.197659 1.083258 -0.641690 38 38 38 5 1
-0.203969 1.069964 -0.665866 26 27 23 5 1
-0.199570 1.074224 -0.652145 28 25 22 5 1
-0.208295 1.078626 -0.658079 37 35 38 5 1
-0.203940 1.083094 -0.642738 37 35 38 5 1
-0.187980 1.079678 -0.657833 36 33 32 5 1
-0.206790 1.092993 -0.659149 40 39 41 5 1
-0.206427 1.096585 -0.632305 40 45 45 5 1
-0.192319 1.093643 -0.631091 37 38 40 5 1
-0.450832 0.890064 -0.624230 131 114 91 7 3
-0.434314 0.901453 -0.624163 105 94 85 7 3
-0.477386 0.902528 -0.642031 65 60 57 7 3
-0.479167 0.887135 -0.636531 59 56 51 7 3
-0.478917 0.900712 -0.637715 74 67 65 7 3
-0.372289 0.911461 -0.624883 155 138 124 7 3
-0.321807 0.916766 -0.624529 187 168 143 7 3
-0.247267 0.958257 -0.698092 104 88 65 5 1
-0.209635 0.959135 -0.695672 136 112 70 5 1
-0.234578 0.954794 -0.695292 132 109 67 5 1
-0.212502 0.943768 -0.691021 118 97 60 5 1
-0.244999 0.967019 -0.710454 62 50 41 5 1
-0.374349 0.939888 -0.648272 99 92 82 7 3
-0.352885 0.916365 -0.625830 158 141 125 7 3
-0.352674 0.925462 -0.629879 98 86 73 7 3
-0.374951 0.939490 -0.640621 98 87 77 7 3
-0.203135 0.999735 -0.703444 121 97 62 5 1
-0.189394 0.988096 -0.708650 115 94 56 5 1
-0.198860 0.979579 -0.698464 120 98 61 5 1
-0.308507 0.712489 -0.604933 160 177 184 7 3
-0.272693 0.934298 -0.627983 137 122 101 7 3
-0.241706 0.928238 -0.625034 146 132 105 7 3
-0.376040 0.760537 -0.678350 138 152 176 7 3
-0.384516 0.726145 -0.670143 151 163 173 7 3
-0.386756 0.697405 -0.665385 147 159 174 7 3
-0.463748 0.911153 -0.641501 93 81 72 7 3
-0.454662 0.919548 -0.644098 83 74 65 7 3
-0.439741 0.913516 -0.628993 91 81 68 7 3
-0.451967 0.923492 -0.636814 93 83 71 7 3
-0.323809 0.871230 -0.629703 236 213 179 7 3
-0.316756 0.726917 -0.611617 91 131 205 7 3
-0.317607 0.713720 -0.622694 150 160 181 7 3
-0.320855 0.724648 -0.626768 120 118 129 7 3
-0.319892 0.737582 -0.620567 141 148 180 7 3
-0.315322 0.756169 -0.617419 151 176 220 7 3
-0.308725 0.744049 -0.608267 159 181 212 7 3
-0.189597 0.823939 -0.630066 240 210 176 7 3
-0.224253 0.827898 -0.629971 240 210 176 7 3
-0.193988 0.843477 -0.629630 242 212 176 7 3
-0.237247 0.971911 -0.723549 88 75 57 5 1
-0.202821 1.118747 -0.589908 43 46 42 5 1
-0.207686 1.115883 -0.620176 45 47 46 5 1
-0.204074 1.108205 -0.601651 43 45 43 5 1
-0.202778 1.127282 -0.619080 45 47 49 5 1
-0.193866 1.137050 -0.619472 43 46 46 5 1
-0.194995 1.102323 -0.616025 45 46 49 5 1
-0.207289 1.106241 -0.610952 42 44 41 5 1
-0.190166 1.117104 -0.603472 43 45 44 5 1
-0.428457 0.856968 -0.658374 180 199 233 7 3
-0.416724 0.866163 -0.667010 57 52 47 7 3
-0.191329 1.157497 -0.601875 44 47 41 5 1
-0.179473 1.154289 -0.611233 45 48 46 5 1
-0.199671 1.141279 -0.607080 44 46 43 5 1
-0.174193 1.144217 -0.629061 45 48 47 5 1
-0.338228 0.917590 -0.624211 99 88 75 7 3
-0.322695 0.946158 -0.635685 126 111 95 7 3
-0.293953 0.942512 -0.650294 204 182 166 7 3
-0.298453 0.949310 -0.646350 180 156 131 7 3
-0.299736 0.953201 -0.642060 110 98 88 7 3
-0.290540 0.954370 -0.640293 87 77 72 7 3
-0.277566 0.943487 -0.632409 89 77 70 7 3
-0.269858 0.955789 -0.641619 70 59 56 7 3
