ply
format ascii 1.0
element vertex 1067
property float x
property float y
property float z
property uchar red
property uchar green
property uchar blue
property uchar semantic_label
property uchar instance_label
end_header
-0.087561 -0.159817 0.054449 0 0 255 69 9
-0.085288 -0.198206 0.056447 0 0 255 69 9
-0.128214 -0.106203 0.055602 0 0 255 69 9
-0.102854 -0.192926 0.055635 0 0 255 69 9
-0.119476 -0.172833 0.062404 0 0 255 69 9
-0.155730 -0.198632 0.062448 0 0 255 69 9
-0.120718 -0.162911 0.063013 0 0 255 69 9
-0.107670 -0.144751 0.063355 0 0 255 69 9
-0.114814 -0.148869 0.063271 0 0 255 69 9
-0.111197 -0.103671 0.055559 0 0 255 69 9
-0.115908 -0.130463 0.055519 0 0 255 69 9
-0.112727 -0.191338 0.063091 0 0 255 69 9
-0.129399 -0.205744 0.056447 0 0 255 69 9
-0.087825 -0.142268 0.061072 0 0 255 69 9
-0.103157 -0.129270 0.061067 0 0 255 69 9
-0.101504 -0.155478 0.054449 0 0 255 69 9
-0.111845 -0.182146 0.054449 0 0 255 69 9
-0.151401 -0.180081 0.054449 0 0 255 69 9
-0.124069 -0.153681 0.054449 0 0 255 69 9
-0.143151 -0.195696 0.054449 0 0 255 69 9
-0.091785 -0.210145 0.060448 0 0 255 69 9
-0.099828 -0.181663 0.062218 0 0 255 69 9
-0.153067 -0.152445 0.062416 0 0 255 69 9
-0.086195 -0.154596 0.060448 0 0 255 69 9
-0.106245 -0.204541 0.062448 0 0 255 69 9
-0.096355 -0.189431 0.062448 0 0 255 69 9
-0.115254 -0.205997 0.054449 0 0 255 69 9
-0.081839 -0.162863 0.056447 0 0 255 69 9
-0.128384 -0.117487 0.060448 0 0 255 69 9
-0.094155 -0.134480 0.058449 0 0 255 69 9
-0.121359 -0.199674 0.061576 0 0 255 69 9
-0.129991 -0.177427 0.062448 0 0 255 69 9
-0.086681 -0.182870 0.060448 0 0 255 69 9
-0.086831 -0.166331 0.061133 0 0 255 69 9
-0.116081 -0.098613 0.054449 0 0 255 69 9
-0.145313 -0.150519 0.054449 0 0 255 69 9
-0.135134 -0.162932 0.062448 0 0 255 69 9
-0.128283 -0.153534 0.062448 0 0 255 69 9
-0.122551 -0.186924 0.063225 0 0 255 69 9
-0.096055 -0.168295 0.054449 0 0 255 69 9
-0.107917 -0.158890 0.062963 0 0 255 69 9
-0.115684 -0.156607 0.054449 0 0 255 69 9
-0.131331 -0.203744 0.063249 0 0 255 69 9
-0.130488 -0.193101 0.054449 0 0 255 69 9
-0.138269 -0.156252 0.054449 0 0 255 69 9
-0.124589 -0.141627 0.063714 0 0 255 69 9
-0.148249 -0.200620 0.062188 0 0 255 69 9
-0.092289 -0.154921 0.062152 0 0 255 69 9
-0.113178 -0.136168 0.063823 0 0 255 69 9
-0.105128 -0.206244 0.054449 0 0 255 69 9
-0.118489 -0.116274 0.063345 0 0 255 69 9
-0.088464 -0.137325 0.056447 0 0 255 69 9
-0.146266 -0.136454 0.058449 0 0 255 69 9
-0.127417 -0.141577 0.055572 0 0 255 69 9
-0.134462 -0.180348 0.054449 0 0 255 69 9
-0.109208 -0.194983 0.054449 0 0 255 69 9
-0.149645 -0.161745 0.054449 0 0 255 69 9
-0.094073 -0.176106 0.061869 0 0 255 69 9
-0.141179 -0.164754 0.054449 0 0 255 69 9
-0.153399 -0.163887 0.062448 0 0 255 69 9
-0.243430 -0.156760 0.504449 0 255 255 80 10
-0.258157 -0.220566 0.212449 0 255 255 80 10
-0.233696 -0.110754 0.340448 0 255 255 80 10
-0.238639 -0.222184 0.398449 0 255 255 80 10
-0.215267 -0.111067 0.218447 0 255 255 80 10
-0.231382 -0.219732 0.304449 0 255 255 80 10
-0.230908 -0.113622 0.428449 0 255 255 80 10
-0.235078 -0.151013 0.277760 0 255 255 80 10
-0.235413 -0.216887 0.468448 0 255 255 80 10
-0.243449 -0.175778 0.352449 0 255 255 80 10
-0.243317 -0.171274 0.430449 0 255 255 80 10
-0.220734 -0.220571 0.251530 0 255 255 80 10
-0.256313 -0.111749 0.250448 0 255 255 80 10
-0.243448 -0.136589 0.384448 0 255 255 80 10
-0.237122 -0.203032 0.514448 0 255 255 80 10
-0.240830 -0.119145 0.474449 0 255 255 80 10
-0.239466 -0.221979 0.350448 0 255 255 80 10
-0.243563 -0.110557 0.294449 0 255 255 80 10
-0.232695 -0.176515 0.311501 0 255 255 80 10
-0.242129 -0.191187 0.274447 0 255 255 80 10
-0.235578 -0.182167 0.392449 0 255 255 80 10
-0.235432 -0.176558 0.470448 0 255 255 80 10
-0.212200 -0.217891 0.213496 0 255 255 80 10
-0.260552 -0.114447 0.212449 0 255 255 80 10
-0.183587 -0.132357 0.220449 0 255 255 80 10
-0.237708 -0.139652 0.316895 0 255 255 80 10
-0.235967 -0.207677 0.432448 0 255 255 80 10
-0.256688 -0.217888 0.248449 0 255 255 80 10
-0.223934 -0.116489 0.262449 0 255 255 80 10
-0.234979 -0.145357 0.452406 0 255 255 80 10
-0.234930 -0.142529 0.352249 0 255 255 80 10
-0.243823 -0.141958 0.416448 0 255 255 80 10
-0.238205 -0.126230 0.504449 0 255 255 80 10
-0.243407 -0.223005 0.276181 0 255 255 80 10
-0.236463 -0.109273 0.398449 0 255 255 80 10
-0.240135 -0.197601 0.331724 0 255 255 80 10
-0.236912 -0.175027 0.527276 0 255 255 80 10
-0.231608 -0.114299 0.369490 0 255 255 80 10
-0.243517 -0.205615 0.374449 0 255 255 80 10
-0.235073 -0.145448 0.480448 0 255 255 80 10
-0.243427 -0.197072 0.488448 0 255 255 80 10
-0.235276 -0.162326 0.374320 0 255 255 80 10
-0.243760 -0.162177 0.330283 0 255 255 80 10
-0.243117 -0.194920 0.454449 0 255 255 80 10
-0.243811 -0.198370 0.410449 0 255 255 80 10
-0.243832 -0.159224 0.398449 0 255 255 80 10
-0.242349 -0.127451 0.276449 0 255 255 80 10
-0.231608 -0.114299 0.315443 0 255 255 80 10
-0.242099 -0.121649 0.448449 0 255 255 80 10
-0.235449 -0.179421 0.502449 0 255 255 80 10
-0.240119 -0.222610 0.326449 0 255 255 80 10
-0.229372 -0.148284 0.521322 0 255 255 80 10
-0.225952 -0.114397 0.239603 0 255 255 80 10
-0.235861 -0.199035 0.354449 0 255 255 80 10
-0.243414 -0.165413 0.452448 0 255 255 80 10
-0.243515 -0.184183 0.372449 0 255 255 80 10
-0.240539 -0.223095 0.446449 0 255 255 80 10
-0.234250 -0.172024 0.276449 0 255 255 80 10
-0.224188 -0.218346 0.230449 0 255 255 80 10
-0.240389 -0.131119 0.335631 0 255 255 80 10
-0.235206 -0.214222 0.496448 0 255 255 80 10
-0.243656 -0.175979 0.410449 0 255 255 80 10
-0.236097 -0.135563 0.434448 0 255 255 80 10
-0.242142 -0.123545 0.354449 0 255 255 80 10
-0.235324 -0.129008 0.402449 0 255 255 80 10
-0.243258 -0.164474 0.484449 0 255 255 80 10
-0.260006 -0.119479 0.232447 0 255 255 80 10
-0.235865 -0.202023 0.392449 0 255 255 80 10
-0.235868 -0.196261 0.312589 0 255 255 80 10
-0.235720 -0.187777 0.437702 0 255 255 80 10
-0.235203 -0.159475 0.416448 0 255 255 80 10
-0.235129 -0.109358 0.276449 0 255 255 80 10
-0.235377 -0.179105 0.334449 0 255 255 80 10
-0.240831 -0.219913 0.418449 0 255 255 80 10
-0.231671 -0.157421 0.312448 0 255 255 80 10
-0.251198 -0.220695 0.230449 0 255 255 80 10
-0.243352 -0.153443 0.436449 0 255 255 80 10
-0.232045 -0.220374 0.376329 0 255 255 80 10
-0.234478 -0.197700 0.470692 0 255 255 80 10
-0.232615 -0.207022 0.276449 0 255 255 80 10
-0.243099 -0.136517 0.466449 0 255 255 80 10
-0.246489 -0.156472 0.522510 0 255 255 80 10
-0.243755 -0.145490 0.368448 0 255 255 80 10
-0.245594 -0.186191 0.515848 0 255 255 80 10
-0.235412 -0.159678 0.346449 0 255 255 80 10
-0.242187 -0.123499 0.418449 0 255 255 80 10
-0.235172 -0.156675 0.466449 0 255 255 80 10
-0.227224 -0.222487 0.268449 0 255 255 80 10
-0.250636 -0.113211 0.268449 0 255 255 80 10
-0.243632 -0.131470 0.488448 0 255 255 80 10
-0.241213 -0.118748 0.384448 0 255 255 80 10
-0.243042 -0.139888 0.514448 0 255 255 80 10
-0.242713 -0.220843 0.258449 0 255 255 80 10
-0.235268 -0.142856 0.498448 0 255 255 80 10
-0.234365 -0.186300 0.420449 0 255 255 80 10
-0.244827 -0.213253 0.482449 0 255 255 80 10
-0.235918 -0.147264 0.332448 0 255 255 80 10
-0.235325 -0.130604 0.368448 0 255 255 80 10
-0.235067 -0.145267 0.396448 0 255 255 80 10
-0.242502 -0.218182 0.292447 0 255 255 80 10
-0.234674 -0.209010 0.452448 0 255 255 80 10
-0.235492 -0.182255 0.486448 0 255 255 80 10
-0.235447 -0.179423 0.454449 0 255 255 80 10
-0.243387 -0.161818 0.360448 0 255 255 80 10
-0.234033 -0.212557 0.362449 0 255 255 80 10
-0.244673 -0.207544 0.344449 0 255 255 80 10
-0.243068 -0.125466 0.312448 0 255 255 80 10
-0.195540 -0.123953 0.214448 0 255 255 80 10
-0.243541 -0.170307 0.512449 0 255 255 80 10
-0.243438 -0.171148 0.384448 0 255 255 80 10
-0.236465 -0.109270 0.414448 0 255 255 80 10
-0.233388 -0.210549 0.408449 0 255 255 80 10
-0.234429 -0.194872 0.500795 0 255 255 80 10
-0.242081 -0.112092 0.326449 0 255 255 80 10
-0.243834 -0.190052 0.344449 0 255 255 80 10
-0.237228 -0.211477 0.316449 0 255 255 80 10
-0.237166 -0.108544 0.441218 0 255 255 80 10
-0.243656 -0.153648 0.384448 0 255 255 80 10
-0.230922 -0.113636 0.454449 0 255 255 80 10
-0.243485 -0.214739 0.386448 0 255 255 80 10
-0.235284 -0.173455 0.364449 0 255 255 80 10
-0.230920 -0.115013 0.300449 0 255 255 80 10
-0.235664 -0.193594 0.380449 0 255 255 80 10
-0.243606 -0.196886 0.426449 0 255 255 80 10
-0.244903 -0.204987 0.502449 0 255 255 80 10
-0.232003 -0.136923 0.273455 0 255 255 80 10
-0.235253 -0.165083 0.440448 0 255 255 80 10
-0.235490 -0.124675 0.462448 0 255 255 80 10
-0.243593 -0.188262 0.476449 0 255 255 80 10
-0.235283 -0.165198 0.496448 0 255 255 80 10
-0.235574 -0.187636 0.406448 0 255 255 80 10
-0.234146 -0.216840 0.338448 0 255 255 80 10
-0.245950 -0.211558 0.460448 0 255 255 80 10
-0.241092 -0.121754 0.434448 0 255 255 80 10
-0.243403 -0.151030 0.490448 0 255 255 80 10
-0.235256 -0.170648 0.400449 0 255 255 80 10
-0.244997 -0.209841 0.400449 0 255 255 80 10
-0.231371 -0.221073 0.284448 0 255 255 80 10
-0.235171 -0.148038 0.426449 0 255 255 80 10
-0.236757 -0.119271 0.488448 0 255 255 80 10
-0.213930 -0.113909 0.232447 0 255 255 80 10
-0.232857 -0.161951 0.524448 0 255 255 80 10
-0.243479 -0.107764 0.312448 0 255 255 80 10
-0.240785 -0.173895 0.322448 0 255 255 80 10
-0.245065 -0.210704 0.442448 0 255 255 80 10
-0.232080 -0.185788 0.520449 0 255 255 80 10
-0.243677 -0.116197 0.252449 0 255 255 80 10
-0.239140 -0.221664 0.431766 0 255 255 80 10
-0.243320 -0.188545 0.358448 0 255 255 80 10
-0.211602 -0.221389 0.226449 0 255 255 80 10
-0.243261 -0.136674 0.446449 0 255 255 80 10
-0.243187 -0.177165 0.442448 0 255 255 80 10
-0.234979 -0.145357 0.378514 0 255 255 80 10
-0.235199 -0.112206 0.354449 0 255 255 80 10
-0.263626 -0.219341 0.224448 0 255 255 80 10
-0.235633 -0.132087 0.476449 0 255 255 80 10
-0.242897 -0.222511 0.312448 0 255 255 80 10
-0.236516 -0.112096 0.262449 0 255 255 80 10
-0.243556 -0.171026 0.340448 0 255 255 80 10
-0.251047 -0.215093 0.266449 0 255 255 80 10
-0.243526 -0.192535 0.396448 0 255 255 80 10
-0.243053 -0.162909 0.274447 0 255 255 80 10
-0.243205 -0.142598 0.342448 0 255 255 80 10
-0.243220 -0.197801 0.440448 0 255 255 80 10
-0.243382 -0.167373 0.466449 0 255 255 80 10
-0.234776 -0.206328 0.486448 0 255 255 80 10
-0.230774 -0.185782 0.276449 0 255 255 80 10
-0.235276 -0.162326 0.388653 0 255 255 80 10
-0.235462 -0.173627 0.420449 0 255 255 80 10
-0.230170 -0.112910 0.251498 0 255 255 80 10
-0.235818 -0.193433 0.367334 0 255 255 80 10
-0.234735 -0.203508 0.420449 0 255 255 80 10
-0.231199 -0.129119 0.314448 0 255 255 80 10
-0.230015 -0.137783 0.514448 0 255 255 80 10
-0.238698 -0.118364 0.284448 0 255 255 80 10
-0.243335 -0.174133 0.492449 0 255 255 80 10
-0.252088 -0.111833 0.238448 0 255 255 80 10
-0.243274 -0.154043 0.476449 0 255 255 80 10
-0.243477 -0.153564 0.456449 0 255 255 80 10
-0.241211 -0.118751 0.406448 0 255 255 80 10
-0.234473 -0.133746 0.416448 0 255 255 80 10
-0.235720 -0.187777 0.325495 0 255 255 80 10
-0.242410 -0.120388 0.368448 0 255 255 80 10
-0.234980 -0.148236 0.410449 0 255 255 80 10
-0.243607 -0.184273 0.428449 0 255 255 80 10
-0.243354 -0.186808 0.496448 0 255 255 80 10
-0.242654 -0.218025 0.370449 0 255 255 80 10
-0.243606 -0.185369 0.464449 0 255 255 80 10
-0.234954 -0.128651 0.388448 0 255 255 80 10
-0.235081 -0.162137 0.428449 0 255 255 80 10
-0.243590 -0.139320 0.404448 0 255 255 80 10
-0.253546 -0.113240 0.222448 0 255 255 80 10
-0.244980 -0.209859 0.424448 0 255 255 80 10
-0.260950 -0.216355 0.236448 0 255 255 80 10
-0.231316 -0.216889 0.256448 0 255 255 80 10
-0.243578 -0.150881 0.354449 0 255 255 80 10
-0.234921 -0.148298 0.510449 0 255 255 80 10
-0.235432 -0.179438 0.380449 0 255 255 80 10
-0.243496 -0.206408 0.472449 0 255 255 80 10
-0.235217 -0.153749 0.364449 0 255 255 80 10
-0.233599 -0.210753 0.350448 0 255 255 80 10
-0.234174 -0.163467 0.508448 0 255 255 80 10
-0.243645 -0.134264 0.360448 0 255 255 80 10
-0.234874 -0.220324 0.456743 0 255 255 80 10
-0.243551 -0.203681 0.362449 0 255 255 80 10
-0.242643 -0.186367 0.312448 0 255 255 80 10
-0.243629 -0.175952 0.480448 0 255 255 80 10
-0.235462 -0.130462 0.346449 0 255 255 80 10
-0.216467 -0.219231 0.239445 0 255 255 80 10
-0.234330 -0.131634 0.452448 0 255 255 80 10
-0.245042 -0.210681 0.412448 0 255 255 80 10
-0.235680 -0.199335 0.342448 0 255 255 80 10
-0.245517 -0.220819 0.246447 0 255 255 80 10
-0.235541 -0.182044 0.346449 0 255 255 80 10
-0.230898 -0.113612 0.386448 0 255 255 80 10
-0.243495 -0.153814 0.338448 0 255 255 80 10
-0.230981 -0.124814 0.276449 0 255 255 80 10
-0.243452 -0.171134 0.372449 0 255 255 80 10
-0.235149 -0.145183 0.464449 0 255 255 80 10
-0.235150 -0.156644 0.448449 0 255 255 80 10
-0.235206 -0.165277 0.474449 0 255 255 80 10
-0.236021 -0.155795 0.324449 0 255 255 80 10
-0.243431 -0.195224 0.508448 0 255 255 80 10
-0.243524 -0.133630 0.424448 0 255 255 80 10
-0.233697 -0.213627 0.392449 0 255 255 80 10
-0.239838 -0.180633 0.281602 0 255 255 80 10
-0.235218 -0.167831 0.354449 0 255 255 80 10
-0.243325 -0.128394 0.376448 0 255 255 80 10
-0.243663 -0.136365 0.502449 0 255 255 80 10
-0.243359 -0.164571 0.410449 0 255 255 80 10
-0.236897 -0.215349 0.266449 0 255 255 80 10
-0.232474 -0.205534 0.504449 0 255 255 80 10
-0.243533 -0.181421 0.400449 0 255 255 80 10
-0.235126 -0.156620 0.484449 0 255 255 80 10
-0.234273 -0.214183 0.442448 0 255 255 80 10
-0.219878 -0.117809 0.248449 0 255 255 80 10
-0.234589 -0.208929 0.380449 0 255 255 80 10
-0.234317 -0.177713 0.432448 0 255 255 80 10
-0.241629 -0.121196 0.395488 0 255 255 80 10
-0.264774 -0.111626 0.222448 0 255 255 80 10
-0.232095 -0.223202 0.315296 0 255 255 80 10
-0.234098 -0.175090 0.516448 0 255 255 80 10
-0.226982 -0.216980 0.242448 0 255 255 80 10
-0.243908 -0.212368 0.354449 0 255 255 80 10
-0.234733 -0.131218 0.495105 0 255 255 80 10
-0.243453 -0.200805 0.384448 0 255 255 80 10
-0.230932 -0.114999 0.326449 0 255 255 80 10
-0.243552 -0.187000 0.384448 0 255 255 80 10
-0.243612 -0.153693 0.420624 0 255 255 80 10
-0.240833 -0.117645 0.304449 0 255 255 80 10
-0.234403 -0.192021 0.460448 0 255 255 80 10
-0.230918 -0.115014 0.406448 0 255 255 80 10
-0.234444 -0.191978 0.448449 0 255 255 80 10
-0.243491 -0.186941 0.414448 0 255 255 80 10
-0.238745 -0.199040 0.281270 0 255 255 80 10
-0.239098 -0.138214 0.281613 0 255 255 80 10
-0.242886 -0.165962 0.526448 0 255 255 80 10
-0.235107 -0.167723 0.334449 0 255 255 80 10
-0.234920 -0.200123 0.404448 0 255 255 80 10
-0.235260 -0.145628 0.438449 0 255 255 80 10
-0.240376 -0.194473 0.520449 0 255 255 80 10
-0.234341 -0.189226 0.510449 0 255 255 80 10
-0.235550 -0.126447 0.426449 0 255 255 80 10
-0.231756 -0.161707 0.274447 0 255 255 80 10
-0.252813 -0.118094 0.258449 0 255 255 80 10
-0.246046 -0.208870 0.492449 0 255 255 80 10
-0.232846 -0.213786 0.478448 0 255 255 80 10
-0.234970 -0.154005 0.496448 0 255 255 80 10
-0.238878 -0.118539 0.334449 0 255 255 80 10
-0.235119 -0.127938 0.442448 0 255 255 80 10
-0.242469 -0.210978 0.274447 0 255 255 80 10
-0.232709 -0.213928 0.424448 0 255 255 80 10
-0.243321 -0.142479 0.430449 0 255 255 80 10
-0.243482 -0.156707 0.370449 0 255 255 80 10
-0.219923 -0.215651 0.220449 0 255 255 80 10
-0.234181 -0.169609 0.486448 0 255 255 80 10
-0.235325 -0.165153 0.319480 0 255 255 80 10
-0.243256 -0.148303 0.446449 0 255 255 80 10
-0.235278 -0.170668 0.460448 0 255 255 80 10
-0.243612 -0.187058 0.446449 0 255 255 80 10
-0.235119 -0.159608 0.404448 0 255 255 80 10
-0.234600 -0.206211 0.464449 0 255 255 80 10
-0.240160 -0.116959 0.346449 0 255 255 80 10
-0.243317 -0.186773 0.334449 0 255 255 80 10
-0.240599 -0.117421 0.272449 0 255 255 80 10
-0.246834 -0.176268 0.520468 0 255 255 80 10
-0.243523 -0.128585 0.456449 0 255 255 80 10
-0.235715 -0.193333 0.482449 0 255 255 80 10
-0.243341 -0.139579 0.476449 0 255 255 80 10
-0.243522 -0.139704 0.456449 0 255 255 80 10
-0.243395 -0.150704 0.404448 0 255 255 80 10
-0.222322 -0.112399 0.226449 0 255 255 80 10
-0.234729 -0.203503 0.442448 0 255 255 80 10
-0.243432 -0.164642 0.422448 0 255 255 80 10
-0.243383 -0.133776 0.394448 0 255 255 80 10
-0.243883 -0.178978 0.362449 0 255 255 80 10
-0.243137 -0.197720 0.464449 0 255 255 80 10
-0.234831 -0.136874 0.486397 0 255 255 80 10
-0.243673 -0.167655 0.502449 0 255 255 80 10
-0.243674 -0.144992 0.390449 0 255 255 80 10
-0.241327 -0.184851 0.525153 0 255 255 80 10
-0.243665 -0.128722 0.408449 0 255 255 80 10
-0.243609 -0.150817 0.466449 0 255 255 80 10
-0.235295 -0.121998 0.376448 0 255 255 80 10
-0.235207 -0.220646 0.408449 0 255 255 80 10
-0.240685 -0.148087 0.521605 0 255 255 80 10
-0.236120 -0.140898 0.362449 0 255 255 80 10
-0.234430 -0.194871 0.430449 0 255 255 80 10
-0.208298 -0.115404 0.212449 0 255 255 80 10
-0.235621 -0.182122 0.356796 0 255 255 80 10
-0.241333 -0.219394 0.302448 0 255 255 80 10
-0.234400 -0.139238 0.338448 0 255 255 80 10
-0.243612 -0.136419 0.350448 0 255 255 80 10
-0.232727 -0.221031 0.294449 0 255 255 80 10
-0.243834 -0.173371 0.394448 0 255 255 80 10
-0.243498 -0.179723 0.508448 0 255 255 80 10
-0.231522 -0.147580 0.314448 0 255 255 80 10
-0.243708 -0.164907 0.348448 0 255 255 80 10
-0.235578 -0.156254 0.516448 0 255 255 80 10
-0.235233 -0.130700 0.356449 0 255 255 80 10
-0.230897 -0.113612 0.288448 0 255 255 80 10
-0.234551 -0.191867 0.390449 0 255 255 80 10
-0.235689 -0.187748 0.470448 0 255 255 80 10
-0.252168 -0.223124 0.260447 0 255 255 80 10
-0.236304 -0.149418 0.344449 0 255 255 80 10
-0.240188 -0.116931 0.458448 0 255 255 80 10
-0.229549 -0.115090 0.270448 0 255 255 80 10
-0.243259 -0.214520 0.451428 0 255 255 80 10
-0.235411 -0.170823 0.448449 0 255 255 80 10
-0.235833 -0.204569 0.368448 0 255 255 80 10
-0.235369 -0.170757 0.410449 0 255 255 80 10
-0.243688 -0.142097 0.486448 0 255 255 80 10
-0.243513 -0.148038 0.499750 0 255 255 80 10
-0.240710 -0.117528 0.318449 0 255 255 80 10
-0.243578 -0.130696 0.438449 0 255 255 80 10
-0.243217 -0.195017 0.374449 0 255 255 80 10
-0.231996 -0.217545 0.275489 0 255 255 80 10
-0.243403 -0.175734 0.458448 0 255 255 80 10
-0.243605 -0.127788 0.470448 0 255 255 80 10
-0.215798 -0.119155 0.224448 0 255 255 80 10
-0.236077 -0.135297 0.378448 0 255 255 80 10
-0.243205 -0.197786 0.478448 0 255 255 80 10
-0.235274 -0.120618 0.360448 0 255 255 80 10
-0.235621 -0.193639 0.414448 0 255 255 80 10
-0.252882 -0.221829 0.240449 0 255 255 80 10
-0.243148 -0.159932 0.444448 0 255 255 80 10
-0.236333 -0.152592 0.390449 0 255 255 80 10
-0.235356 -0.220790 0.386448 0 255 255 80 10
-0.235640 -0.190740 0.338448 0 255 255 80 10
-0.243241 -0.174231 0.274447 0 255 255 80 10
-0.243429 -0.203562 0.448449 0 255 255 80 10
-0.238296 -0.139043 0.328449 0 255 255 80 10
-0.235177 -0.156670 0.333806 0 255 255 80 10
-0.237141 -0.216953 0.486448 0 255 255 80 10
-0.243561 -0.110560 0.282449 0 255 255 80 10
-0.243571 -0.125851 0.480448 0 255 255 80 10
-0.243318 -0.162636 0.380449 0 255 255 80 10
-0.230930 -0.115001 0.438449 0 255 255 80 10
-0.240142 -0.116979 0.426440 0 255 255 80 10
-0.234577 -0.203356 0.495326 0 255 255 80 10
-0.243685 -0.136343 0.370449 0 255 255 80 10
-0.234174 -0.134675 0.504449 0 255 255 80 10
-0.243562 -0.150866 0.512938 0 255 255 80 10
-0.236213 -0.138207 0.390449 0 255 255 80 10
-0.235354 -0.173523 0.388448 0 255 255 80 10
-0.235612 -0.190453 0.350448 0 255 255 80 10
-0.235209 -0.162262 0.456449 0 255 255 80 10
-0.243846 -0.181723 0.326449 0 255 255 80 10
-0.234420 -0.133696 0.464449 0 255 255 80 10
-0.256559 -0.118931 0.242448 0 255 255 80 10
-0.234374 -0.189259 0.492449 0 255 255 80 10
-0.243460 -0.161888 0.432448 0 255 255 80 10
-0.243689 -0.159371 0.494449 0 255 255 80 10
-0.232181 -0.185685 0.312448 0 255 255 80 10
-0.236699 -0.172367 0.346449 0 255 255 80 10
-0.222912 -0.219895 0.260447 0 255 255 80 10
-0.234755 -0.200292 0.456449 0 255 255 80 10
-0.239042 -0.216009 0.281338 0 255 255 80 10
-0.240579 -0.223053 0.340473 0 255 255 80 10
-0.235560 -0.182062 0.368448 0 255 255 80 10
-0.235746 -0.170476 0.378448 0 255 255 80 10
-0.239873 -0.150083 0.318449 0 255 255 80 10
-0.233868 -0.122041 0.452448 0 255 255 80 10
-0.243791 -0.127596 0.386448 0 255 255 80 10
-0.233917 -0.124869 0.414448 0 255 255 80 10
-0.243303 -0.179925 0.420449 0 255 255 80 10
-0.236334 -0.149712 0.472449 0 255 255 80 10
-0.253997 -0.219328 0.220449 0 255 255 80 10
-0.246453 -0.111952 0.260447 0 255 255 80 10
-0.243321 -0.186777 0.486448 0 255 255 80 10
-0.241900 -0.218807 0.360448 0 255 255 80 10
-0.243246 -0.200605 0.400449 0 255 255 80 10
-0.243477 -0.202777 0.418449 0 255 255 80 10
-0.243617 -0.196875 0.350448 0 255 255 80 10
-0.242660 -0.216721 0.474449 0 255 255 80 10
-0.234970 -0.128093 0.484449 0 255 255 80 10
-0.243464 -0.179758 0.342448 0 255 255 80 10
-0.243463 -0.145210 0.381317 0 255 255 80 10
-0.243351 -0.197150 0.498448 0 255 255 80 10
-0.244599 -0.210253 0.433559 0 255 255 80 10
-0.237735 -0.113714 0.448449 0 255 255 80 10
-0.235442 -0.179427 0.412448 0 255 255 80 10
-0.243502 -0.191236 0.434448 0 255 255 80 10
-0.239067 -0.202132 0.318449 0 255 255 80 10
-0.230952 -0.114979 0.418449 0 255 255 80 10
-0.236085 -0.138455 0.424448 0 255 255 80 10
-0.243429 -0.179795 0.472449 0 255 255 80 10
-0.235542 -0.182046 0.444448 0 255 255 80 10
-0.243518 -0.162428 0.516448 0 255 255 80 10
-0.240933 -0.124797 0.342448 0 255 255 80 10
-0.234902 -0.139678 0.408449 0 255 255 80 10
-0.190824 -0.127741 0.222319 0 255 255 80 10
-0.243595 -0.206503 0.392449 0 255 255 80 10
-0.241623 -0.201818 0.273459 0 255 255 80 10
-0.243521 -0.127875 0.496448 0 255 255 80 10
-0.243655 -0.168044 0.476449 0 255 255 80 10
-0.232568 -0.212537 0.372449 0 255 255 80 10
-0.246235 -0.222954 0.266880 0 255 255 80 10
-0.242683 -0.151776 0.328449 0 255 255 80 10
-0.237848 -0.159249 0.280449 0 255 255 80 10
-0.238999 -0.132557 0.511430 0 255 255 80 10
-0.243592 -0.164796 0.390449 0 255 255 80 10
-0.243640 -0.168060 0.402449 0 255 255 80 10
-0.235177 -0.156670 0.356220 0 255 255 80 10
-0.243710 -0.159349 0.463034 0 255 255 80 10
-0.235896 -0.204869 0.476449 0 255 255 80 10
-0.235405 -0.156433 0.438449 0 255 255 80 10
-0.235128 -0.153841 0.376296 0 255 255 80 10
-0.234897 -0.179991 0.320448 0 255 255 80 10
-0.237771 -0.113676 0.376448 0 255 255 80 10
-0.243243 -0.168471 0.440448 0 255 255 80 10
-0.239621 -0.216567 0.378448 0 255 255 80 10
-0.240389 -0.131119 0.318449 0 255 255 80 10
-0.235473 -0.173637 0.478654 0 255 255 80 10
-0.235621 -0.182122 0.463605 0 255 255 80 10
-0.232389 -0.195682 0.276449 0 255 255 80 10
-0.242564 -0.216630 0.406448 0 255 255 80 10
-0.235316 -0.162364 0.364449 0 255 255 80 10
-0.243425 -0.170195 0.362449 0 255 255 80 10
-0.216809 -0.115228 0.240449 0 255 255 80 10
-0.256288 -0.111776 0.230449 0 255 255 80 10
-0.262816 -0.119412 0.219053 0 255 255 80 10
-0.243785 -0.173323 0.330448 0 255 255 80 10
-0.235473 -0.173637 0.439877 0 255 255 80 10
-0.234149 -0.216843 0.324449 0 255 255 80 10
-0.248964 -0.217249 0.253394 0 255 255 80 10
-0.243249 -0.156123 0.412448 0 255 255 80 10
-0.234986 -0.153705 0.458448 0 255 255 80 10
-0.243414 -0.142381 0.356539 0 255 255 80 10
-0.235537 -0.179261 0.402449 0 255 255 80 10
-0.235057 -0.106508 0.312448 0 255 255 80 10
-0.234141 -0.166379 0.516448 0 255 255 80 10
-0.237314 -0.117028 0.292860 0 255 255 80 10
-0.243511 -0.184180 0.454449 0 255 255 80 10
-0.234775 -0.214668 0.400797 0 255 255 80 10
-0.235029 -0.148185 0.488476 0 255 255 80 10
-0.235040 -0.151053 0.418449 0 255 255 80 10
-0.243481 -0.139666 0.438449 0 255 255 80 10
-0.234874 -0.220324 0.368057 0 255 255 80 10
-0.235589 -0.185034 0.478448 0 255 255 80 10
-0.235479 -0.176510 0.494449 0 255 255 80 10
-0.241877 -0.135336 0.273464 0 255 255 80 10
-0.243300 -0.177048 0.500449 0 255 255 80 10
-0.243277 -0.139469 0.494449 0 255 255 80 10
-0.243431 -0.153519 0.362449 0 255 255 80 10
-0.230808 -0.195743 0.514448 0 255 255 80 10
-0.242886 -0.217786 0.438449 0 255 255 80 10
-0.243272 -0.183949 0.350448 0 255 255 80 10
-0.235373 -0.170761 0.504449 0 255 255 80 10
-0.243326 -0.150638 0.428449 0 255 255 80 10
-0.243302 -0.194321 0.418449 0 255 255 80 10
-0.234930 -0.142529 0.370581 0 255 255 80 10
-0.234775 -0.214668 0.416004 0 255 255 80 10
-0.236115 -0.140893 0.472449 0 255 255 80 10
-0.235159 -0.151092 0.402449 0 255 255 80 10
-0.235993 -0.137995 0.442448 0 255 255 80 10
-0.243661 -0.156521 0.348284 0 255 255 80 10
-0.243765 -0.178865 0.380449 0 255 255 80 10
-0.243421 -0.189654 0.404448 0 255 255 80 10
-0.234930 -0.142529 0.416530 0 255 255 80 10
-0.235875 -0.115639 0.393100 0 255 255 80 10
-0.249232 -0.114635 0.246447 0 255 255 80 10
-0.243305 -0.162648 0.340448 0 255 255 80 10
-0.238065 -0.117753 0.466449 0 255 255 80 10
-0.235687 -0.187812 0.374449 0 255 255 80 10
-0.243734 -0.199633 0.340448 0 255 255 80 10
-0.238894 -0.207524 0.281857 0 255 255 80 10
-0.243295 -0.203433 0.458448 0 255 255 80 10
-0.243658 -0.131496 0.416448 0 255 255 80 10
-0.236866 -0.119375 0.442448 0 255 255 80 10
-0.236066 -0.207573 0.343219 0 255 255 80 10
-0.234433 -0.189315 0.398449 0 255 255 80 10
-0.239227 -0.210627 0.504449 0 255 255 80 10
-0.235289 -0.120634 0.480448 0 255 255 80 10
-0.236021 -0.138022 0.400449 0 255 255 80 10
-0.221068 -0.118021 0.232447 0 255 255 80 10
-0.235912 -0.201864 0.376448 0 255 255 80 10
-0.188498 -0.128275 0.214448 0 255 255 80 10
-0.234390 -0.180932 0.510449 0 255 255 80 10
-0.243528 -0.184196 0.392449 0 255 255 80 10
-0.234881 -0.139702 0.458348 0 255 255 80 10
-0.243438 -0.170208 0.416448 0 255 255 80 10
-0.245011 -0.210651 0.366448 0 255 255 80 10
-0.240707 -0.178691 0.314448 0 255 255 80 10
-0.235553 -0.126449 0.470448 0 255 255 80 10
-0.243342 -0.174127 0.450448 0 255 255 80 10
-0.253265 -0.224183 0.252449 0 255 255 80 10
-0.243326 -0.182780 0.436449 0 255 255 80 10
-0.243414 -0.142381 0.334324 0 255 255 80 10
-0.235609 -0.154306 0.524448 0 255 255 80 10
-0.259844 -0.223257 0.230449 0 255 255 80 10
-0.241877 -0.135336 0.311455 0 255 255 80 10
-0.243799 -0.128851 0.366448 0 255 255 80 10
-0.243610 -0.205519 0.484449 0 255 255 80 10
-0.235390 -0.170777 0.428449 0 255 255 80 10
-0.235285 -0.120630 0.400449 0 255 255 80 10
-0.243521 -0.191216 0.366448 0 255 255 80 10
-0.233896 -0.204061 0.312448 0 255 255 80 10
-0.235586 -0.184868 0.428449 0 255 255 80 10
-0.243401 -0.128000 0.400449 0 255 255 80 10
-0.243558 -0.125837 0.426449 0 255 255 80 10
-0.237759 -0.113688 0.434448 0 255 255 80 10
-0.234577 -0.203356 0.412436 0 255 255 80 10
-0.243195 -0.144951 0.398449 0 255 255 80 10
-0.243416 -0.134042 0.342448 0 255 255 80 10
-0.239641 -0.169322 0.281720 0 255 255 80 10
-0.260469 -0.113204 0.238448 0 255 255 80 10
-0.235395 -0.165081 0.466449 0 255 255 80 10
-0.235312 -0.156801 0.476449 0 255 255 80 10
-0.243532 -0.186980 0.504449 0 255 255 80 10
-0.235081 -0.153796 0.504449 0 255 255 80 10
-0.234507 -0.194947 0.422448 0 255 255 80 10
-0.235360 -0.121930 0.314448 0 255 255 80 10
-0.243425 -0.156294 0.484449 0 255 255 80 10
-0.243685 -0.214931 0.394448 0 255 255 80 10
-0.233337 -0.213279 0.460973 0 255 255 80 10
-0.235919 -0.204846 0.360448 0 255 255 80 10
-0.241494 -0.159989 0.320448 0 255 255 80 10
-0.234584 -0.217745 0.356449 0 255 255 80 10
-0.235669 -0.190709 0.358448 0 255 255 80 10
-0.240132 -0.116970 0.414448 0 255 255 80 10
-0.234733 -0.131218 0.279180 0 255 255 80 10
-0.234953 -0.170355 0.326449 0 255 255 80 10
-0.233503 -0.221780 0.424448 0 255 255 80 10
-0.235167 -0.112175 0.306447 0 255 255 80 10
-0.235356 -0.123478 0.350448 0 255 255 80 10
-0.243165 -0.206089 0.510449 0 255 255 80 10
-0.217955 -0.223448 0.230601 0 255 255 80 10
-0.230947 -0.114985 0.348448 0 255 255 80 10
-0.234034 -0.225075 0.276449 0 255 255 80 10
-0.252473 -0.215078 0.236448 0 255 255 80 10
-0.230931 -0.115000 0.334449 0 255 255 80 10
-0.236363 -0.160595 0.396448 0 255 255 80 10
-0.235804 -0.196200 0.438449 0 255 255 80 10
-0.232053 -0.139750 0.311460 0 255 255 80 10
-0.240115 -0.222605 0.286449 0 255 255 80 10
-0.239091 -0.218836 0.318346 0 255 255 80 10
-0.231952 -0.220471 0.438449 0 255 255 80 10
-0.238597 -0.190555 0.281354 0 255 255 80 10
-0.234829 -0.162789 0.328449 0 255 255 80 10
-0.218072 -0.115128 0.212449 0 255 255 80 10
-0.236324 -0.146655 0.324449 0 255 255 80 10
-0.235821 -0.202068 0.384448 0 255 255 80 10
-0.230582 -0.216180 0.312448 0 255 255 80 10
-0.243983 -0.216649 0.428449 0 255 255 80 10
-0.230681 -0.116184 0.258449 0 255 255 80 10
-0.234726 -0.186817 0.500449 0 255 255 80 10
-0.243377 -0.194244 0.388448 0 255 255 80 10
-0.237413 -0.122684 0.495295 0 255 255 80 10
-0.243277 -0.203416 0.354449 0 255 255 80 10
-0.254646 -0.119234 0.250448 0 255 255 80 10
-0.222462 -0.113808 0.254449 0 255 255 80 10
-0.223497 -0.223467 0.244449 0 255 255 80 10
-0.235689 -0.143262 0.518448 0 255 255 80 10
-0.235640 -0.196498 0.490448 0 255 255 80 10
-0.243809 -0.165005 0.367971 0 255 255 80 10
-0.238597 -0.190555 0.317304 0 255 255 80 10
-0.243430 -0.202826 0.434448 0 255 255 80 10
-0.243695 -0.205431 0.406448 0 255 255 80 10
-0.243243 -0.148317 0.412448 0 255 255 80 10
-0.231305 -0.177954 0.522824 0 255 255 80 10
-0.243252 -0.161686 0.472449 0 255 255 80 10
-0.233541 -0.143968 0.275556 0 255 255 80 10
-0.243513 -0.150915 0.376448 0 255 255 80 10
-0.247946 -0.118955 0.272449 0 255 255 80 10
-0.243812 -0.147728 0.480448 0 255 255 80 10
-0.236282 -0.149395 0.358448 0 255 255 80 10
-0.236724 -0.174845 0.372449 0 255 255 80 10
-0.245015 -0.209822 0.380449 0 255 255 80 10
-0.233722 -0.117869 0.276449 0 255 255 80 10
-0.236518 -0.171867 0.316449 0 255 255 80 10
-0.242590 -0.216655 0.466449 0 255 255 80 10
-0.235044 -0.145291 0.388448 0 255 255 80 10
-0.235322 -0.202586 0.334449 0 255 255 80 10
-0.243364 -0.197137 0.358448 0 255 255 80 10
-0.243358 -0.153956 0.392449 0 255 255 80 10
-0.222682 -0.222452 0.236448 0 255 255 80 10
-0.234627 -0.206184 0.398470 0 255 255 80 10
-0.235572 -0.179294 0.275683 0 255 255 80 10
-0.231008 -0.212810 0.486448 0 255 255 80 10
-0.235282 -0.120626 0.420449 0 255 255 80 10
-0.234633 -0.125561 0.435471 0 255 255 80 10
-0.228289 -0.222307 0.252449 0 255 255 80 10
-0.231608 -0.114299 0.361466 0 255 255 80 10
-0.229858 -0.216881 0.264447 0 255 255 80 10
-0.258549 -0.118072 0.224900 0 255 255 80 10
-0.215127 -0.223498 0.220354 0 255 255 80 10
-0.243266 -0.133897 0.481523 0 255 255 80 10
-0.234585 -0.122733 0.367447 0 255 255 80 10
-0.235374 -0.167982 0.369326 0 255 255 80 10
-0.234537 -0.214915 0.434448 0 255 255 80 10
-0.242764 -0.214042 0.496448 0 255 255 80 10
-0.230937 -0.114994 0.398449 0 255 255 80 10
-0.241917 -0.166963 0.324449 0 255 255 80 10
-0.263203 -0.222659 0.217958 0 255 255 80 10
-0.234733 -0.131218 0.409376 0 255 255 80 10
-0.243385 -0.145133 0.508448 0 255 255 80 10
-0.236273 -0.154947 0.428449 0 255 255 80 10
-0.236354 -0.149693 0.370449 0 255 255 80 10
-0.229324 -0.223306 0.260447 0 255 255 80 10
-0.243751 -0.199616 0.368448 0 255 255 80 10
-0.235380 -0.176328 0.352449 0 255 255 80 10
-0.241531 -0.115540 0.311527 0 255 255 80 10
-0.243407 -0.128473 0.446449 0 255 255 80 10
-0.233603 -0.199635 0.508448 0 255 255 80 10
-0.237165 -0.216976 0.448449 0 255 255 80 10
-0.235531 -0.187595 0.384448 0 255 255 80 10
-0.239140 -0.221664 0.333523 0 255 255 80 10
-0.234677 -0.185978 0.332448 0 255 255 80 10
-0.243254 -0.170030 0.520449 0 255 255 80 10
-0.235405 -0.150675 0.444448 0 255 255 80 10
-0.244401 -0.198942 0.514525 0 255 255 80 10
-0.242059 -0.112114 0.334449 0 255 255 80 10
-0.222373 -0.110941 0.234449 0 255 255 80 10
-0.239359 -0.110662 0.270448 0 255 255 80 10
-0.238753 -0.118417 0.326810 0 255 255 80 10
-0.240167 -0.116953 0.356449 0 255 255 80 10
-0.235489 -0.216808 0.288448 0 255 255 80 10
-0.235712 -0.196110 0.396448 0 255 255 80 10
-0.237695 -0.113755 0.420449 0 255 255 80 10
-0.243997 -0.216635 0.264447 0 255 255 80 10
-0.236423 -0.112192 0.320448 0 255 255 80 10
-0.243438 -0.188423 0.422448 0 255 255 80 10
-0.237296 -0.220695 0.308449 0 255 255 80 10
-0.234815 -0.142419 0.506448 0 255 255 80 10
-0.239616 -0.218293 0.272449 0 255 255 80 10
-0.242962 -0.191990 0.470448 0 255 255 80 10
-0.235522 -0.124642 0.394448 0 255 255 80 10
-0.235135 -0.162471 0.488448 0 255 255 80 10
-0.242053 -0.129395 0.350448 0 255 255 80 10
-0.234305 -0.186410 0.454449 0 255 255 80 10
-0.243524 -0.179696 0.334449 0 255 255 80 10
-0.235279 -0.120624 0.430449 0 255 255 80 10
-0.243754 -0.176073 0.466449 0 255 255 80 10
-0.243550 -0.179670 0.486448 0 255 255 80 10
-0.225591 -0.215541 0.252449 0 255 255 80 10
-0.235117 -0.192756 0.330448 0 255 255 80 10
-0.243156 -0.168561 0.354449 0 255 255 80 10
-0.234824 -0.217496 0.345419 0 255 255 80 10
-0.239592 -0.146339 0.280449 0 255 255 80 10
-0.243367 -0.181260 0.274447 0 255 255 80 10
-0.243406 -0.167397 0.494449 0 255 255 80 10
-0.249965 -0.112564 0.253346 0 255 255 80 10
-0.241360 -0.216485 0.458448 0 255 255 80 10
-0.235280 -0.127772 0.380449 0 255 255 80 10
-0.235236 -0.165245 0.420449 0 255 255 80 10
-0.235227 -0.159498 0.382230 0 255 255 80 10
-0.249305 -0.119006 0.264447 0 255 255 80 10
-0.235374 -0.167982 0.526965 0 255 255 80 10
-0.236523 -0.163912 0.448449 0 255 255 80 10
-0.243338 -0.145088 0.462448 0 255 255 80 10
-0.243631 -0.191102 0.460448 0 255 255 80 10
-0.243570 -0.145100 0.470448 0 255 255 80 10
-0.235866 -0.207781 0.388448 0 255 255 80 10
-0.235311 -0.121981 0.386448 0 255 255 80 10
-0.243765 -0.148280 0.346449 0 255 255 80 10
-0.235404 -0.137426 0.346449 0 255 255 80 10
-0.243593 -0.194020 0.446449 0 255 255 80 10
-0.236071 -0.138070 0.450448 0 255 255 80 10
-0.243482 -0.176860 0.388448 0 255 255 80 10
-0.243140 -0.139787 0.376448 0 255 255 80 10
-0.236485 -0.155153 0.340448 0 255 255 80 10
-0.242052 -0.123638 0.464449 0 255 255 80 10
-0.234682 -0.203248 0.348448 0 255 255 80 10
-0.236426 -0.163435 0.340448 0 255 255 80 10
-0.243652 -0.145391 0.422448 0 255 255 80 10
-0.236425 -0.112189 0.330448 0 255 255 80 10
-0.243631 -0.193981 0.336449 0 255 255 80 10
-0.243515 -0.182584 0.408449 0 255 255 80 10
-0.235523 -0.179246 0.424448 0 255 255 80 10
-0.240883 -0.159399 0.525817 0 255 255 80 10
-0.235525 -0.131983 0.394448 0 255 255 80 10
-0.243710 -0.139887 0.364449 0 255 255 80 10
-0.235592 -0.173515 0.338448 0 255 255 80 10
-0.243596 -0.162347 0.508448 0 255 255 80 10
-0.242053 -0.123636 0.488448 0 255 255 80 10
-0.243177 -0.133990 0.432448 0 255 255 80 10
-0.251130 -0.216561 0.244449 0 255 255 80 10
-0.233439 -0.210597 0.472449 0 255 255 80 10
-0.241531 -0.115540 0.265528 0 255 255 80 10
-0.243062 -0.203208 0.494776 0 255 255 80 10
-0.235853 -0.167486 0.394448 0 255 255 80 10
-0.235307 -0.121985 0.408449 0 255 255 80 10
-0.243316 -0.136725 0.412119 0 255 255 80 10
-0.235013 -0.142444 0.432448 0 255 255 80 10
-0.235196 -0.150891 0.382449 0 255 255 80 10
-0.243304 -0.192320 0.482449 0 255 255 80 10
-0.234690 -0.200361 0.448449 0 255 255 80 10
-0.236387 -0.152538 0.350448 0 255 255 80 10
-0.242116 -0.113324 0.288448 0 255 255 80 10
-0.254984 -0.116005 0.216449 0 255 255 80 10
-0.240868 -0.112119 0.300449 0 255 255 80 10
-0.236437 -0.112178 0.282449 0 255 255 80 10
-0.243793 -0.156648 0.450448 0 255 255 80 10
-0.226321 -0.117534 0.246447 0 255 255 80 10
-0.243527 -0.171056 0.486448 0 255 255 80 10
-0.234340 -0.133619 0.362449 0 255 255 80 10
-0.243554 -0.145117 0.452448 0 255 255 80 10
-0.256672 -0.217905 0.226449 0 255 255 80 10
-0.243451 -0.167440 0.334449 0 255 255 80 10
-0.234494 -0.200495 0.426449 0 255 255 80 10
-0.233795 -0.222062 0.270448 0 255 255 80 10
-0.235030 -0.151064 0.434448 0 255 255 80 10
-0.234932 -0.139750 0.492449 0 255 255 80 10
-0.242313 -0.123368 0.362449 0 255 255 80 10
-0.243389 -0.176958 0.426449 0 255 255 80 10
-0.235260 -0.162310 0.480448 0 255 255 80 10
-0.235581 -0.159841 0.500449 0 255 255 80 10
-0.235324 -0.156516 0.410449 0 255 255 80 10
-0.243253 -0.174218 0.436449 0 255 255 80 10
-0.237329 -0.165957 0.276449 0 255 255 80 10
-0.243785 -0.206687 0.464449 0 255 255 80 10
-0.243544 -0.203675 0.426449 0 255 255 80 10
-0.235444 -0.176390 0.396448 0 255 255 80 10
-0.243326 -0.158978 0.406448 0 255 255 80 10
-0.243452 -0.176891 0.514448 0 255 255 80 10
-0.243292 -0.158945 0.354449 0 255 255 80 10
-0.243876 -0.173412 0.506448 0 255 255 80 10
-0.243438 -0.159087 0.426449 0 255 255 80 10
-0.235477 -0.167875 0.434448 0 255 255 80 10
-0.229549 -0.112310 0.264447 0 255 255 80 10
-0.243535 -0.182564 0.480448 0 255 255 80 10
-0.243809 -0.165005 0.459022 0 255 255 80 10
-0.229544 -0.119316 0.264447 0 255 255 80 10
-0.217222 -0.217180 0.232447 0 255 255 80 10
-0.253426 -0.111860 0.260447 0 255 255 80 10
-0.238005 -0.156620 0.316009 0 255 255 80 10
-0.243442 -0.199935 0.392449 0 255 255 80 10
-0.234200 -0.192231 0.520449 0 255 255 80 10
-0.235492 -0.116036 0.382449 0 255 255 80 10
-0.244946 -0.213369 0.374449 0 255 255 80 10
-0.235297 -0.156785 0.370449 0 255 255 80 10
-0.238703 -0.115590 0.362861 0 255 255 80 10
-0.235801 -0.132991 0.428449 0 255 255 80 10
-0.243317 -0.131166 0.462448 0 255 255 80 10
-0.235650 -0.133147 0.340448 0 255 255 80 10
-0.243422 -0.208593 0.454449 0 255 255 80 10
-0.238865 -0.221949 0.296448 0 255 255 80 10
-0.235904 -0.187587 0.364449 0 255 255 80 10
-0.239006 -0.115276 0.400449 0 255 255 80 10
-0.235355 -0.167962 0.384448 0 255 255 80 10
-0.232861 -0.213771 0.384448 0 255 255 80 10
-0.243688 -0.214076 0.418449 0 255 255 80 10
-0.236421 -0.112195 0.408449 0 255 255 80 10
-0.243225 -0.189463 0.378448 0 255 255 80 10
-0.243597 -0.134217 0.452448 0 255 255 80 10
-0.231912 -0.167417 0.314448 0 255 255 80 10
-0.235770 -0.199241 0.364449 0 255 255 80 10
-0.238373 -0.115270 0.340448 0 255 255 80 10
-0.219966 -0.217048 0.244449 0 255 255 80 10
-0.243503 -0.181392 0.356449 0 255 255 80 10
-0.243764 -0.162173 0.416448 0 255 255 80 10
-0.237767 -0.184193 0.316449 0 255 255 80 10
-0.243511 -0.134134 0.472449 0 255 255 80 10
-0.235424 -0.170809 0.510910 0 255 255 80 10
-0.235509 -0.216787 0.298448 0 255 255 80 10
-0.235543 -0.134781 0.332448 0 255 255 80 10
-0.239711 -0.216654 0.480448 0 255 255 80 10
-0.237462 -0.122733 0.278447 0 255 255 80 10
-0.211130 -0.113985 0.222448 0 255 255 80 10
-0.241629 -0.121196 0.375527 0 255 255 80 10
-0.234782 -0.134046 0.384922 0 255 255 80 10
-0.220979 -0.112374 0.244449 0 255 255 80 10
-0.242828 -0.172400 0.526448 0 255 255 80 10
-0.243377 -0.200002 0.470448 0 255 255 80 10
-0.237702 -0.220275 0.392382 0 255 255 80 10
-0.238563 -0.216504 0.424448 0 255 255 80 10
-0.236066 -0.207573 0.509325 0 255 255 80 10
-0.235075 -0.156775 0.422448 0 255 255 80 10
-0.236382 -0.188417 0.274447 0 255 255 80 10
-0.239691 -0.216635 0.412448 0 255 255 80 10
-0.218772 -0.218677 0.226449 0 255 255 80 10
-0.235698 -0.168294 0.454449 0 255 255 80 10
-0.242069 -0.112104 0.276449 0 255 255 80 10
-0.235009 -0.176997 0.328449 0 255 255 80 10
-0.235513 -0.209821 0.356449 0 255 255 80 10
-0.245726 -0.211342 0.476449 0 255 255 80 10
-0.235621 -0.182122 0.525807 0 255 255 80 10
-0.242119 -0.123569 0.440448 0 255 255 80 10
-0.258135 -0.216390 0.242448 0 255 255 80 10
-0.243360 -0.176987 0.368448 0 255 255 80 10
-0.235188 -0.128877 0.420449 0 255 255 80 10
-0.239611 -0.210998 0.348448 0 255 255 80 10
-0.243461 -0.164669 0.374449 0 255 255 80 10
-0.243719 -0.214964 0.488448 0 255 255 80 10
-0.241211 -0.144663 0.328449 0 255 255 80 10
-0.234782 -0.134046 0.317131 0 255 255 80 10
-0.235693 -0.193564 0.454449 0 255 255 80 10
-0.214465 -0.117656 0.218447 0 255 255 80 10
-0.243710 -0.159349 0.387232 0 255 255 80 10
-0.243387 -0.172938 0.472449 0 255 255 80 10
-0.221428 -0.119084 0.242448 0 255 255 80 10
-0.235891 -0.137896 0.356449 0 255 255 80 10
-0.259128 -0.111714 0.244449 0 255 255 80 10
-0.252471 -0.216498 0.260447 0 255 255 80 10
-0.242007 -0.188288 0.328449 0 255 255 80 10
-0.236555 -0.166341 0.348448 0 255 255 80 10
-0.234478 -0.197700 0.478060 0 255 255 80 10
-0.234709 -0.200341 0.484449 0 255 255 80 10
-0.244164 -0.222220 0.252449 0 255 255 80 10
-0.234522 -0.148710 0.338448 0 255 255 80 10
-0.235717 -0.196419 0.348448 0 255 255 80 10
-0.236239 -0.143793 0.446449 0 255 255 80 10
-0.259863 -0.222214 0.238448 0 255 255 80 10
-0.234762 -0.209096 0.438449 0 255 255 80 10
-0.235917 -0.199089 0.462501 0 255 255 80 10
-0.235653 -0.164814 0.408449 0 255 255 80 10
-0.259117 -0.111725 0.218447 0 255 255 80 10
-0.235055 -0.153916 0.396448 0 255 255 80 10
-0.243106 -0.188766 0.510449 0 255 255 80 10
-0.235868 -0.196261 0.372935 0 255 255 80 10
-0.243270 -0.172826 0.346449 0 255 255 80 10
-0.239872 -0.220906 0.266449 0 255 255 80 10
-0.247575 -0.218688 0.271269 0 255 255 80 10
-0.236073 -0.126951 0.273504 0 255 255 80 10
-0.235547 -0.126443 0.490448 0 255 255 80 10
-0.235391 -0.176339 0.484449 0 255 255 80 10
-0.235501 -0.179367 0.362449 0 255 255 80 10
-0.243283 -0.189521 0.440448 0 255 255 80 10
-0.236358 -0.146808 0.364449 0 255 255 80 10
-0.243316 -0.156188 0.516448 0 255 255 80 10
-0.243263 -0.192281 0.492449 0 255 255 80 10
-0.227440 -0.118615 0.253701 0 255 255 80 10
-0.235594 -0.182150 0.516448 0 255 255 80 10
-0.234492 -0.150447 0.518448 0 255 255 80 10
-0.243499 -0.173964 0.404448 0 255 255 80 10
-0.243513 -0.148038 0.439551 0 255 255 80 10
-0.236170 -0.146507 0.458448 0 255 255 80 10
-0.234119 -0.128974 0.374449 0 255 255 80 10
-0.236150 -0.138147 0.480448 0 255 255 80 10
-0.235695 -0.193314 0.466449 0 255 255 80 10
-0.236164 -0.213229 0.273490 0 255 255 80 10
-0.235841 -0.132948 0.458448 0 255 255 80 10
-0.236337 -0.143889 0.402449 0 255 255 80 10
-0.239144 -0.224448 0.280449 0 255 255 80 10
-0.243234 -0.179996 0.448449 0 255 255 80 10
-0.243362 -0.161793 0.500449 0 255 255 80 10
-0.235584 -0.126480 0.362449 0 255 255 80 10
-0.243249 -0.181147 0.492449 0 255 255 80 10
-0.243455 -0.208559 0.386448 0 255 255 80 10
-0.235545 -0.126441 0.448449 0 255 255 80 10
-0.243841 -0.156335 0.332448 0 255 255 80 10
-0.233882 -0.122055 0.474449 0 255 255 80 10
-0.235821 -0.187875 0.344449 0 255 255 80 10
-0.243153 -0.147690 0.360448 0 255 255 80 10
-0.237702 -0.220275 0.440659 0 255 255 80 10
-0.235798 -0.193454 0.404448 0 255 255 80 10
-0.234134 -0.218211 0.330448 0 255 255 80 10
-0.248339 -0.220776 0.236448 0 255 255 80 10
-0.242512 -0.216579 0.444448 0 255 255 80 10
-0.235553 -0.190830 0.476449 0 255 255 80 10
-0.234196 -0.175185 0.464449 0 255 255 80 10
-0.241327 -0.216521 0.400449 0 255 255 80 10
-0.236430 -0.112185 0.348448 0 255 255 80 10
-0.245949 -0.200436 0.506448 0 255 255 80 10
-0.243661 -0.156521 0.469182 0 255 255 80 10
-0.233784 -0.201299 0.274447 0 255 255 80 10
-0.243396 -0.128004 0.358448 0 255 255 80 10
-0.246064 -0.211615 0.406448 0 255 255 80 10
-0.243310 -0.167304 0.446449 0 255 255 80 10
-0.234408 -0.169830 0.470448 0 255 255 80 10
-0.245699 -0.111224 0.271445 0 255 255 80 10
-0.234153 -0.221069 0.402449 0 255 255 80 10
-0.266156 -0.113073 0.214448 0 255 255 80 10
-0.234319 -0.171954 0.522449 0 255 255 80 10
-0.231552 -0.192093 0.311473 0 255 255 80 10
-0.243940 -0.210936 0.360448 0 255 255 80 10
-0.234477 -0.136531 0.510449 0 255 255 80 10
-0.243474 -0.189705 0.352449 0 255 255 80 10
-0.243618 -0.142579 0.350448 0 255 255 80 10
-0.243516 -0.185462 0.364449 0 255 255 80 10
-0.243308 -0.217348 0.349498 0 255 255 80 10
-0.243538 -0.153622 0.496448 0 255 255 80 10
-0.241741 -0.157447 0.326449 0 255 255 80 10
-0.243341 -0.170115 0.378448 0 255 255 80 10
-0.236794 -0.130428 0.312448 0 255 255 80 10
-0.243377 -0.171212 0.422448 0 255 255 80 10
-0.214401 -0.217235 0.222448 0 255 255 80 10
-0.243297 -0.156898 0.378448 0 255 255 80 10
-0.236085 -0.140864 0.382449 0 255 255 80 10
-0.243637 -0.142597 0.502449 0 255 255 80 10
-0.234198 -0.208550 0.498448 0 255 255 80 10
-0.235839 -0.132950 0.470448 0 255 255 80 10
-0.235556 -0.179310 0.476449 0 255 255 80 10
-0.243513 -0.148038 0.336500 0 255 255 80 10
-0.233841 -0.209878 0.492449 0 255 255 80 10
-0.243611 -0.202639 0.348448 0 255 255 80 10
-0.243367 -0.145310 0.492449 0 255 255 80 10
-0.235134 -0.148077 0.502449 0 255 255 80 10
-0.234913 -0.188614 0.486448 0 255 255 80 10
-0.234247 -0.183544 0.494449 0 255 255 80 10
-0.228605 -0.143321 0.516448 0 255 255 80 10
-0.243365 -0.200015 0.378448 0 255 255 80 10
-0.235415 -0.170802 0.492449 0 255 255 80 10
-0.243207 -0.142595 0.444448 0 255 255 80 10
-0.234553 -0.200552 0.434448 0 255 255 80 10
-0.259502 -0.217854 0.218447 0 255 255 80 10
-0.236425 -0.112191 0.426449 0 255 255 80 10
-0.239665 -0.203846 0.338448 0 255 255 80 10
-0.243637 -0.137035 0.508448 0 255 255 80 10
-0.243309 -0.178425 0.374449 0 255 255 80 10
-0.243429 -0.162521 0.438449 0 255 255 80 10
-0.236569 -0.160794 0.434448 0 255 255 80 10
-0.235323 -0.156811 0.510449 0 255 255 80 10
-0.242076 -0.112096 0.306447 0 255 255 80 10
-0.235699 -0.173855 0.358448 0 255 255 80 10
-0.243646 -0.134265 0.400449 0 255 255 80 10
-0.243426 -0.127974 0.392449 0 255 255 80 10
-0.234291 -0.180620 0.418449 0 255 255 80 10
-0.243251 -0.151188 0.398449 0 255 255 80 10
-0.243417 -0.153895 0.442448 0 255 255 80 10
-0.244593 -0.182444 0.520449 0 255 255 80 10
-0.234723 -0.220480 0.414448 0 255 255 80 10
-0.243651 -0.167633 0.396448 0 255 255 80 10
-0.243331 -0.185654 0.470448 0 255 255 80 10
-0.235999 -0.135664 0.372449 0 255 255 80 10
-0.240865 -0.117677 0.278447 0 255 255 80 10
-0.243568 -0.156432 0.510449 0 255 255 80 10
-0.235484 -0.179384 0.340448 0 255 255 80 10
-0.234836 -0.206386 0.458448 0 255 255 80 10
-0.243406 -0.205730 0.478448 0 255 255 80 10
-0.235261 -0.153971 0.490448 0 255 255 80 10
-0.195348 -0.123767 0.220449 0 255 255 80 10
-0.235620 -0.179244 0.386448 0 255 255 80 10
-0.243445 -0.161873 0.478448 0 255 255 80 10
-0.235604 -0.187898 0.412448 0 255 255 80 10
-0.235861 -0.143428 0.344449 0 255 255 80 10
-0.235277 -0.168082 0.360448 0 255 255 80 10
-0.243669 -0.191062 0.428449 0 255 255 80 10
-0.244901 -0.212818 0.470448 0 255 255 80 10
-0.236378 -0.161184 0.352449 0 255 255 80 10
-0.243453 -0.197044 0.432448 0 255 255 80 10
-0.235948 -0.207460 0.426449 0 255 255 80 10
-0.240768 -0.119210 0.482449 0 255 255 80 10
-0.215352 -0.112502 0.226449 0 255 255 80 10
-0.235156 -0.165328 0.414448 0 255 255 80 10
-0.235348 -0.170888 0.498448 0 255 255 80 10
-0.234611 -0.208949 0.446449 0 255 255 80 10
-0.243381 -0.203516 0.442448 0 255 255 80 10
-0.235865 -0.204902 0.470448 0 255 255 80 10
-0.242075 -0.121626 0.454449 0 255 255 80 10
-0.242171 -0.123514 0.412448 0 255 255 80 10
-0.260966 -0.216338 0.230449 0 255 255 80 10
-0.243401 -0.194220 0.382449 0 255 255 80 10
-0.230170 -0.112910 0.245500 0 255 255 80 10
-0.243625 -0.139284 0.422448 0 255 255 80 10
-0.243376 -0.185607 0.340448 0 255 255 80 10
-0.411798 -0.179874 0.392449 255 0 0 83 11
-0.378164 -0.164075 0.213532 255 0 0 83 11
-0.426937 -0.122205 0.485326 255 0 0 83 11
-0.366370 -0.091519 0.410449 255 0 0 83 11
-0.374990 -0.144328 0.309144 255 0 0 83 11
-0.426832 -0.197171 0.460571 255 0 0 83 11
-0.418623 -0.180903 0.268449 255 0 0 83 11
-0.414794 -0.117506 0.374449 255 0 0 83 11
-0.384446 -0.145119 0.436449 255 0 0 83 11
-0.359659 -0.174600 0.360448 255 0 0 83 11
-0.432043 -0.171621 0.337483 255 0 0 83 11
-0.362004 -0.179053 0.266449 255 0 0 83 11
-0.381690 -0.122994 0.257462 255 0 0 83 11
-0.428921 -0.114393 0.430449 255 0 0 83 11
-0.366834 -0.122550 0.356449 255 0 0 83 11
-0.352317 -0.141895 0.399482 255 0 0 83 11
-0.417989 -0.137229 0.288448 255 0 0 83 11
-0.413242 -0.147903 0.237017 255 0 0 83 11
-0.388431 -0.185112 0.301526 255 0 0 83 11
-0.395625 -0.192059 0.430847 255 0 0 83 11
-0.397154 -0.153047 0.354449 255 0 0 83 11
-0.436656 -0.192757 0.421673 255 0 0 83 11
-0.410315 -0.142297 0.405063 255 0 0 83 11
-0.392748 -0.189279 0.240268 255 0 0 83 11
-0.381641 -0.120167 0.391486 255 0 0 83 11
-0.442263 -0.189830 0.367104 255 0 0 83 11
-0.380061 -0.163127 0.390449 255 0 0 83 11
-0.354572 -0.144073 0.266449 255 0 0 83 11
-0.406989 -0.157259 0.316449 255 0 0 83 11
-0.391509 -0.188083 0.354449 255 0 0 83 11
-0.373390 -0.171896 0.328449 255 0 0 83 11
-0.412100 -0.163483 0.431390 255 0 0 83 11
-0.365688 -0.105016 0.440448 255 0 0 83 11
-0.363322 -0.159290 0.240449 255 0 0 83 11
-0.390019 -0.194985 0.272342 255 0 0 83 11
-0.436910 -0.126274 0.457103 255 0 0 83 11
-0.363432 -0.167813 0.294449 255 0 0 83 11
-0.406304 -0.171788 0.220449 255 0 0 83 11
-0.384968 -0.128237 0.286449 255 0 0 83 11
-0.422806 -0.152395 0.264447 255 0 0 83 11
