ply
format ascii 1.0
element vertex 1135
property float x
property float y
property float z
property uchar red
property uchar green
property uchar blue
property uchar semantic_label
property uchar instance_label
end_header
0.154146 -0.170283 -0.702943 43 32 13 7 3
0.342659 0.479796 -0.544943 144 131 117 1 6
0.397152 0.481047 -0.521097 144 132 127 1 6
0.372889 0.479559 -0.533606 143 129 122 1 6
0.327888 0.049010 -0.748204 30 31 25 2 2
0.309142 0.046535 -0.746902 29 31 14 2 2
0.295535 0.061365 -0.748387 32 26 21 2 2
0.180628 0.357157 -0.434349 94 81 75 7 3
0.179464 0.354045 -0.447351 54 42 28 7 3
0.179690 0.350644 -0.432318 54 42 28 7 3
0.204494 0.370708 -0.436471 93 83 73 7 3
0.184581 0.344499 -0.421849 60 44 35 7 3
0.179215 0.357362 -0.417242 112 101 92 7 3
0.191729 0.364709 -0.421443 112 101 92 7 3
0.217453 0.377876 -0.447081 116 108 96 7 3
0.200420 0.372351 -0.452423 75 65 53 7 3
0.226456 0.258017 -0.751482 19 17 12 2 2
0.190062 0.282151 -0.733532 15 13 11 7 3
0.202011 0.270738 -0.746360 16 12 9 2 2
0.228289 0.273692 -0.745166 20 15 12 2 2
0.212912 0.271482 -0.744196 22 15 13 2 2
0.187224 0.263788 -0.749569 19 17 15 2 2
0.002015 0.469889 -0.411443 82 73 58 1 6
-0.035241 0.468589 -0.393943 90 80 51 1 6
0.742683 0.286615 -0.291246 143 128 101 1 7
0.743597 0.274862 -0.282956 143 127 107 1 7
0.746153 0.288149 -0.262989 146 128 110 1 7
0.228699 0.474704 -0.401543 91 81 70 1 6
0.240906 0.477346 -0.410826 88 76 60 1 6
0.738980 0.092620 -0.287943 138 120 110 1 7
0.732937 -0.279683 -0.298171 132 108 76 1 7
0.734615 -0.255794 -0.310030 123 111 90 1 7
0.735910 -0.259541 -0.287654 128 111 89 1 7
0.733057 -0.277938 -0.317880 134 107 71 1 7
0.028548 0.469818 -0.313810 82 65 45 1 6
0.014798 0.467283 -0.316335 81 64 45 1 6
0.006505 0.464081 -0.308384 82 59 37 1 6
0.027403 0.454970 -0.287427 56 42 17 7 3
0.010722 0.450468 -0.285249 49 31 29 7 3
0.013119 0.465631 -0.300992 57 35 26 1 6
0.005585 0.460005 -0.294946 65 44 20 7 3
0.388884 0.479997 -0.551998 144 130 121 1 6
0.420748 0.473063 -0.581727 137 132 120 1 6
0.423699 0.473940 -0.597015 132 123 103 1 6
0.240565 0.129582 -0.754278 25 23 14 2 2
0.219357 0.148616 -0.752208 25 20 14 2 2
0.244079 -0.175676 -0.697195 61 48 33 7 3
0.212069 -0.342233 -0.744837 34 26 12 2 2
0.010733 -0.368599 -0.745885 25 22 19 2 2
-0.011783 -0.382942 -0.749361 33 28 22 2 2
-0.033023 -0.387162 -0.749102 28 25 15 2 2
0.269916 0.388301 -0.733564 16 16 10 7 3
-0.019126 -0.400143 -0.748199 35 29 20 2 2
0.688737 0.451416 -0.289047 147 135 112 1 6
0.684717 0.453126 -0.274965 147 135 112 1 6
0.735354 -0.055774 -0.351318 113 100 86 1 7
0.219920 0.288731 -0.625268 24 23 13 7 3
0.240097 0.325814 -0.631253 39 28 19 7 3
0.245269 0.306606 -0.623284 26 25 12 7 3
0.237215 0.297782 -0.622840 26 20 14 7 3
0.228060 0.291373 -0.619882 41 27 12 7 3
0.247731 0.312279 -0.630613 25 26 13 7 3
0.130222 -0.024107 -0.745308 33 26 23 2 2
0.138081 -0.003854 -0.746676 33 27 23 2 2
0.249542 0.317457 -0.438229 65 52 37 7 3
0.241440 0.329264 -0.657913 45 30 25 7 3
0.235764 0.326609 -0.644001 41 30 22 7 3
-0.122366 0.465730 -0.449943 106 94 83 1 6
-0.115915 0.466554 -0.478443 106 100 85 1 6
-0.078889 0.226751 -0.746125 31 20 23 2 2
-0.084213 0.242908 -0.747028 28 22 18 2 2
0.735080 -0.239490 -0.268716 128 115 87 1 7
0.737508 -0.221052 -0.252872 129 111 99 1 7
0.735238 -0.224921 -0.280731 135 112 80 1 7
0.735517 -0.242828 -0.289889 116 98 75 1 7
-0.067840 0.400084 -0.258651 66 44 22 7 3
0.239885 0.474462 -0.467500 93 78 71 1 6
0.221287 0.474489 -0.459675 93 81 68 1 6
0.264101 0.471062 -0.450014 78 70 47 1 6
0.240464 0.473247 -0.451740 87 76 60 1 6
0.235948 0.475601 -0.479132 73 61 54 1 6
0.159238 -0.169766 -0.623912 72 47 18 7 3
0.236898 -0.186717 -0.539666 42 36 28 7 3
0.234283 -0.188885 -0.523366 33 27 21 0 0
0.232001 -0.195874 -0.527421 42 36 28 7 3
0.231233 -0.178250 -0.522575 47 35 30 0 0
0.227160 -0.169965 -0.520958 33 22 21 0 0
0.084173 -0.178765 -0.743884 37 34 25 2 2
0.372138 0.449816 -0.656746 106 90 61 1 6
0.355231 0.445125 -0.663604 100 83 69 1 6
0.365916 0.458906 -0.664335 96 85 64 1 6
0.360328 0.450422 -0.653871 91 81 61 1 6
0.365672 0.450192 -0.639083 129 118 101 1 6
0.365398 0.464543 -0.666290 125 108 93 1 6
0.371864 0.460665 -0.641810 131 123 97 1 6
0.367413 0.469106 -0.637189 128 118 95 1 6
0.370624 0.464299 -0.649185 127 119 91 1 6
0.372322 0.460345 -0.651039 127 115 99 1 6
0.217160 0.381914 -0.472946 103 94 78 7 3
0.228524 0.384575 -0.472669 129 120 103 7 3
0.226274 0.383120 -0.455282 117 109 96 7 3
0.231951 0.171194 -0.752697 25 21 13 2 2
0.205568 0.190340 -0.752737 25 25 15 2 2
0.738814 0.298644 -0.357250 123 105 88 1 7
0.739669 0.267379 -0.342943 126 109 94 1 7
0.740871 0.276163 -0.320068 120 103 88 1 7
0.225449 -0.195766 -0.371830 31 26 14 7 3
0.218713 -0.199018 -0.358936 28 20 12 7 3
0.200633 -0.197635 -0.379943 29 26 22 7 3
0.178997 -0.177304 -0.290943 50 34 14 7 3
0.182589 -0.186887 -0.306768 56 40 13 7 3
0.197021 -0.197412 -0.321289 46 33 10 7 3
0.188718 -0.192644 -0.301194 52 34 18 7 3
0.736406 -0.081678 -0.283693 139 127 111 1 7
0.736891 -0.063124 -0.279443 143 125 104 1 7
0.360632 -0.238701 -0.746035 41 39 29 2 2
0.376652 -0.232921 -0.747417 32 30 22 2 2
0.065035 -0.247038 -0.743041 30 27 23 2 2
0.077043 -0.233950 -0.743239 32 28 23 2 2
0.049940 -0.223262 -0.743647 37 29 27 2 2
-0.051303 -0.096852 -0.744051 41 33 33 2 2
-0.067019 -0.101420 -0.744431 40 38 32 2 2
-0.066313 -0.070362 -0.743862 41 40 33 2 2
-0.096418 0.264657 -0.746085 26 20 26 2 2
-0.125130 0.264292 -0.743580 21 23 17 2 2
0.378633 -0.141692 -0.741824 43 38 27 2 2
0.374941 -0.168982 -0.742971 46 32 27 2 2
0.379977 -0.159473 -0.740329 45 35 30 2 2
0.361347 -0.153092 -0.740088 40 36 30 2 2
0.353704 -0.166156 -0.739770 46 38 28 2 2
0.457458 0.163928 -0.753252 26 26 22 2 2
0.207773 0.376648 -0.611869 50 35 14 7 3
0.201625 0.369189 -0.614523 54 40 19 7 3
0.201168 0.370258 -0.629616 49 37 18 7 3
0.195329 0.354071 -0.627460 48 36 16 7 3
0.733525 -0.034649 -0.444104 116 99 89 1 7
0.733191 -0.029033 -0.427693 108 92 75 1 7
-0.066455 0.467504 -0.482943 121 105 95 1 6
-0.084774 0.468097 -0.465943 119 104 98 1 6
-0.100917 0.467744 -0.474943 111 103 82 1 6
-0.090853 0.468128 -0.435943 115 105 83 1 6
0.464620 -0.180424 -0.745873 38 32 29 2 2
0.113201 -0.137771 -0.744872 37 36 33 2 2
0.364834 0.343171 -0.756001 27 23 20 2 2
0.221770 -0.196636 -0.588068 89 64 34 7 3
0.227456 -0.196704 -0.581950 58 38 31 7 3
0.229545 -0.187404 -0.575542 70 53 32 7 3
0.226726 -0.182172 -0.582851 86 64 38 7 3
0.219157 -0.181507 -0.604041 95 69 37 7 3
0.218569 -0.191841 -0.602893 93 67 25 7 3
0.225902 -0.183218 -0.596828 90 63 37 7 3
0.203149 -0.199943 -0.594624 100 69 33 7 3
0.276402 0.346833 -0.751863 18 18 14 2 2
0.266937 0.346586 -0.744468 18 17 13 7 3
0.264111 0.333671 -0.743380 19 16 10 2 2
0.400799 -0.293693 -0.747209 43 34 23 2 2
0.730914 -0.109722 -0.424991 124 112 94 1 7
0.729760 -0.097655 -0.416105 124 112 87 1 7
0.730216 -0.114450 -0.446046 121 110 92 1 7
0.739433 0.214187 -0.301193 136 128 100 1 7
0.076935 0.469901 -0.458943 89 76 60 1 6
0.092396 0.468698 -0.483943 94 77 66 1 6
0.160483 -0.160944 -0.592601 74 43 21 7 3
0.162179 -0.146392 -0.584324 60 43 22 7 3
0.731434 -0.190620 -0.393346 92 86 69 1 7
0.724636 -0.196223 -0.407361 86 78 66 1 7
0.729334 -0.204646 -0.385657 109 99 87 1 7
0.722845 -0.210931 -0.391973 107 99 88 1 7
0.156063 0.472115 -0.472693 84 69 64 1 6
0.113467 0.471520 -0.453068 79 66 49 1 6
0.440746 0.007381 -0.747623 21 20 17 2 2
0.119082 0.453138 -0.737552 29 30 18 1 6
0.111897 0.445210 -0.745703 28 22 13 2 2
0.098687 0.443774 -0.746185 30 21 28 2 2
0.132658 0.450854 -0.740501 25 23 16 2 2
0.731709 -0.170697 -0.383377 129 110 84 1 7
0.364789 0.480337 -0.563175 135 127 111 1 6
0.230162 0.302000 -0.474129 51 44 28 7 3
0.251276 0.308791 -0.468107 51 41 27 7 3
0.238936 0.302545 -0.451005 51 42 21 7 3
0.234250 0.301291 -0.463127 52 42 27 7 3
0.231566 0.474251 -0.508345 100 85 66 1 6
0.250032 0.474116 -0.503193 88 75 65 1 6
0.240469 0.474367 -0.534346 99 87 73 1 6
0.089018 0.440120 -0.745918 18 15 12 2 2
0.181152 0.430392 -0.752172 27 21 23 2 2
0.194707 0.429792 -0.751787 21 20 18 2 2
0.189930 0.447586 -0.746848 26 25 19 2 2
0.175822 0.406869 -0.754570 24 22 13 2 2
-0.148821 0.448730 -0.730383 28 20 18 1 6
-0.128105 0.454087 -0.680813 21 18 21 1 6
-0.139103 0.449232 -0.715614 25 18 19 1 6
-0.157642 0.453738 -0.715907 21 18 15 1 6
0.181893 0.209315 -0.752779 21 18 12 2 2
0.144810 0.238561 -0.754001 23 14 19 2 2
0.408320 -0.277379 -0.747377 32 30 24 2 2
0.218941 0.297551 -0.448587 52 39 23 7 3
0.213050 0.298376 -0.472464 52 45 29 7 3
0.189785 0.295792 -0.471384 63 33 24 7 3
0.197550 0.295093 -0.448454 64 40 26 7 3
0.198168 0.295338 -0.469737 58 42 24 7 3
0.250890 0.465280 -0.709789 44 32 25 1 6
0.249521 0.461619 -0.729145 39 34 24 1 6
0.238137 0.465921 -0.702441 44 29 28 1 6
0.233638 0.463427 -0.718168 39 31 15 1 6
-0.147798 0.467170 -0.331265 68 59 40 1 6
-0.162476 0.469136 -0.322874 80 67 57 1 6
-0.015019 0.471647 -0.368219 84 69 51 1 6
-0.022996 0.469586 -0.385193 84 70 53 1 6
-0.046937 0.470918 -0.367068 78 69 52 1 6
-0.082986 0.058579 -0.746229 21 20 13 2 2
0.163428 0.459187 -0.722900 30 22 14 1 6
0.184322 0.454171 -0.732174 34 24 21 1 6
0.162928 0.455423 -0.733570 28 23 13 1 6
0.229126 0.134338 -0.753310 25 23 24 2 2
0.218921 0.099052 -0.750592 23 24 15 2 2
0.229025 0.110344 -0.751088 29 25 19 2 2
0.200313 0.399355 -0.749090 44 29 17 7 3
0.186414 0.378927 -0.748347 41 29 17 7 3
0.187360 0.400931 -0.752161 26 18 12 2 2
0.169987 0.381493 -0.754720 29 18 12 2 2
0.219962 0.383302 -0.663160 45 32 21 7 3
0.211383 0.379486 -0.630690 43 30 17 7 3
0.215686 0.382153 -0.654823 45 29 20 7 3
0.266872 -0.354766 -0.743657 33 32 20 2 2
0.263220 -0.320156 -0.743602 36 35 30 2 2
0.262020 -0.341855 -0.742677 35 30 21 2 2
0.242759 -0.340277 -0.743714 34 34 24 2 2
0.329010 -0.231725 -0.744089 41 38 26 2 2
0.298564 -0.247925 -0.743589 36 40 21 2 2
0.161554 0.398112 -0.753245 18 18 9 2 2
0.146021 0.385705 -0.754098 16 21 8 2 2
0.151219 0.411349 -0.753178 18 16 13 2 2
0.098684 0.475183 -0.368099 87 74 55 1 6
0.116602 0.471777 -0.354450 81 71 54 1 6
0.098567 0.471360 -0.352495 83 70 51 1 6
0.189415 0.184604 -0.752014 30 20 21 2 2
0.206153 0.155973 -0.752767 26 24 14 2 2
0.189160 0.147462 -0.752230 26 21 11 2 2
0.402655 -0.184642 -0.746687 26 30 21 2 2
0.389095 -0.205581 -0.747174 34 33 28 2 2
0.734200 0.045420 -0.350130 117 100 79 1 7
0.735994 0.043750 -0.323834 116 102 79 1 7
0.736325 0.059545 -0.326375 117 106 90 1 7
0.731563 0.088454 -0.406258 112 95 73 1 7
0.730344 0.087255 -0.393072 112 95 71 1 7
0.730850 0.111989 -0.405408 119 98 73 1 7
-0.131368 0.440471 -0.747060 17 13 14 1 6
-0.139381 0.444742 -0.740643 27 25 17 1 6
-0.152903 0.439215 -0.748028 23 14 13 1 6
-0.143236 0.431062 -0.750704 24 11 15 2 2
0.256989 0.335580 -0.734026 18 15 24 7 3
0.257248 0.326639 -0.731257 18 15 21 2 2
0.251297 0.329068 -0.723544 18 15 14 7 3
0.250739 0.345068 -0.705571 14 17 8 7 3
0.249726 0.316700 -0.696544 18 16 14 7 3
0.254899 0.342080 -0.721845 21 14 15 7 3
0.188431 0.331251 -0.574668 56 41 13 7 3
0.200859 -0.193358 -0.678529 69 53 26 7 3
0.236300 -0.179264 -0.696190 60 45 21 7 3
0.211864 -0.184397 -0.676751 59 42 31 7 3
0.212914 -0.188394 -0.694066 44 42 28 7 3
0.225740 -0.187993 -0.707777 40 39 22 7 3
-0.004603 0.269746 -0.747782 19 22 21 2 2
-0.021711 0.256956 -0.747458 23 20 13 2 2
-0.035940 0.272761 -0.747927 24 23 14 2 2
-0.142656 0.463028 -0.499698 107 100 70 1 6
-0.171585 0.463373 -0.490533 109 99 87 1 6
0.196043 -0.204722 -0.734769 24 26 13 7 3
0.177662 -0.206622 -0.737603 23 25 14 2 2
0.192907 -0.228165 -0.740337 40 37 25 2 2
0.178037 -0.236692 -0.740425 39 31 22 2 2
0.175672 -0.219367 -0.742656 32 27 24 2 2
0.076775 0.458991 -0.691726 32 21 15 1 6
0.200414 0.472742 -0.433942 105 87 82 1 6
0.216390 0.474061 -0.412467 101 89 71 1 6
0.204307 0.473891 -0.422757 103 88 81 1 6
0.189852 0.473737 -0.418297 101 84 71 1 6
0.257027 0.088223 -0.750167 33 27 20 2 2
0.240645 0.072262 -0.749662 30 26 18 2 2
0.275186 0.099667 -0.751529 28 26 20 2 2
0.175360 -0.190256 -0.419975 59 35 18 7 3
0.171858 -0.183384 -0.424193 65 35 22 7 3
0.185770 -0.197663 -0.429309 65 35 14 7 3
0.038071 0.473250 -0.376786 85 72 62 1 6
0.023509 0.471246 -0.357867 81 71 55 1 6
0.247343 0.007665 -0.745882 34 31 22 2 2
0.251785 0.052099 -0.748977 29 29 23 2 2
0.244425 0.066583 -0.748881 32 27 21 2 2
0.237262 0.039520 -0.747042 35 29 17 2 2
0.228743 0.051405 -0.748919 27 23 17 2 2
0.179620 0.472010 -0.508943 83 68 51 1 6
0.186264 0.472338 -0.479943 88 74 49 1 6
-0.065474 0.286344 -0.745621 22 16 18 2 2
-0.084199 0.272633 -0.745099 22 20 19 2 2
-0.086400 0.291174 -0.747510 21 18 17 2 2
-0.103292 0.291662 -0.746040 23 21 19 2 2
0.476930 0.042841 -0.749476 30 25 21 2 2
0.111756 0.089576 -0.746355 27 26 27 2 2
0.085863 0.081519 -0.745684 31 25 24 2 2
0.093904 0.101372 -0.746981 37 21 19 2 2
0.036635 0.460114 -0.681273 45 41 26 1 6
0.003729 0.455361 -0.696474 31 25 15 1 6
0.025492 0.458194 -0.688870 29 23 11 1 6
0.018298 -0.308263 -0.745155 29 19 23 2 2
-0.084317 -0.042641 -0.743749 31 30 21 2 2
-0.075789 -0.019816 -0.742111 37 34 27 2 2
0.651722 0.449186 -0.371981 143 127 83 1 6
0.669687 0.450592 -0.348247 136 122 98 1 6
0.029489 -0.333671 -0.743960 28 27 20 2 2
0.653750 0.443122 -0.382999 153 125 80 1 6
0.674522 0.449064 -0.331754 143 127 104 1 6
0.280412 0.475343 -0.507007 103 91 79 1 6
0.302135 0.477950 -0.572369 104 93 87 1 6
0.321346 0.477412 -0.598182 107 93 75 1 6
0.289935 0.476116 -0.580443 102 90 62 1 6
0.177612 -0.125282 -0.637056 43 35 24 7 3
0.170628 -0.128688 -0.604896 54 43 31 7 3
0.166882 -0.130879 -0.629165 42 31 15 7 3
0.238174 0.286246 -0.742006 18 16 11 2 2
0.232678 0.296920 -0.663323 15 19 12 7 3
0.222833 0.291323 -0.660370 17 16 12 7 3
0.235559 0.301039 -0.692533 16 16 14 7 3
0.245461 0.310175 -0.678502 17 16 10 7 3
0.245107 0.315376 -0.666732 20 14 12 7 3
0.283115 -0.297551 -0.745244 37 34 27 2 2
0.251882 -0.275417 -0.741480 34 33 27 2 2
0.259290 -0.281474 -0.743144 51 52 34 2 2
0.178408 0.448904 -0.742122 27 23 15 2 2
0.158113 0.441513 -0.746828 15 18 6 2 2
0.159078 0.449424 -0.741774 28 24 12 2 2
0.139886 0.446472 -0.744620 24 25 13 2 2
0.164890 -0.153540 -0.409776 41 27 11 7 3
0.166287 -0.153941 -0.380284 49 27 8 7 3
0.167553 -0.157762 -0.395135 45 25 6 7 3
0.220465 -0.116078 -0.429426 45 41 23 7 3
0.226400 -0.118861 -0.416984 44 38 31 7 3
-0.109168 0.455338 -0.688406 20 18 7 1 6
-0.119119 0.455916 -0.682363 18 19 9 1 6
-0.130559 0.454554 -0.662429 22 21 14 1 6
0.184934 0.341073 -0.705837 35 24 11 7 3
0.170702 -0.153300 -0.328862 41 26 14 7 3
0.173924 -0.162749 -0.328293 52 30 14 7 3
0.165682 -0.140685 -0.336715 37 25 19 7 3
0.175231 0.350092 -0.507241 100 81 71 7 3
0.180769 0.357555 -0.517337 102 80 79 7 3
0.176814 0.355293 -0.541278 89 78 54 7 3
0.207443 0.375086 -0.510215 105 96 78 7 3
0.194640 0.367285 -0.503645 92 79 62 7 3
0.733080 -0.057147 -0.425943 112 104 74 1 7
0.732484 -0.070011 -0.423962 126 111 82 1 7
0.733622 -0.076394 -0.440427 126 106 93 1 7
0.668554 0.450300 -0.313808 138 130 95 1 6
0.661936 0.451118 -0.336400 139 129 107 1 6
0.646368 0.450753 -0.326147 139 129 109 1 6
0.731923 -0.154228 -0.411335 102 80 62 1 7
0.731031 -0.174895 -0.410865 100 83 78 1 7
0.731669 -0.150989 -0.397800 123 108 83 1 7
0.195585 0.472815 -0.405770 96 80 64 1 6
0.164628 0.473570 -0.389386 98 77 71 1 6
0.176983 0.472856 -0.389514 98 80 66 1 6
0.101208 -0.113740 -0.746076 38 34 20 2 2
0.091495 -0.120632 -0.745813 34 28 25 2 2
0.201860 0.298454 -0.415175 56 39 27 7 3
0.212024 0.297262 -0.438525 57 42 18 7 3
0.200909 0.299115 -0.431123 57 42 18 7 3
0.182536 0.302303 -0.447742 62 38 29 7 3
0.195830 0.302702 -0.419949 55 38 19 7 3
0.188286 0.303399 -0.428037 46 29 21 7 3
0.186984 0.315189 -0.417770 45 28 20 7 3
0.603797 0.446975 -0.342362 148 125 108 1 6
0.589193 0.453111 -0.314074 151 120 88 1 6
0.599698 0.451498 -0.322672 147 120 76 1 6
0.589547 0.450740 -0.331871 153 127 86 1 6
0.345816 0.475046 -0.486943 136 124 119 1 6
0.332331 0.472587 -0.471796 127 117 111 1 6
0.195497 -0.195539 -0.304135 51 37 17 7 3
0.191653 -0.193395 -0.259862 58 36 18 7 3
0.184406 -0.188939 -0.272316 56 37 25 7 3
0.176430 -0.162914 -0.277848 56 31 20 7 3
0.172669 -0.157776 -0.279481 49 28 13 7 3
0.161849 -0.153546 -0.277272 45 28 16 7 3
0.176886 -0.155735 -0.260257 50 31 13 7 3
0.161262 -0.149962 -0.267787 36 25 14 7 3
0.057749 0.400857 -0.752145 16 13 12 2 2
0.049506 0.407776 -0.751507 14 12 11 2 2
0.135396 -0.060835 -0.745829 43 43 37 2 2
0.141704 -0.073131 -0.746443 32 35 23 2 2
-0.144276 0.466626 -0.378943 107 97 67 1 6
-0.171545 0.466200 -0.382193 101 95 85 1 6
0.226944 0.467375 -0.644183 94 79 65 1 6
0.231976 0.470667 -0.628492 98 82 58 1 6
0.254347 0.471350 -0.628123 80 66 51 1 6
0.735344 -0.066944 -0.292038 140 121 97 1 7
0.736238 -0.094614 -0.315443 132 113 90 1 7
0.735137 -0.079483 -0.308056 131 112 96 1 7
0.735915 -0.048484 -0.305568 138 123 104 1 7
0.218564 0.401194 -0.735693 52 36 19 7 3
0.233754 0.391072 -0.717520 46 33 15 7 3
0.223264 0.395516 -0.721417 49 30 17 7 3
0.212030 0.387823 -0.720885 50 32 15 7 3
0.221016 0.388454 -0.705999 49 35 15 7 3
-0.061714 0.419562 -0.271721 50 37 24 7 3
-0.055640 0.432839 -0.280379 47 34 23 7 3
-0.065153 0.440565 -0.287944 44 30 24 7 3
-0.080694 0.414744 -0.269853 38 31 13 7 3
-0.099166 0.427527 -0.752964 13 15 11 2 2
0.205167 -0.119905 -0.512635 44 37 18 7 3
0.195813 -0.117373 -0.481784 42 38 20 7 3
0.210661 -0.113344 -0.481868 42 39 29 7 3
0.203398 -0.118738 -0.497071 44 35 27 7 3
0.214968 -0.116465 -0.498435 47 34 32 7 3
0.226164 -0.172611 -0.525718 30 24 21 0 0
0.042239 -0.038614 -0.743422 45 37 31 2 2
-0.105028 0.188088 -0.748600 25 23 15 2 2
0.263611 0.474068 -0.620639 98 86 67 1 6
0.281576 0.475516 -0.610943 102 86 64 1 6
0.284772 0.473994 -0.632755 101 86 65 1 6
0.177778 0.470853 -0.581943 88 79 65 1 6
0.401912 -0.119440 -0.753781 72 63 56 2 2
0.410415 -0.126404 -0.751142 38 35 23 2 2
0.387508 -0.142449 -0.740810 48 42 36 2 2
0.401131 -0.132320 -0.748449 49 38 31 2 2
0.388809 -0.129107 -0.747579 67 54 51 2 2
0.145813 0.276859 -0.755207 19 16 10 2 2
0.124690 0.256817 -0.752463 18 18 15 2 2
0.159442 0.259748 -0.753088 19 18 10 2 2
0.450388 -0.126155 -0.744865 48 39 35 2 2
0.434459 -0.104014 -0.756119 39 36 24 2 2
0.440860 -0.117755 -0.751012 36 40 21 2 2
0.417135 -0.110146 -0.753306 45 30 19 2 2
0.194179 -0.204697 -0.486232 39 34 20 7 3
0.735869 0.136170 -0.344443 109 98 75 1 7
0.738800 0.174394 -0.326130 126 110 84 1 7
0.743207 0.317677 -0.293693 141 128 106 1 7
0.746297 0.314044 -0.260384 144 125 108 1 7
0.175488 0.299224 -0.729720 25 16 13 7 3
0.182278 0.294973 -0.691875 22 22 14 7 3
0.178234 0.309675 -0.698261 34 19 11 7 3
0.181078 0.289053 -0.729519 23 18 16 7 3
0.130875 -0.096993 -0.746093 37 32 22 2 2
0.137912 -0.087402 -0.745712 42 32 31 2 2
0.389006 0.447391 -0.679740 43 30 22 1 6
0.734493 -0.023507 -0.353220 107 95 79 1 7
0.735640 -0.006758 -0.344550 109 102 80 1 7
0.305507 -0.095787 -0.741652 50 39 32 2 2
0.332378 -0.092162 -0.741073 41 36 26 2 2
0.332587 -0.087882 -0.745583 42 37 28 2 2
0.174932 0.334622 -0.430040 47 32 29 7 3
0.261034 0.324247 -0.536257 119 107 90 7 3
0.255345 0.319244 -0.528190 114 100 78 7 3
0.253367 0.312963 -0.542426 114 100 78 7 3
0.251361 0.312052 -0.523303 118 106 83 7 3
0.735298 -0.225403 -0.308477 113 103 87 1 7
0.401959 0.443984 -0.675859 51 40 28 1 6
0.272849 -0.210512 -0.741095 43 35 31 2 2
0.277467 -0.193574 -0.740883 34 32 22 2 2
0.083198 -0.371313 -0.746705 28 24 12 2 2
0.061996 -0.368930 -0.746099 27 25 18 2 2
0.226544 0.293462 -0.560292 50 31 25 7 3
0.735373 -0.125494 -0.325662 137 118 100 1 7
0.219657 0.292485 -0.572351 31 26 12 7 3
0.241804 0.295573 -0.537161 84 71 55 7 3
0.234673 0.290155 -0.541222 86 65 47 7 3
0.733624 -0.160610 -0.335785 132 113 113 1 7
0.734208 -0.112210 -0.338693 133 113 94 1 7
0.245622 0.302070 -0.574583 35 22 20 7 3
0.229653 0.292368 -0.550579 73 47 34 7 3
0.245246 0.300858 -0.554458 75 66 54 7 3
0.237648 0.296235 -0.567335 71 53 28 7 3
-0.031004 -0.235323 -0.742798 36 34 24 2 2
-0.051703 -0.223335 -0.744333 40 37 29 2 2
-0.041253 -0.230910 -0.743994 38 38 22 2 2
0.185240 0.458846 -0.702575 27 25 18 1 6
0.203983 0.457045 -0.721806 34 26 17 1 6
0.193049 0.455424 -0.732691 36 22 19 1 6
0.205259 0.459671 -0.704773 33 24 14 1 6
0.213926 0.459923 -0.718352 42 37 18 1 6
0.737009 -0.115248 -0.284443 141 131 103 1 7
0.738178 -0.099607 -0.262232 133 125 97 1 7
0.020317 0.469400 -0.522943 113 101 93 1 6
0.034394 0.469011 -0.491693 108 96 83 1 6
0.171293 -0.161566 -0.352902 42 30 13 7 3
0.166079 -0.145767 -0.360390 44 25 12 7 3
0.164888 -0.142386 -0.377048 38 26 15 7 3
-0.079851 0.465480 -0.600024 114 104 82 1 6
-0.063015 0.465669 -0.597425 114 103 83 1 6
0.248181 0.307096 -0.494962 61 50 35 7 3
0.257438 0.316654 -0.485290 51 44 26 7 3
0.251695 0.314202 -0.496163 61 48 33 7 3
0.252650 0.308044 -0.502779 54 49 22 7 3
0.256295 0.315987 -0.504596 61 44 30 7 3
0.251136 0.307637 -0.517051 95 85 63 7 3
0.248470 0.317583 -0.513170 64 48 38 7 3
0.250378 0.321416 -0.506977 27 19 17 7 3
0.072717 0.479413 -0.308514 75 57 26 1 6
0.091485 0.476823 -0.321497 96 74 44 1 6
0.037756 0.081420 -0.744505 25 24 15 2 2
0.045684 0.065232 -0.744914 30 24 16 2 2
0.221075 -0.270205 -0.739440 42 32 26 2 2
0.229165 -0.248330 -0.740608 44 36 27 2 2
0.222388 -0.237231 -0.741741 41 35 24 2 2
0.690405 -0.239585 -0.409576 121 109 95 1 7
0.681175 -0.252733 -0.437466 115 102 88 1 7
0.681554 -0.248412 -0.426401 131 119 105 1 7
0.187257 0.324743 -0.393935 42 29 20 7 3
0.185774 0.330429 -0.417280 46 28 24 7 3
0.185483 0.340623 -0.413981 46 34 18 7 3
0.179686 0.340109 -0.384586 60 44 34 7 3
0.187348 0.310657 -0.389727 41 33 14 7 3
0.184854 0.337554 -0.399022 47 33 25 7 3
0.189331 0.323645 -0.384700 41 33 14 7 3
0.184625 0.329007 -0.386865 46 34 26 7 3
0.731871 0.021200 -0.437943 104 89 72 1 7
0.731173 0.021901 -0.469662 106 96 74 1 7
-0.061096 0.391034 -0.753342 15 18 16 2 2
-0.073525 0.388032 -0.751070 22 14 12 2 2
-0.078210 0.372186 -0.749216 22 14 17 2 2
0.415469 -0.225279 -0.746345 37 29 24 2 2
0.220749 0.473870 -0.444137 91 82 63 1 6
0.239850 0.475270 -0.426592 96 82 67 1 6
0.171557 -0.121621 -0.302849 42 30 18 7 3
0.164776 -0.138292 -0.318505 39 28 13 7 3
0.163497 -0.136488 -0.299532 39 29 12 7 3
0.176325 -0.120356 -0.311660 40 30 17 7 3
0.174111 -0.120720 -0.285184 41 30 22 7 3
0.395703 0.051139 -0.750543 33 29 20 2 2
0.417422 0.025029 -0.748697 29 25 18 2 2
0.412169 0.046138 -0.749450 32 27 25 2 2
0.364032 -0.222703 -0.746196 41 35 26 2 2
0.066725 0.336933 -0.750975 17 11 14 2 2
-0.049506 0.468212 -0.442474 116 105 81 1 6
-0.049773 0.467649 -0.468943 117 109 89 1 6
-0.013089 0.468629 -0.463943 121 104 90 1 6
-0.017309 -0.028177 -0.742290 42 33 29 2 2
-0.038118 -0.057594 -0.743631 37 34 30 2 2
0.021552 0.466783 -0.632023 116 100 84 1 6
0.011318 0.466807 -0.630113 114 101 78 1 6
0.032325 0.466335 -0.616929 113 99 77 1 6
0.010391 0.467197 -0.594443 113 99 77 1 6
0.428372 0.475784 -0.613944 119 106 95 1 6
0.421455 0.473988 -0.621765 125 113 97 1 6
0.115376 0.123527 -0.750969 23 26 18 2 2
0.098984 0.133551 -0.750116 24 24 14 2 2
0.076107 0.122666 -0.748808 26 24 14 2 2
0.126700 0.462534 -0.664943 86 69 51 1 6
0.143124 0.463978 -0.658249 100 80 55 1 6
0.610344 0.453143 -0.287895 142 130 102 1 6
0.650491 0.450803 -0.301165 144 128 111 1 6
0.630882 0.452553 -0.297587 139 129 101 1 6
0.620128 0.453639 -0.306675 138 129 100 1 6
0.207219 0.471420 -0.604844 89 77 67 1 6
0.201116 0.472128 -0.578193 89 76 64 1 6
0.310985 -0.352014 -0.743352 42 40 27 2 2
0.307705 -0.334524 -0.745608 36 34 20 2 2
0.291619 -0.332206 -0.744463 37 37 25 2 2
0.301708 -0.312879 -0.745949 42 42 35 2 2
0.311106 -0.297015 -0.747157 50 48 30 2 2
0.300736 -0.282302 -0.745257 45 39 39 2 2
0.272745 -0.328878 -0.743722 40 38 29 2 2
0.728617 -0.265413 -0.369611 110 94 80 1 7
0.240809 0.323159 -0.585098 51 30 22 7 3
0.239911 0.326269 -0.595799 37 24 20 7 3
0.379795 0.465433 -0.639304 136 122 100 1 6
0.387344 0.450817 -0.636592 132 123 89 1 6
0.374165 0.452783 -0.632052 130 121 95 1 6
0.375860 0.448894 -0.611343 68 65 48 1 6
0.383475 0.451206 -0.625581 137 122 99 1 6
0.385791 0.448438 -0.617566 135 123 100 1 6
0.413501 0.214652 -0.755287 34 33 29 2 2
0.225826 -0.194811 -0.395357 24 22 22 7 3
0.219444 -0.197951 -0.378732 23 25 19 7 3
0.221833 -0.197024 -0.404843 22 24 14 7 3
0.212435 -0.198637 -0.390443 24 25 14 7 3
0.210566 -0.200357 -0.422583 34 23 16 7 3
-0.124890 0.465646 -0.502021 102 89 65 1 6
-0.126858 0.466622 -0.484484 110 101 65 1 6
0.733434 0.052130 -0.369123 115 98 79 1 7
0.734607 0.039063 -0.376985 113 97 86 1 7
0.047521 0.164739 -0.750858 21 19 14 2 2
0.080581 0.160546 -0.751136 24 20 11 2 2
0.061323 0.159935 -0.750467 23 19 13 2 2
0.183876 0.328762 -0.666590 41 21 12 7 3
0.193849 -0.120761 -0.511027 40 34 22 7 3
0.181469 -0.126691 -0.524725 43 36 20 7 3
0.216497 -0.115320 -0.513716 46 37 19 7 3
0.213777 -0.118826 -0.539001 43 38 32 7 3
0.216480 -0.117158 -0.525946 48 38 25 7 3
-0.104521 0.460025 -0.305263 60 50 37 7 3
-0.115121 0.449981 -0.296462 61 51 35 7 3
-0.127290 0.442103 -0.290062 58 44 39 7 3
0.019521 0.469657 -0.407693 88 75 49 1 6
0.062184 0.470346 -0.421943 91 76 48 1 6
0.186589 -0.203063 -0.509431 75 47 20 7 3
0.169688 -0.182983 -0.506661 83 56 26 7 3
0.175834 -0.199169 -0.527025 90 61 23 7 3
0.170980 -0.193105 -0.513678 99 59 31 7 3
0.170290 -0.192843 -0.533466 96 58 30 7 3
0.180062 -0.203209 -0.541407 94 61 34 7 3
0.168733 -0.189352 -0.540920 88 61 25 7 3
0.736308 0.174894 -0.357641 136 108 74 1 7
0.734030 0.172617 -0.380255 134 106 73 1 7
0.734365 0.154361 -0.377293 114 100 77 1 7
0.314677 0.469796 -0.696100 28 24 13 1 6
0.303580 0.464368 -0.726557 39 32 23 1 6
0.297937 0.469881 -0.716459 39 30 21 1 6
0.737545 -0.039995 -0.283693 139 125 100 1 7
0.734008 0.091937 -0.346772 109 92 73 1 7
0.736396 0.067709 -0.313580 124 107 90 1 7
0.218642 0.385127 -0.613120 48 32 19 7 3
0.231086 0.386044 -0.614200 47 30 16 7 3
0.230203 0.388839 -0.628183 50 31 29 7 3
0.734384 -0.023216 -0.371127 109 101 77 1 7
0.733270 -0.044461 -0.381818 113 102 80 1 7
0.043426 0.107748 -0.746428 24 19 17 2 2
0.027768 0.123579 -0.747476 23 18 19 2 2
0.062992 0.054808 -0.744840 30 25 17 2 2
0.042114 0.044382 -0.743747 32 23 20 2 2
-0.092706 0.449519 -0.294694 53 45 33 7 3
-0.085569 0.463149 -0.309757 63 54 55 7 3
-0.075917 0.467185 -0.318044 66 56 44 7 3
-0.070164 0.454125 -0.297692 45 36 21 7 3
0.164772 -0.149836 -0.504543 56 32 19 7 3
0.168197 -0.159485 -0.491405 67 48 16 7 3
0.163474 -0.147268 -0.484951 52 39 13 7 3
0.168667 -0.167339 -0.504443 58 35 16 7 3
0.165616 -0.144778 -0.495946 50 34 21 7 3
0.369895 0.021440 -0.746174 35 30 20 2 2
0.388432 0.031130 -0.747621 35 33 22 2 2
0.366768 0.035294 -0.747619 34 29 21 2 2
0.386032 0.447780 -0.664165 108 92 65 1 6
0.398528 0.448541 -0.642943 136 122 100 1 6
0.427255 -0.073557 -0.757113 38 36 28 2 2
0.425294 -0.092907 -0.757347 46 34 29 2 2
0.417583 -0.083753 -0.759516 52 40 33 2 2
0.229384 -0.165900 -0.465182 27 23 19 0 0
0.228005 -0.169276 -0.477008 27 26 21 0 0
0.233264 -0.171179 -0.460032 30 21 21 0 0
0.228290 -0.164830 -0.483827 33 19 27 0 0
0.021691 0.438604 -0.746315 15 13 15 2 2
0.165225 -0.136098 -0.644492 45 37 20 7 3
0.173989 -0.129134 -0.652924 44 38 25 7 3
0.740812 0.250051 -0.315162 133 122 99 1 7
0.742176 0.257308 -0.297006 131 115 98 1 7
0.290461 -0.213158 -0.742222 43 36 27 2 2
0.301264 -0.239281 -0.744189 33 35 22 2 2
0.292308 -0.227510 -0.743829 42 38 29 2 2
0.457011 -0.159243 -0.746587 40 38 29 2 2
0.453138 -0.142127 -0.744123 40 33 42 2 2
0.466246 -0.148586 -0.746127 35 35 23 2 2
0.735694 -0.139704 -0.304193 137 114 78 1 7
0.737155 -0.163223 -0.276017 151 126 95 1 7
0.738876 -0.144300 -0.257943 165 125 87 1 7
0.000096 0.443444 -0.281291 53 39 23 7 3
0.083236 0.465585 -0.617563 111 100 83 1 6
0.063139 0.464814 -0.621293 111 99 82 1 6
0.198643 0.289277 -0.585949 39 24 12 7 3
0.192505 0.292157 -0.582317 42 23 13 7 3
0.187169 0.306194 -0.580453 44 27 11 7 3
0.186533 0.296115 -0.597959 42 23 12 7 3
0.185028 0.302335 -0.588922 38 22 12 7 3
0.089502 0.192760 -0.751445 20 22 13 2 2
0.188539 -0.122287 -0.660499 43 38 28 7 3
0.205365 -0.122902 -0.650614 41 40 27 7 3
0.688558 -0.257005 -0.409804 121 112 98 1 7
0.682004 -0.258355 -0.427556 108 101 82 1 7
0.688545 -0.261053 -0.440723 101 94 77 1 7
0.160715 0.344989 -0.750848 20 12 12 2 2
0.144981 0.355891 -0.753257 22 16 8 2 2
0.157767 0.360658 -0.751444 21 17 10 2 2
0.182860 -0.300792 -0.738805 32 31 22 2 2
0.219562 -0.287890 -0.740839 33 25 21 2 2
0.196249 -0.279534 -0.740462 44 36 25 2 2
0.299953 0.476150 -0.605943 102 84 72 1 6
0.300929 0.475173 -0.629642 100 83 56 1 6
0.312178 0.474979 -0.625479 99 84 59 1 6
0.164343 -0.135159 -0.596423 39 31 21 7 3
0.174467 -0.128556 -0.589948 38 30 22 7 3
0.165788 -0.139042 -0.576485 38 31 22 7 3
0.171287 -0.133525 -0.565246 43 32 32 7 3
-0.091728 0.464941 -0.331391 59 51 39 1 6
-0.095267 0.469054 -0.348453 67 62 41 1 6
0.334378 0.470928 -0.664127 42 30 21 1 6
0.335651 0.471362 -0.648709 83 69 50 1 6
0.324848 0.472880 -0.631131 71 62 41 1 6
0.355830 0.471059 -0.640607 123 110 86 1 6
0.564912 0.457655 -0.288534 147 121 78 1 6
0.576454 0.457030 -0.299454 143 123 81 1 6
0.565736 0.458671 -0.278549 144 122 84 1 6
0.220092 -0.199750 -0.337904 24 19 24 7 3
0.342387 0.340743 -0.754190 28 18 12 2 2
0.323208 0.346883 -0.755696 20 18 17 2 2
0.034401 -0.213337 -0.742087 33 34 19 2 2
0.005007 -0.222330 -0.742487 36 35 25 2 2
-0.012244 0.468820 -0.409943 95 80 67 1 6
0.005751 0.466945 -0.324880 80 64 39 1 6
-0.001260 0.463766 -0.333570 75 66 45 1 6
0.023523 0.468245 -0.326931 85 70 47 1 6
-0.022120 0.468852 -0.450943 106 96 81 1 6
0.262095 0.363175 -0.725743 14 17 10 7 3
0.265493 0.380992 -0.726824 15 16 9 7 3
0.255974 0.355778 -0.715654 17 15 12 7 3
0.123258 -0.155212 -0.744623 33 30 22 2 2
0.236021 -0.195894 -0.733204 33 29 26 7 3
0.207190 -0.201398 -0.733670 43 42 31 7 3
0.231955 -0.192805 -0.725744 31 31 24 7 3
0.214910 -0.193541 -0.715720 35 23 24 7 3
0.187251 -0.247134 -0.741967 30 26 16 2 2
0.183320 -0.265716 -0.741722 34 30 19 2 2
0.378605 0.060755 -0.749559 34 30 23 2 2
0.409942 0.062865 -0.750142 26 26 16 2 2
0.391853 0.071648 -0.749188 26 23 18 2 2
0.405113 0.083931 -0.751333 25 27 14 2 2
0.231756 0.402173 -0.729331 45 34 15 7 3
0.244587 -0.180394 -0.270280 32 24 21 7 3
0.234755 -0.190470 -0.264870 31 36 20 7 3
0.242332 -0.169586 -0.288419 40 32 30 7 3
0.246286 -0.179426 -0.261800 33 33 11 7 3
0.244105 -0.162801 -0.271627 40 31 14 7 3
0.158190 0.172689 -0.752780 27 20 21 2 2
0.128294 0.144601 -0.751143 26 22 19 2 2
0.125133 0.173483 -0.753635 27 19 12 2 2
0.114295 0.177617 -0.753025 23 18 15 2 2
0.454382 0.025340 -0.748211 29 29 28 2 2
0.459459 0.047203 -0.748505 29 29 19 2 2
0.446351 0.067148 -0.750097 29 25 16 2 2
0.730800 -0.118984 -0.408654 129 113 85 1 7
0.732057 -0.105459 -0.390143 133 109 105 1 7
0.730309 -0.130859 -0.398967 130 113 87 1 7
0.273804 0.469481 -0.680811 37 29 14 1 6
0.261603 0.469041 -0.684290 37 29 22 1 6
0.313802 0.366587 -0.754390 24 22 14 2 2
0.304051 0.373842 -0.753738 16 17 9 2 2
0.252047 0.398511 -0.701941 38 26 19 7 3
0.255018 0.400929 -0.720968 31 21 20 7 3
0.245790 0.395997 -0.721800 32 21 21 7 3
0.235014 0.395286 -0.730235 43 28 19 7 3
0.254297 -0.304785 -0.743975 38 35 28 2 2
0.308696 0.467982 -0.455563 123 107 96 1 6
0.283339 0.469683 -0.484064 91 83 70 1 6
0.207118 -0.197026 -0.282693 36 26 14 7 3
0.204514 -0.195148 -0.253845 48 37 17 7 3
0.229567 -0.196215 -0.288828 26 19 18 7 3
0.135469 0.082508 -0.748397 32 27 23 2 2
0.138850 0.110577 -0.747808 30 24 18 2 2
0.122803 0.104596 -0.747887 26 22 22 2 2
0.369050 0.303534 -0.755062 41 29 23 2 2
0.360974 0.276435 -0.755762 44 31 29 2 2
0.070380 0.282862 -0.752094 28 19 20 2 2
0.090760 0.274128 -0.751298 24 23 24 2 2
0.020290 0.469568 -0.550943 119 108 85 1 6
-0.000044 0.468503 -0.559193 115 105 93 1 6
0.130974 0.018137 -0.746799 39 26 20 2 2
0.107691 0.006557 -0.745559 40 30 17 2 2
0.220623 0.378775 -0.539586 92 75 65 7 3
0.206510 0.374805 -0.527642 100 86 70 7 3
0.217817 0.378292 -0.518479 100 86 70 7 3
0.225965 0.382875 -0.532133 77 65 54 7 3
0.183068 0.338278 -0.544375 61 47 27 7 3
0.221166 0.289714 -0.583692 28 25 15 7 3
0.247701 0.309654 -0.606267 31 24 12 7 3
0.229944 0.291649 -0.593608 32 24 14 7 3
0.217949 0.288319 -0.601616 31 25 13 7 3
0.235232 0.295625 -0.607534 33 26 13 7 3
0.237675 0.296086 -0.582545 34 26 13 7 3
0.236643 -0.190805 -0.309168 24 20 16 7 3
0.240870 -0.184205 -0.291829 24 20 15 7 3
0.241176 -0.169368 -0.315456 26 24 18 7 3
0.243372 -0.178349 -0.295450 30 24 25 7 3
0.266174 0.452097 -0.745595 30 26 19 2 2
0.267343 0.437723 -0.744450 37 28 21 2 2
0.279070 0.432330 -0.756030 29 25 18 2 2
0.278454 0.450209 -0.743531 35 27 22 2 2
0.290268 0.434889 -0.753271 23 19 13 7 3
0.181695 0.301921 -0.658318 38 23 15 7 3
0.181129 0.306992 -0.655943 34 23 13 7 3
0.183904 0.297307 -0.660443 40 23 15 7 3
0.289385 -0.040790 -0.743727 41 38 27 2 2
0.279893 -0.001719 -0.744766 35 30 26 2 2
-0.137082 0.428622 -0.281010 49 37 30 7 3
-0.147427 0.449585 -0.293174 50 38 35 7 3
0.212768 0.239730 -0.751495 18 18 9 2 2
0.199876 0.231184 -0.753399 19 17 15 2 2
0.209910 0.259426 -0.749788 17 17 11 2 2
0.185943 0.472038 -0.548943 80 67 53 1 6
0.177963 0.471280 -0.564818 85 72 63 1 6
0.276460 0.064585 -0.748644 33 24 24 2 2
0.146922 -0.250246 -0.742780 28 24 16 2 2
0.132527 -0.251669 -0.743877 25 23 16 2 2
0.204537 0.297106 -0.405922 51 34 28 7 3
0.187409 0.310299 -0.401503 54 32 27 7 3
0.213212 0.299453 -0.401094 52 36 28 7 3
0.194058 0.302294 -0.390735 57 37 29 7 3
0.193947 0.300918 -0.403894 52 35 29 7 3
0.203816 0.297103 -0.394452 55 36 26 7 3
0.219625 0.382489 -0.488058 127 115 97 7 3
0.698591 -0.235617 -0.470562 81 76 59 1 7
0.143667 0.470473 -0.498943 78 64 61 1 6
0.736160 -0.114116 -0.301443 142 128 109 1 7
-0.109530 0.461297 -0.664338 80 61 38 1 6
-0.115605 0.463422 -0.650395 70 55 38 1 6
-0.106516 0.467604 -0.639145 74 63 38 1 6
-0.085662 0.459556 -0.735470 27 21 13 1 6
-0.092144 0.459668 -0.725744 27 21 13 1 6
-0.076449 0.460626 -0.727498 27 23 16 1 6
-0.023997 -0.235948 -0.742822 36 30 26 2 2
0.009944 -0.266189 -0.742143 32 28 21 2 2
-0.012347 -0.258958 -0.742184 32 29 19 2 2
0.015020 -0.241865 -0.743359 33 31 23 2 2
0.228117 -0.161511 -0.455714 31 26 14 0 0
0.294272 0.115514 -0.751912 35 27 23 2 2
0.284739 0.136732 -0.752392 33 27 18 2 2
0.267436 0.288792 -0.752702 19 18 13 2 2
0.263856 0.268833 -0.753572 20 17 9 2 2
0.180461 -0.196273 -0.710229 72 56 27 7 3
0.186952 -0.195227 -0.691382 66 52 28 7 3
0.169116 -0.193362 -0.699547 65 49 19 7 3
0.178935 -0.195081 -0.679534 69 54 29 7 3
0.165885 -0.191372 -0.679663 66 51 22 7 3
0.276605 -0.245336 -0.742998 48 47 36 2 2
0.252305 -0.234956 -0.741662 38 36 27 2 2
0.334387 -0.251067 -0.745151 36 38 24 2 2
0.368520 -0.262433 -0.745477 36 40 26 2 2
0.349286 -0.289997 -0.747457 42 40 31 2 2
0.372882 -0.289571 -0.747653 38 32 29 2 2
0.364136 -0.280607 -0.746506 40 31 38 2 2
0.250338 0.475300 -0.566348 102 88 70 1 6
0.472990 0.074284 -0.750996 29 23 18 2 2
0.237050 0.087546 -0.749952 27 25 16 2 2
-0.117482 0.397918 -0.750712 23 16 11 2 2
-0.136820 0.397660 -0.751132 17 16 9 2 2
-0.134769 0.369356 -0.748675 18 18 13 2 2
0.204534 -0.119214 -0.623520 43 38 27 7 3
0.200413 -0.121586 -0.638194 45 36 27 7 3
0.189393 -0.122845 -0.617197 57 42 30 7 3
0.125496 -0.221043 -0.743870 33 27 18 2 2
0.139619 -0.226821 -0.745012 23 22 17 2 2
0.038155 0.196985 -0.752352 19 19 12 2 2
0.015138 0.206531 -0.749339 23 20 18 2 2
0.045694 0.139582 -0.749418 25 14 19 2 2
0.023978 0.151174 -0.748529 24 15 18 2 2
0.121826 0.392536 -0.753098 16 15 13 2 2
0.092611 0.359193 -0.750266 17 14 15 2 2
0.104387 0.370130 -0.752135 18 16 16 2 2
0.101242 0.384869 -0.752904 13 16 14 2 2
0.160157 -0.140784 -0.278390 32 23 17 7 3
0.166332 -0.131288 -0.277419 38 26 27 7 3
0.161783 0.462009 -0.691083 34 33 22 1 6
0.191432 0.464508 -0.669883 46 42 20 1 6
0.165431 0.463838 -0.665485 43 39 17 1 6
0.182206 0.463532 -0.687923 39 35 17 1 6
0.161707 0.464241 -0.675360 37 35 19 1 6
0.174956 0.460332 -0.697946 28 27 13 1 6
0.461259 0.123815 -0.751379 29 24 20 2 2
0.462756 0.143721 -0.752785 29 24 15 2 2
0.457077 0.099956 -0.751401 23 28 26 2 2
0.442653 0.112510 -0.750493 27 22 18 2 2
-0.155930 0.455116 -0.679603 15 18 7 1 6
-0.147212 0.454984 -0.688442 19 20 12 1 6
0.164523 -0.192707 -0.589943 93 61 37 7 3
-0.013147 0.468661 -0.539693 117 107 87 1 6
-0.026771 0.467053 -0.554130 119 105 92 1 6
-0.005216 0.466864 -0.578453 120 100 89 1 6
-0.035915 0.467579 -0.566321 122 101 93 1 6
0.251089 0.316243 -0.712862 21 14 26 7 3
0.258972 0.321478 -0.725843 22 14 20 7 3
0.084867 0.423215 -0.749796 14 17 16 2 2
0.093058 0.408398 -0.752106 20 16 16 2 2
0.075970 0.402901 -0.749959 15 18 9 2 2
0.226186 -0.180760 -0.565861 63 48 28 0 0
0.230234 -0.181545 -0.569927 64 48 32 0 0
0.231673 -0.192807 -0.556008 50 39 22 7 3
0.233254 -0.185049 -0.555951 48 42 24 0 0
0.232451 -0.178776 -0.536665 84 59 32 0 0
0.736153 0.244051 -0.371864 115 103 79 1 7
0.174776 -0.138580 -0.670903 72 45 21 7 3
-0.067328 0.464132 -0.649732 47 41 25 1 6
-0.084525 0.463693 -0.648089 77 63 46 1 6
0.219775 -0.062427 -0.743517 30 30 25 2 2
0.242041 -0.048354 -0.743544 34 32 18 2 2
0.197800 0.359525 -0.607783 53 29 22 7 3
0.184122 0.312980 -0.593916 40 22 16 7 3
0.188721 0.330604 -0.596572 54 32 23 7 3
0.196849 0.357993 -0.588457 56 39 12 7 3
0.186585 0.316287 -0.585580 44 27 16 7 3
0.171946 0.324588 -0.514027 53 38 27 7 3
0.186168 0.329402 -0.546642 54 42 25 7 3
0.172705 0.333605 -0.528897 64 49 32 7 3
0.181464 0.309326 -0.527422 54 40 26 7 3
0.172488 0.338744 -0.515664 66 52 41 7 3
0.013175 0.378180 -0.748945 15 17 16 2 2
0.019028 0.365664 -0.750170 20 19 15 2 2
0.036779 0.365232 -0.750262 21 16 9 2 2
0.043453 0.384504 -0.754712 20 17 10 2 2
0.030528 0.371977 -0.751381 19 17 9 2 2
0.033209 0.388594 -0.752269 19 17 12 2 2
-0.049562 0.467914 -0.320623 72 64 49 1 6
-0.053088 0.465139 -0.308989 60 53 36 7 3
-0.039748 0.456905 -0.301832 57 43 23 7 3
-0.037470 0.463873 -0.309760 58 50 31 7 3
-0.065638 0.464547 -0.311713 70 62 45 7 3
-0.092160 0.339595 -0.747514 20 20 20 2 2
-0.094683 0.355346 -0.748827 17 13 13 2 2
-0.105930 0.326308 -0.748873 14 19 16 2 2
-0.103231 0.361188 -0.748564 20 16 19 2 2
0.010247 0.130750 -0.746233 20 18 12 2 2
0.000346 0.146281 -0.747704 22 17 15 2 2
-0.009439 0.160772 -0.747910 25 18 14 2 2
-0.022572 0.142827 -0.746938 25 17 26 2 2
0.111429 0.464662 -0.644380 85 71 57 1 6
0.097050 0.462756 -0.672693 61 55 36 1 6
0.416344 0.147515 -0.752782 28 21 22 2 2
0.433442 0.177234 -0.753937 24 26 15 2 2
0.405476 0.168435 -0.754265 26 24 15 2 2
0.410528 0.187181 -0.754145 25 22 15 2 2
0.361220 -0.036625 -0.745766 43 38 29 2 2
0.372152 -0.019647 -0.744509 45 41 29 2 2
0.375740 -0.042891 -0.749004 42 38 30 2 2
0.391700 -0.021613 -0.744791 43 38 26 2 2
0.242626 0.325923 -0.691510 16 15 13 7 3
0.246188 0.328866 -0.701783 15 17 15 7 3
-0.133104 0.462331 -0.305098 64 52 51 7 3
0.096999 0.467877 -0.532943 106 88 82 1 6
0.103355 0.472494 -0.410193 86 72 62 1 6
0.057182 0.473159 -0.373943 85 74 64 1 6
0.062669 0.471969 -0.399443 85 76 54 1 6
0.165338 -0.126532 -0.740392 39 38 19 2 2
0.182285 -0.109051 -0.743006 29 29 21 2 2
0.162798 -0.191419 -0.618041 86 56 30 7 3
0.161582 -0.191155 -0.629580 91 64 30 7 3
0.162058 -0.190465 -0.603927 97 67 27 7 3
0.379528 0.011050 -0.745991 46 40 29 2 2
0.392267 -0.001335 -0.743315 42 38 31 2 2
0.236759 -0.166957 -0.401504 27 22 18 0 0
0.233607 -0.185194 -0.407158 23 21 22 7 3
0.239143 -0.168973 -0.386648 30 20 19 0 0
0.237522 -0.183930 -0.384035 30 27 15 0 0
0.236916 -0.179000 -0.401316 30 22 14 0 0
0.332732 0.476018 -0.606129 107 94 74 1 6
0.328746 0.478463 -0.579443 122 110 93 1 6
-0.079219 0.468186 -0.451443 116 102 86 1 6
-0.078467 0.468235 -0.426943 113 100 81 1 6
-0.038737 -0.002191 -0.742683 35 39 22 2 2
-0.040241 0.006757 -0.741931 34 29 26 2 2
0.304028 -0.053559 -0.743535 41 39 29 2 2
0.242683 -0.168547 -0.328095 23 20 15 0 0
0.227263 -0.197365 -0.324338 29 20 12 7 3
0.243915 -0.181440 -0.322581 23 22 14 0 0
0.240539 -0.183580 -0.342642 22 22 16 0 0
0.240563 -0.173373 -0.348555 24 20 22 0 0
0.240365 -0.165899 -0.355631 25 20 24 0 0
0.298703 0.477968 -0.524265 106 93 76 1 6
0.260739 0.475402 -0.529443 102 87 78 1 6
0.260493 0.474390 -0.512943 101 90 77 1 6
0.251596 0.474494 -0.489588 77 65 51 1 6
0.732025 0.138292 -0.401696 128 107 62 1 7
0.733272 0.132377 -0.383538 108 92 85 1 7
0.081348 0.321987 -0.751105 17 15 11 2 2
0.072480 0.306104 -0.751484 19 19 15 2 2
0.059711 0.313304 -0.752006 19 20 12 2 2
-0.126528 0.448881 -0.720145 35 18 14 1 6
-0.090864 0.458682 -0.711615 17 18 9 1 6
-0.111648 0.451812 -0.723251 26 18 17 1 6
0.244802 0.465802 -0.672155 43 32 23 1 6
0.233475 0.464225 -0.684805 46 29 18 1 6
0.247992 0.465208 -0.686369 42 31 23 1 6
-0.016783 0.467900 -0.581829 117 105 87 1 6
-0.018623 0.467097 -0.595418 117 108 81 1 6
0.220890 -0.199503 -0.282613 25 21 18 7 3
0.220587 -0.200024 -0.308266 21 20 17 7 3
0.047227 0.453541 -0.714879 27 23 13 1 6
0.059989 0.452235 -0.723502 33 31 18 1 6
0.264729 0.471118 -0.481473 87 75 66 1 6
0.263326 0.468469 -0.466879 83 74 57 1 6
0.287671 0.466576 -0.450801 90 81 61 1 6
0.712868 -0.215172 -0.399650 87 73 58 1 7
0.183390 -0.193273 -0.365750 57 36 17 7 3
0.193211 -0.195360 -0.352469 44 33 21 7 3
0.178611 -0.189587 -0.370118 54 34 10 7 3
0.174856 -0.182009 -0.369943 60 34 14 7 3
0.089641 0.461417 -0.689063 37 26 21 1 6
0.187568 0.470565 -0.609943 99 81 68 1 6
0.190580 0.468328 -0.626943 95 82 67 1 6
0.024798 0.182678 -0.750974 19 20 18 2 2
0.729268 -0.248462 -0.368766 122 113 85 1 7
0.104423 0.484671 0.233151 190 168 132 1 6
0.116279 0.484957 0.258557 187 171 135 1 6
0.094718 0.485471 0.251057 184 164 137 1 6
0.739947 -0.155774 -0.250104 169 136 89 1 7
0.738496 -0.178772 -0.243255 143 121 101 1 7
0.350667 0.480373 0.193057 185 165 144 1 6
0.377950 0.480708 0.199057 184 163 149 1 6
0.368894 0.480358 0.214057 184 163 150 1 6
0.345871 0.480800 0.208932 186 166 139 1 6
0.039381 -0.403681 -0.019910 172 127 73 7 3
0.535125 0.477578 0.181807 178 161 139 1 6
0.688364 0.476925 0.115057 177 161 133 1 6
0.502073 0.461650 -0.196305 153 136 115 1 6
0.511465 0.459245 -0.212486 150 133 107 1 6
-0.031982 0.483204 0.450338 225 208 188 1 6
-0.062061 0.484805 0.461143 225 208 191 1 6
-0.036961 0.482567 0.476920 224 210 193 1 6
-0.019984 0.482223 0.174500 191 169 142 1 6
-0.033354 0.482614 0.188689 186 165 137 1 6
0.757495 0.147188 0.069057 167 153 115 1 7
0.020118 -0.058729 -0.012405 159 118 59 7 3
0.752502 -0.036212 0.003442 162 148 114 1 7
0.754346 -0.037552 0.025090 165 148 117 1 7
0.269783 0.483901 0.402735 190 170 149 1 6
0.286593 0.482845 0.400508 188 170 142 1 6
0.283135 0.484709 0.422156 187 169 150 1 6
0.259141 -0.191158 -0.018038 143 119 86 7 3
0.224396 -0.167076 -0.015355 157 125 71 7 3
0.762182 0.302714 0.090432 162 153 122 1 7
0.276568 0.020914 -0.027546 151 118 76 7 3
0.258272 -0.002052 -0.015958 148 114 73 7 3
0.268238 0.002036 -0.020036 148 116 78 7 3
-0.070472 0.147672 -0.007868 146 109 58 7 3
-0.099006 0.138850 -0.007874 149 114 59 7 3
0.403035 0.468790 -0.130455 150 124 95 1 6
0.387502 0.470934 -0.126115 145 114 81 1 6
0.391510 0.470708 -0.094215 150 129 97 1 6
0.420520 0.465719 -0.115517 156 137 112 1 6
0.400470 0.467783 -0.106325 157 129 111 1 6
0.405800 0.467102 -0.120690 154 136 118 1 6
-0.108681 0.482402 0.365807 228 207 192 1 6
0.746048 0.086131 -0.204491 149 130 115 1 7
0.125223 -0.344777 -0.020004 170 125 74 7 3
0.103754 -0.389815 -0.021036 169 127 71 7 3
0.064685 0.483324 0.115057 185 162 137 1 6
0.087065 0.483453 0.122932 184 164 130 1 6
0.086915 0.482801 0.105057 185 165 142 1 6
0.764247 -0.227972 0.249529 177 156 132 1 7
0.761740 -0.216580 0.218557 176 155 140 1 7
0.279701 0.120265 -0.026960 151 114 79 7 3
0.264855 0.482003 0.228057 186 169 149 1 6
0.655375 0.479692 0.345432 181 165 136 1 6
0.761724 -0.172226 0.211057 174 157 129 1 7
0.235110 -0.161755 -0.252088 45 37 22 7 3
0.245410 -0.176571 -0.247503 34 32 16 7 3
0.251152 -0.180706 -0.235677 44 32 29 7 3
0.239298 -0.168540 -0.245064 62 51 26 7 3
0.230764 -0.195395 -0.248184 50 31 23 7 3
0.250565 -0.171242 -0.238743 121 99 71 7 3
0.226675 -0.197152 -0.223499 43 33 18 7 3
0.233605 -0.195880 -0.220846 107 86 64 7 3
0.247880 -0.180862 -0.219832 128 106 73 7 3
0.240746 -0.185600 -0.242950 45 35 20 7 3
0.248352 -0.176856 -0.226482 139 120 91 7 3
0.016978 -0.167149 -0.013058 168 130 62 7 3
-0.015856 -0.171470 -0.012278 169 129 69 7 3
0.068521 0.057176 -0.011933 157 119 69 7 3
0.335016 0.500932 0.676974 189 172 139 1 6
0.345129 0.496533 0.678434 190 172 140 1 6
0.747735 0.011491 -0.119443 159 139 117 1 7
0.748022 0.032313 -0.103914 154 136 110 1 7
0.684058 0.463117 -0.180950 163 147 122 1 6
0.695230 0.464398 -0.176975 165 147 126 1 6
0.670512 0.470729 -0.157715 166 151 123 1 6
0.708817 0.460413 -0.186013 161 149 122 1 6
0.134867 -0.365714 -0.020471 159 122 56 7 3
0.325793 0.484004 0.421057 190 168 146 1 6
0.349085 0.483968 0.433057 188 168 150 1 6
-0.079423 0.389942 -0.253131 48 33 26 7 3
-0.094734 0.387820 -0.252019 66 44 21 7 3
-0.067317 0.391738 -0.248725 34 17 11 7 3
-0.058832 0.388280 -0.245114 66 49 24 7 3
-0.076444 0.384653 -0.242207 54 37 22 7 3
-0.056714 -0.141584 -0.012004 167 130 68 7 3
-0.029708 -0.136671 -0.012171 169 130 70 7 3
0.760893 -0.069466 0.193022 170 151 130 1 7
0.760060 -0.071098 0.170057 171 154 125 1 7
0.762832 0.113610 0.193057 172 155 125 1 7
0.253192 0.471371 -0.061729 156 126 75 1 6
0.286389 0.467954 -0.047138 159 125 92 1 6
0.746177 0.186063 -0.215288 150 128 113 1 7
0.744973 0.203554 -0.190288 148 130 102 1 7
0.746082 0.191562 -0.203347 147 129 109 1 7
0.180582 -0.368282 -0.021757 170 125 65 7 3
0.183450 -0.346439 -0.020927 171 125 71 7 3
0.245047 -0.356518 -0.021123 165 125 63 7 3
0.218660 -0.335421 -0.020629 165 122 53 7 3
-0.127021 0.475941 0.001057 194 169 138 1 6
-0.155663 0.474287 -0.017983 190 157 132 1 6
-0.150591 0.474536 0.000807 191 166 147 1 6
0.030285 0.369504 -0.011445 151 115 73 7 3
0.023513 0.356964 -0.008251 151 115 72 7 3
0.517882 0.462283 -0.196515 154 136 113 1 6
0.533187 0.462125 -0.182465 153 136 117 1 6
0.517625 0.462124 -0.161273 152 138 116 1 6
0.755964 0.166434 0.043099 164 149 118 1 7
0.757094 0.142322 0.061057 165 149 125 1 7
0.761598 0.061779 0.166557 172 155 120 1 7
0.761813 0.061750 0.187242 167 155 124 1 7
0.762287 0.082286 0.181057 167 152 126 1 7
0.411466 0.486016 0.570242 190 169 143 1 6
0.400573 0.484698 0.577170 189 172 140 1 6
0.138953 0.470107 -0.044277 151 119 72 1 6
0.144339 0.473064 -0.059715 164 131 94 1 6
0.131620 0.477861 -0.031609 165 144 109 1 6
0.126691 0.470634 -0.041688 151 120 78 1 6
0.751654 -0.022636 -0.056193 161 142 121 1 7
0.752963 -0.011474 -0.040943 160 140 123 1 7
0.231557 0.483505 0.215557 187 168 147 1 6
0.408295 0.480096 0.191307 179 164 139 1 6
0.747174 0.135997 -0.204764 147 134 109 1 7
0.745339 0.119124 -0.227272 149 130 108 1 7
0.769021 -0.226674 0.332245 179 162 135 1 7
0.766709 -0.207644 0.325627 178 161 123 1 7
0.754413 0.073803 -0.010943 160 145 119 1 7
0.386047 0.477284 -0.014287 173 155 130 1 6
0.352416 0.477240 -0.017193 172 152 136 1 6
0.384476 0.476661 -0.031443 173 153 135 1 6
0.744807 0.177847 -0.192807 150 132 105 1 7
0.745677 0.165790 -0.183394 154 136 107 1 7
0.745623 0.196113 -0.182724 150 134 115 1 7
-0.023818 -0.251570 -0.014181 169 132 63 7 3
-0.062037 -0.314701 -0.015994 170 127 82 7 3
-0.020596 -0.275106 -0.015266 174 132 73 7 3
-0.059377 -0.280761 -0.014734 174 134 72 7 3
-0.090898 0.481421 0.405233 226 207 192 1 6
-0.114775 0.482659 0.404895 226 206 196 1 6
-0.138730 0.482749 0.399057 227 208 191 1 6
-0.107585 0.483756 0.395103 225 209 187 1 6
0.748465 0.162819 -0.129928 153 139 119 1 7
0.749650 0.192400 -0.157301 155 136 112 1 7
0.749607 0.178547 -0.154808 155 136 112 1 7
-0.125624 0.482306 0.341307 224 207 189 1 6
-0.029273 0.312648 -0.006732 149 114 55 7 3
-0.013143 0.284322 -0.007877 146 111 66 7 3
-0.027225 0.262446 -0.007611 146 113 60 7 3
0.483636 0.462548 -0.151292 151 137 112 1 6
0.502860 0.463348 -0.140980 157 142 124 1 6
0.497625 0.467050 -0.126044 161 144 125 1 6
-0.071947 0.188949 -0.007140 146 105 71 7 3
