ply
format ascii 1.0
element vertex 1061
property float x
property float y
property float z
property uchar red
property uchar green
property uchar blue
property uchar semantic_label
property uchar instance_label
end_header
0.884914 -0.278105 -0.250684 255 125 0 54 24
0.763613 -0.511166 -0.373684 255 125 0 54 24
0.671247 -0.382973 -0.384091 255 125 0 54 24
0.653272 -0.409822 -0.373440 255 125 0 54 24
0.826219 -0.288776 -0.310684 255 125 0 54 24
0.602976 -0.377663 -0.373684 255 125 0 54 24
0.887699 -0.303233 -0.325684 255 125 0 54 24
0.688022 -0.347344 -0.373684 255 125 0 54 24
0.885627 -0.283438 -0.262684 255 125 0 54 24
0.603098 -0.426761 -0.298684 255 125 0 54 24
0.823509 -0.489103 -0.379684 255 125 0 54 24
0.648211 -0.295267 -0.283684 255 125 0 54 24
0.619998 -0.306642 -0.325684 255 125 0 54 24
0.810999 -0.288234 -0.256684 255 125 0 54 24
0.782067 -0.294485 -0.280684 255 125 0 54 24
0.740139 -0.275303 -0.208683 255 125 0 54 24
0.696550 -0.307222 -0.328684 255 125 0 54 24
0.882967 -0.440243 -0.380648 255 125 0 54 24
0.698591 -0.422522 -0.373684 255 125 0 54 24
0.886474 -0.308309 -0.367684 255 125 0 54 24
0.876245 -0.284281 -0.241684 255 125 0 54 24
0.835786 -0.272623 -0.199684 255 125 0 54 24
0.887516 -0.303195 -0.307684 255 125 0 54 24
0.768175 -0.287694 -0.256684 255 125 0 54 24
0.589208 -0.469814 -0.337684 255 125 0 54 24
0.773751 -0.304750 -0.319684 255 125 0 54 24
0.731580 -0.503143 -0.384017 255 125 0 54 24
0.795304 -0.520795 -0.379684 255 125 0 54 24
0.589240 -0.469820 -0.319684 255 125 0 54 24
0.649048 -0.516270 -0.373744 255 125 0 54 24
0.802812 -0.297890 -0.295684 255 125 0 54 24
0.645908 -0.458897 -0.382684 255 125 0 54 24
0.632869 -0.462528 -0.388684 255 125 0 54 24
0.777482 -0.258337 -0.177824 255 125 0 54 24
0.667279 -0.517078 -0.374179 255 125 0 54 24
0.797301 -0.294961 -0.328684 255 125 0 54 24
0.612320 -0.515915 -0.385684 255 125 0 54 24
0.689336 -0.297874 -0.294337 255 125 0 54 24
0.810741 -0.303877 -0.364684 255 125 0 54 24
0.842578 -0.298385 -0.346684 255 125 0 54 24
0.852049 -0.369264 -0.383958 255 125 0 54 24
0.629502 -0.305216 -0.373684 255 125 0 54 24
0.592968 -0.433809 -0.384131 255 125 0 54 24
0.860526 -0.300525 -0.303021 255 125 0 54 24
0.879201 -0.328098 -0.373684 255 125 0 54 24
0.704293 -0.299650 -0.358684 255 125 0 54 24
0.778378 -0.421080 -0.373684 255 125 0 54 24
0.607270 -0.467519 -0.387709 255 125 0 54 24
0.759651 -0.270083 -0.181684 255 125 0 54 24
0.736521 -0.263463 -0.229684 255 125 0 54 24
0.629930 -0.332055 -0.373684 255 125 0 54 24
0.810060 -0.263794 -0.223684 255 125 0 54 24
0.682438 -0.258177 -0.205684 255 125 0 54 24
0.748511 -0.293633 -0.343684 255 125 0 54 24
0.805850 -0.269171 -0.232684 255 125 0 54 24
0.731719 -0.271626 -0.262684 255 125 0 54 24
0.656285 -0.280215 -0.289684 255 125 0 54 24
0.734374 -0.417860 -0.373349 255 125 0 54 24
0.809215 -0.378562 -0.373684 255 125 0 54 24
0.789881 -0.387585 -0.373684 255 125 0 54 24
0.589736 -0.506730 -0.389959 255 125 0 54 24
0.765121 -0.258776 -0.177826 255 125 0 54 24
0.761960 -0.374651 -0.373338 255 125 0 54 24
0.604784 -0.306066 -0.379684 255 125 0 54 24
0.676651 -0.485333 -0.379684 255 125 0 54 24
0.880841 -0.421389 -0.373874 255 125 0 54 24
0.611085 -0.492866 -0.380220 255 125 0 54 24
0.582549 -0.511685 -0.373684 255 125 0 54 24
0.877316 -0.293681 -0.274684 255 125 0 54 24
0.619093 -0.267609 -0.175526 255 125 0 54 24
0.672883 -0.469197 -0.382684 255 125 0 54 24
0.651146 -0.390968 -0.384109 255 125 0 54 24
0.782643 -0.464924 -0.373028 255 125 0 54 24
0.718858 -0.267345 -0.244684 255 125 0 54 24
0.672966 -0.512153 -0.388684 255 125 0 54 24
0.626423 -0.391847 -0.373169 255 125 0 54 24
0.855458 -0.259576 -0.208683 255 125 0 54 24
0.815739 -0.330876 -0.385684 255 125 0 54 24
0.606803 -0.311001 -0.343971 255 125 0 54 24
0.812411 -0.411456 -0.385684 255 125 0 54 24
0.591856 -0.453466 -0.382684 255 125 0 54 24
0.752770 -0.280687 -0.292684 255 125 0 54 24
0.798141 -0.416079 -0.373684 255 125 0 54 24
0.768148 -0.280889 -0.280684 255 125 0 54 24
0.863021 -0.288787 -0.318174 255 125 0 54 24
0.590373 -0.258437 -0.201169 255 125 0 54 24
0.587583 -0.279313 -0.217684 255 125 0 54 24
0.832174 -0.260761 -0.213175 255 125 0 54 24
0.863829 -0.270556 -0.244548 255 125 0 54 24
0.840734 -0.307064 -0.382684 255 125 0 54 24
0.738819 -0.267083 -0.241684 255 125 0 54 24
0.588502 -0.267240 -0.234164 255 125 0 54 24
0.676134 -0.295068 -0.346684 255 125 0 54 24
0.592559 -0.298773 -0.355684 255 125 0 54 24
0.606667 -0.297212 -0.355684 255 125 0 54 24
0.838298 -0.289666 -0.318147 255 125 0 54 24
0.640863 -0.439345 -0.382684 255 125 0 54 24
0.687422 -0.407880 -0.384119 255 125 0 54 24
0.578969 -0.297656 -0.322684 255 125 0 54 24
0.632476 -0.377799 -0.384143 255 125 0 54 24
0.827773 -0.305831 -0.322684 255 125 0 54 24
0.653754 -0.320981 -0.373823 255 125 0 54 24
0.734987 -0.500800 -0.373684 255 125 0 54 24
0.806482 -0.511492 -0.388684 255 125 0 54 24
0.619972 -0.292332 -0.273344 255 125 0 54 24
0.588844 -0.308918 -0.328684 255 125 0 54 24
0.601993 -0.469464 -0.331684 255 125 0 54 24
0.800635 -0.336994 -0.373684 255 125 0 54 24
0.631788 -0.402189 -0.382684 255 125 0 54 24
0.711663 -0.495843 -0.378293 255 125 0 54 24
0.848550 -0.313577 -0.352684 255 125 0 54 24
0.671301 -0.296147 -0.286684 255 125 0 54 24
0.754362 -0.468114 -0.384129 255 125 0 54 24
0.678393 -0.306067 -0.325684 255 125 0 54 24
0.781806 -0.338999 -0.384096 255 125 0 54 24
0.659145 -0.310050 -0.337684 255 125 0 54 24
0.576744 -0.293699 -0.298684 255 125 0 54 24
0.893754 -0.375062 -0.375533 255 125 0 54 24
0.576806 -0.286223 -0.286684 255 125 0 54 24
0.603254 -0.385416 -0.382684 255 125 0 54 24
0.709719 -0.354346 -0.373684 255 125 0 54 24
0.659110 -0.281355 -0.232684 255 125 0 54 24
0.792536 -0.302951 -0.367684 255 125 0 54 24
0.719916 -0.374916 -0.373684 255 125 0 54 24
0.785587 -0.306781 -0.325684 255 125 0 54 24
0.669577 -0.289828 -0.265684 255 125 0 54 24
0.782317 -0.283901 -0.241684 255 125 0 54 24
0.586480 -0.262321 -0.211684 255 125 0 54 24
0.723812 -0.366543 -0.384056 255 125 0 54 24
0.588459 -0.258030 -0.178684 255 125 0 54 24
0.837008 -0.375268 -0.385684 255 125 0 54 24
0.858868 -0.438188 -0.372886 255 125 0 54 24
0.762189 -0.489008 -0.388684 255 125 0 54 24
0.765887 -0.341749 -0.372799 255 125 0 54 24
0.639549 -0.474380 -0.373395 255 125 0 54 24
0.874277 -0.380123 -0.373921 255 125 0 54 24
0.778458 -0.390426 -0.373684 255 125 0 54 24
0.903990 -0.355768 -0.375081 255 125 0 54 24
0.830402 -0.456674 -0.372389 255 125 0 54 24
0.617549 -0.347023 -0.374197 255 125 0 54 24
0.733679 -0.377841 -0.373862 255 125 0 54 24
0.720212 -0.470056 -0.372261 255 125 0 54 24
0.864595 -0.353529 -0.373132 255 125 0 54 24
0.823845 -0.343232 -0.373684 255 125 0 54 24
0.743855 -0.286677 -0.250684 255 125 0 54 24
0.611822 -0.431682 -0.372394 255 125 0 54 24
0.627189 -0.474820 -0.372911 255 125 0 54 24
0.700521 -0.346257 -0.373484 255 125 0 54 24
0.796776 -0.268572 -0.175714 255 125 0 54 24
0.861122 -0.283290 -0.238684 255 125 0 54 24
0.598837 -0.435056 -0.373788 255 125 0 54 24
0.849880 -0.451613 -0.372774 255 125 0 54 24
0.838142 -0.449118 -0.372812 255 125 0 54 24
0.701400 -0.370980 -0.373162 255 125 0 54 24
0.678214 -0.278053 -0.220684 255 125 0 54 24
0.904684 -0.395787 -0.375042 255 125 0 54 24
0.806713 -0.322824 -0.373570 255 125 0 54 24
0.601474 -0.509225 -0.373441 255 125 0 54 24
0.684745 -0.290612 -0.265684 255 125 0 54 24
0.685183 -0.447276 -0.372681 255 125 0 54 24
0.748995 -0.291356 -0.268684 255 125 0 54 24
0.779073 -0.279706 -0.226684 255 125 0 54 24
0.647290 -0.466824 -0.372474 255 125 0 54 24
0.886454 -0.394979 -0.387020 255 125 0 54 24
0.711153 -0.440528 -0.372686 255 125 0 54 24
0.658605 -0.283732 -0.304684 255 125 0 54 24
0.799782 -0.312149 -0.384062 255 125 0 54 24
0.799805 -0.283179 -0.238684 255 125 0 54 24
0.693630 -0.277674 -0.217684 255 125 0 54 24
0.807111 -0.436388 -0.372959 255 125 0 54 24
0.802163 -0.358661 -0.373533 255 125 0 54 24
0.646821 -0.310307 -0.381125 255 125 0 54 24
0.699784 -0.407441 -0.384101 255 125 0 54 24
0.748464 -0.322710 -0.384043 255 125 0 54 24
0.842784 -0.282989 -0.298684 255 125 0 54 24
0.683354 -0.354876 -0.384110 255 125 0 54 24
0.687720 -0.334335 -0.384131 255 125 0 54 24
0.798747 -0.446878 -0.387152 255 125 0 54 24
0.817275 -0.374141 -0.387168 255 125 0 54 24
0.689620 -0.469688 -0.384153 255 125 0 54 24
0.874602 -0.277590 -0.265684 255 125 0 54 24
0.742922 -0.392074 -0.383996 255 125 0 54 24
0.678519 -0.291042 -0.331684 255 125 0 54 24
0.648739 -0.272429 -0.262684 255 125 0 54 24
0.656742 -0.292494 -0.340684 255 125 0 54 24
0.917598 -0.349460 -0.387021 255 125 0 54 24
0.602448 -0.469561 -0.367684 255 125 0 54 24
0.732984 -0.337822 -0.384106 255 125 0 54 24
0.673541 -0.285607 -0.247684 255 125 0 54 24
0.654817 -0.330408 -0.384152 255 125 0 54 24
0.804185 -0.262574 -0.214684 255 125 0 54 24
0.789546 -0.331443 -0.384036 255 125 0 54 24
0.700266 -0.318600 -0.384073 255 125 0 54 24
0.753043 -0.431029 -0.384089 255 125 0 54 24
0.732318 -0.441959 -0.372442 255 125 0 54 24
0.855762 -0.279643 -0.283684 255 125 0 54 24
0.797542 -0.351544 -0.384037 255 125 0 54 24
0.653967 -0.449842 -0.372711 255 125 0 54 24
0.663222 -0.290868 -0.328684 255 125 0 54 24
0.721223 -0.263290 -0.229684 255 125 0 54 24
0.796067 -0.473912 -0.387168 255 125 0 54 24
0.710090 -0.431101 -0.384134 255 125 0 54 24
0.708486 -0.294357 -0.340684 255 125 0 54 24
0.824110 -0.269840 -0.244684 255 125 0 54 24
0.742185 -0.453258 -0.384052 255 125 0 54 24
0.623815 -0.461835 -0.372685 255 125 0 54 24
0.668866 -0.336461 -0.384179 255 125 0 54 24
0.858102 -0.355216 -0.387140 255 125 0 54 24
0.647148 -0.380918 -0.384144 255 125 0 54 24
0.677443 -0.454831 -0.384154 255 125 0 54 24
0.769700 -0.367096 -0.384091 255 125 0 54 24
0.852120 -0.412218 -0.387149 255 125 0 54 24
0.813546 -0.463830 -0.385684 255 125 0 54 24
0.835732 -0.258450 -0.180420 255 125 0 54 24
0.675850 -0.318032 -0.382684 255 125 0 54 24
0.854175 -0.388118 -0.373985 255 125 0 54 24
0.761172 -0.320640 -0.370684 255 125 0 54 24
0.625033 -0.311810 -0.381053 255 125 0 54 24
0.885311 -0.290458 -0.292684 255 125 0 54 24
0.844023 -0.487172 -0.376684 255 125 0 54 24
0.831537 -0.509054 -0.373547 255 125 0 54 24
0.634346 -0.368996 -0.373470 255 125 0 54 24
0.805310 -0.488145 -0.389408 255 125 0 54 24
0.790944 -0.288802 -0.259684 255 125 0 54 24
0.580760 -0.274796 -0.249003 255 125 0 54 24
0.732658 -0.310499 -0.340684 255 125 0 54 24
0.752964 -0.258254 -0.178684 255 125 0 54 24
0.711451 -0.366982 -0.384089 255 125 0 54 24
0.764497 -0.261711 -0.210113 255 125 0 54 24
0.616920 -0.378833 -0.373684 255 125 0 54 24
0.712216 -0.284335 -0.304684 255 125 0 54 24
0.774987 -0.270075 -0.240138 255 125 0 54 24
0.632626 -0.290521 -0.325684 255 125 0 54 24
0.690879 -0.270599 -0.187684 255 125 0 54 24
0.785331 -0.264698 -0.220684 255 125 0 54 24
0.624000 -0.273382 -0.262684 255 125 0 54 24
0.584867 -0.269912 -0.181684 255 125 0 54 24
0.675472 -0.276525 -0.276142 255 125 0 54 24
0.886383 -0.352026 -0.374035 255 125 0 54 24
0.621361 -0.372370 -0.384144 255 125 0 54 24
0.848746 -0.399232 -0.373687 255 125 0 54 24
0.740398 -0.259655 -0.213147 255 125 0 54 24
0.861402 -0.411838 -0.331684 255 125 0 54 24
0.600239 -0.269735 -0.252158 255 125 0 54 24
0.822591 -0.421276 -0.384019 255 125 0 54 24
0.644351 -0.389524 -0.373684 255 125 0 54 24
0.642605 -0.294075 -0.343684 255 125 0 54 24
0.859064 -0.300214 -0.358684 255 125 0 54 24
0.628451 -0.483310 -0.382684 255 125 0 54 24
0.922879 -0.382333 -0.382684 255 125 0 54 24
0.909576 -0.343918 -0.379684 255 125 0 54 24
0.821721 -0.273874 -0.259684 255 125 0 54 24
0.577104 -0.306434 -0.355684 255 125 0 54 24
0.755069 -0.262774 -0.228170 255 125 0 54 24
0.631122 -0.268737 -0.244684 255 125 0 54 24
0.812867 -0.495885 -0.379293 255 125 0 54 24
0.608539 -0.288403 -0.322684 255 125 0 54 24
0.742021 -0.295308 -0.352684 255 125 0 54 24
0.704800 -0.261290 -0.220684 255 125 0 54 24
0.860710 -0.285229 -0.303128 255 125 0 54 24
0.715122 -0.306422 -0.381128 255 125 0 54 24
0.806463 -0.273698 -0.256684 255 125 0 54 24
0.585711 -0.424658 -0.382684 255 125 0 54 24
0.745785 -0.349744 -0.373904 255 125 0 54 24
0.607082 -0.317195 -0.382684 255 125 0 54 24
0.722594 -0.516568 -0.383597 255 125 0 54 24
0.604491 -0.307443 -0.329040 255 125 0 54 24
0.588053 -0.334619 -0.382684 255 125 0 54 24
0.768335 -0.416807 -0.373684 255 125 0 54 24
0.858488 -0.295680 -0.334684 255 125 0 54 24
0.706447 -0.485533 -0.382684 255 125 0 54 24
0.784485 -0.311965 -0.384042 255 125 0 54 24
0.731299 -0.288032 -0.256684 255 125 0 54 24
0.779340 -0.494893 -0.381363 255 125 0 54 24
0.882037 -0.274427 -0.238684 255 125 0 54 24
0.758367 -0.304979 -0.373684 255 125 0 54 24
0.724549 -0.305359 -0.321147 255 125 0 54 24
0.865901 -0.467286 -0.379684 255 125 0 54 24
0.892416 -0.424647 -0.298684 255 125 0 54 24
0.602029 -0.477752 -0.388684 255 125 0 54 24
0.637395 -0.311370 -0.345711 255 125 0 54 24
0.773442 -0.349489 -0.384052 255 125 0 54 24
0.835042 -0.359515 -0.373684 255 125 0 54 24
0.889735 -0.422831 -0.379684 255 125 0 54 24
0.686107 -0.500645 -0.388684 255 125 0 54 24
0.797613 -0.394498 -0.373635 255 125 0 54 24
0.799599 -0.500586 -0.376684 255 125 0 54 24
0.763065 -0.282876 -0.239055 255 125 0 54 24
0.617764 -0.374863 -0.310684 255 125 0 54 24
0.591252 -0.283160 -0.231620 255 125 0 54 24
0.817487 -0.503001 -0.387156 255 125 0 54 24
0.584474 -0.473768 -0.373684 255 125 0 54 24
0.861957 -0.279360 -0.224601 255 125 0 54 24
0.678364 -0.378352 -0.373263 255 125 0 54 24
0.773829 -0.477532 -0.388684 255 125 0 54 24
0.617478 -0.304069 -0.315157 255 125 0 54 24
0.622312 -0.440046 -0.372623 255 125 0 54 24
0.619165 -0.310562 -0.343058 255 125 0 54 24
0.670762 -0.361401 -0.373684 255 125 0 54 24
0.601617 -0.522978 -0.382684 255 125 0 54 24
0.608193 -0.391039 -0.301399 255 125 0 54 24
0.681442 -0.400475 -0.373684 255 125 0 54 24
0.738568 -0.470273 -0.385684 255 125 0 54 24
0.933167 -0.368104 -0.382684 255 125 0 54 24
0.648046 -0.399511 -0.373684 255 125 0 54 24
0.878501 -0.273675 -0.198778 255 125 0 54 24
0.659481 -0.276193 -0.211684 255 125 0 54 24
0.606732 -0.268048 -0.176430 255 125 0 54 24
0.627998 -0.283434 -0.295684 255 125 0 54 24
0.724452 -0.397349 -0.373684 255 125 0 54 24
0.616320 -0.424947 -0.382684 255 125 0 54 24
0.618987 -0.448540 -0.382684 255 125 0 54 24
0.653769 -0.479629 -0.388684 255 125 0 54 24
0.886363 -0.284547 -0.280684 255 125 0 54 24
0.796252 -0.458616 -0.384016 255 125 0 54 24
0.867857 -0.395897 -0.373684 255 125 0 54 24
0.802555 -0.299102 -0.346684 255 125 0 54 24
0.605045 -0.261556 -0.219140 255 125 0 54 24
0.781735 -0.296045 -0.339151 255 125 0 54 24
0.774779 -0.263896 -0.220684 255 125 0 54 24
0.789915 -0.300851 -0.354129 255 125 0 54 24
0.845572 -0.443020 -0.385684 255 125 0 54 24
0.698295 -0.262974 -0.229684 255 125 0 54 24
0.669163 -0.262916 -0.228156 255 125 0 54 24
0.783231 -0.346723 -0.373684 255 125 0 54 24
0.850625 -0.267750 -0.241684 255 125 0 54 24
0.621634 -0.277350 -0.280684 255 125 0 54 24
0.586630 -0.276043 -0.203296 255 125 0 54 24
0.693959 -0.319412 -0.364684 255 125 0 54 24
0.705845 -0.270713 -0.256684 255 125 0 54 24
0.642740 -0.502661 -0.384087 255 125 0 54 24
0.778241 -0.329040 -0.373684 255 125 0 54 24
0.611609 -0.302822 -0.369162 255 125 0 54 24
0.690303 -0.437615 -0.382684 255 125 0 54 24
0.808481 -0.444370 -0.385684 255 125 0 54 24
0.611899 -0.511441 -0.373684 255 125 0 54 24
0.576651 -0.322995 -0.375821 255 125 0 54 24
0.712145 -0.281253 -0.232684 255 125 0 54 24
0.577232 -0.485670 -0.382684 255 125 0 54 24
0.720836 -0.467122 -0.384145 255 125 0 54 24
0.588459 -0.368443 -0.384139 255 125 0 54 24
0.645969 -0.357607 -0.382684 255 125 0 54 24
0.786015 -0.492348 -0.388684 255 125 0 54 24
0.619604 -0.322924 -0.373952 255 125 0 54 24
0.819444 -0.328597 -0.373684 255 125 0 54 24
0.827581 -0.397801 -0.363935 255 125 0 54 24
0.626636 -0.520708 -0.375860 255 125 0 54 24
0.847100 -0.291537 -0.271655 255 125 0 54 24
0.601691 -0.429529 -0.310684 255 125 0 54 24
0.708719 -0.412407 -0.385684 255 125 0 54 24
0.675291 -0.493810 -0.385684 255 125 0 54 24
0.757012 -0.296924 -0.289034 255 125 0 54 24
0.654494 -0.284334 -0.241684 255 125 0 54 24
0.638604 -0.493263 -0.382684 255 125 0 54 24
0.755952 -0.301910 -0.307684 255 125 0 54 24
0.725785 -0.299544 -0.298684 255 125 0 54 24
0.639266 -0.302567 -0.311651 255 125 0 54 24
0.627176 -0.417161 -0.373684 255 125 0 54 24
0.605555 -0.316870 -0.360484 255 125 0 54 24
0.730050 -0.337198 -0.373307 255 125 0 54 24
0.863029 -0.288746 -0.259684 255 125 0 54 24
0.777092 -0.274605 -0.208683 255 125 0 54 24
0.843982 -0.378356 -0.373684 255 125 0 54 24
0.607314 -0.366316 -0.384173 255 125 0 54 24
0.789227 -0.472458 -0.373684 255 125 0 54 24
0.851978 -0.326311 -0.373563 255 125 0 54 24
0.732111 -0.486221 -0.376684 255 125 0 54 24
0.697658 -0.388587 -0.373250 255 125 0 54 24
0.606392 -0.442796 -0.384171 255 125 0 54 24
0.719941 -0.258374 -0.178684 255 125 0 54 24
0.831590 -0.292364 -0.274684 255 125 0 54 24
0.815885 -0.294103 -0.280632 255 125 0 54 24
0.824023 -0.400111 -0.383969 255 125 0 54 24
0.827453 -0.290428 -0.265684 255 125 0 54 24
0.836058 -0.329061 -0.384019 255 125 0 54 24
0.731654 -0.271934 -0.196684 255 125 0 54 24
0.721359 -0.277078 -0.216615 255 125 0 54 24
0.809719 -0.366401 -0.387181 255 125 0 54 24
0.693067 -0.482330 -0.385684 255 125 0 54 24
0.693957 -0.304991 -0.375168 255 125 0 54 24
0.873796 -0.295812 -0.331684 255 125 0 54 24
0.790312 -0.414415 -0.384062 255 125 0 54 24
0.588418 -0.296485 -0.340684 255 125 0 54 24
0.702790 -0.277866 -0.277684 255 125 0 54 24
0.624781 -0.298566 -0.295684 255 125 0 54 24
0.872414 -0.444134 -0.373684 255 125 0 54 24
0.803982 -0.277953 -0.268684 255 125 0 54 24
0.875504 -0.302203 -0.364684 255 125 0 54 24
0.593889 -0.357329 -0.373550 255 125 0 54 24
0.783912 -0.285802 -0.304684 255 125 0 54 24
0.693808 -0.291265 -0.328684 255 125 0 54 24
0.648565 -0.287679 -0.322684 255 125 0 54 24
0.649530 -0.427429 -0.381000 255 125 0 54 24
0.632478 -0.276780 -0.214684 255 125 0 54 24
0.872140 -0.260311 -0.196684 255 125 0 54 24
0.821130 -0.298285 -0.348153 255 125 0 54 24
0.857008 -0.273787 -0.259684 255 125 0 54 24
0.716288 -0.315367 -0.358684 255 125 0 54 24
0.723173 -0.297407 -0.361684 255 125 0 54 24
0.685814 -0.271155 -0.256684 255 125 0 54 24
0.663580 -0.260326 -0.211684 255 125 0 54 24
0.706625 -0.303112 -0.370684 255 125 0 54 24
0.584930 -0.514910 -0.386949 255 125 0 54 24
0.633451 -0.272209 -0.265684 255 125 0 54 24
0.618762 -0.269162 -0.247684 255 125 0 54 24
0.700677 -0.258950 -0.211684 255 125 0 54 24
0.725645 -0.285776 -0.310684 255 125 0 54 24
0.762936 -0.269056 -0.256684 255 125 0 54 24
0.744078 -0.271202 -0.262684 255 125 0 54 24
0.755630 -0.288993 -0.328684 255 125 0 54 24
0.623564 -0.261004 -0.217684 255 125 0 54 24
0.663669 -0.303193 -0.373684 255 125 0 54 24
0.623207 -0.291544 -0.331684 255 125 0 54 24
0.767807 -0.303858 -0.376684 255 125 0 54 24
0.657936 -0.315736 -0.384152 255 125 0 54 24
0.713180 -0.272272 -0.264182 255 125 0 54 24
0.805076 -0.287238 -0.310684 255 125 0 54 24
0.630279 -0.315991 -0.359650 255 125 0 54 24
0.587749 -0.299640 -0.292684 255 125 0 54 24
0.616433 -0.280127 -0.226684 255 125 0 54 24
0.610290 -0.265737 -0.234156 255 125 0 54 24
0.842834 -0.499188 -0.383863 255 125 0 54 24
0.610227 -0.294891 -0.346684 255 125 0 54 24
0.631597 -0.353076 -0.373191 255 125 0 54 24
0.791011 -0.281266 -0.283684 255 125 0 54 24
0.816794 -0.289827 -0.316684 255 125 0 54 24
0.836682 -0.326127 -0.374285 255 125 0 54 24
0.594472 -0.282439 -0.292684 255 125 0 54 24
0.757802 -0.278774 -0.223684 255 125 0 54 24
0.578578 -0.271265 -0.226684 255 125 0 54 24
0.868358 -0.305256 -0.322684 255 125 0 54 24
0.732470 -0.282524 -0.235684 255 125 0 54 24
0.605373 -0.274443 -0.205684 255 125 0 54 24
0.582664 -0.294698 -0.277684 255 125 0 54 24
0.604829 -0.390325 -0.373684 255 125 0 54 24
0.716565 -0.487214 -0.379684 255 125 0 54 24
0.880627 -0.292529 -0.264902 255 125 0 54 24
0.845904 -0.288215 -0.256684 255 125 0 54 24
0.621844 -0.283528 -0.239713 255 125 0 54 24
0.733764 -0.512808 -0.373684 255 125 0 54 24
0.849143 -0.512797 -0.374194 255 125 0 54 24
0.846823 -0.355885 -0.373684 255 125 0 54 24
0.876186 -0.298994 -0.292684 255 125 0 54 24
0.704630 -0.267388 -0.175683 255 125 0 54 24
0.887035 -0.305669 -0.346684 255 125 0 54 24
0.705207 -0.301248 -0.304684 255 125 0 54 24
0.632150 -0.307188 -0.329040 255 125 0 54 24
0.886263 -0.299861 -0.337684 255 125 0 54 24
0.667250 -0.329633 -0.373684 255 125 0 54 24
0.695800 -0.310751 -0.340684 255 125 0 54 24
0.832828 -0.286538 -0.250684 255 125 0 54 24
0.816498 -0.305650 -0.322684 255 125 0 54 24
0.594699 -0.367945 -0.373684 255 125 0 54 24
0.633336 -0.509864 -0.373684 255 125 0 54 24
0.739945 -0.492653 -0.389491 255 125 0 54 24
0.792011 -0.310498 -0.340684 255 125 0 54 24
0.633803 -0.267668 -0.175683 255 125 0 54 24
0.617321 -0.463522 -0.380997 255 125 0 54 24
0.670920 -0.269082 -0.178684 255 125 0 54 24
0.884145 -0.296344 -0.319684 255 125 0 54 24
0.607147 -0.294953 -0.283684 255 125 0 54 24
0.594344 -0.458637 -0.373684 255 125 0 54 24
0.599843 -0.286029 -0.250684 255 125 0 54 24
0.680400 -0.498635 -0.376684 255 125 0 54 24
0.658135 -0.271514 -0.193684 255 125 0 54 24
0.808096 -0.273035 -0.199684 255 125 0 54 24
0.729035 -0.356401 -0.373684 255 125 0 54 24
0.898462 -0.415934 -0.382684 255 125 0 54 24
0.894747 -0.341536 -0.387023 255 125 0 54 24
0.580453 -0.290675 -0.259684 255 125 0 54 24
0.611935 -0.373433 -0.301474 255 125 0 54 24
0.735010 -0.522274 -0.382684 255 125 0 54 24
0.860893 -0.269933 -0.189927 255 125 0 54 24
0.600286 -0.298373 -0.295684 255 125 0 54 24
0.861848 -0.308731 -0.334684 255 125 0 54 24
0.814227 -0.431766 -0.384089 255 125 0 54 24
0.706910 -0.287340 -0.253684 255 125 0 54 24
0.626904 -0.303006 -0.357160 255 125 0 54 24
0.827991 -0.266006 -0.231175 255 125 0 54 24
0.806194 -0.390188 -0.385684 255 125 0 54 24
0.630316 -0.286953 -0.313684 255 125 0 54 24
0.781902 -0.309690 -0.337684 255 125 0 54 24
0.651705 -0.467763 -0.382684 255 125 0 54 24
0.601331 -0.423318 -0.373848 255 125 0 54 24
0.727637 -0.269211 -0.250684 255 125 0 54 24
0.658190 -0.343394 -0.373186 255 125 0 54 24
0.637415 -0.282418 -0.292684 255 125 0 54 24
0.818664 -0.454179 -0.373588 255 125 0 54 24
0.590708 -0.415582 -0.373684 255 125 0 54 24
0.748672 -0.270615 -0.187684 255 125 0 54 24
0.594367 -0.391168 -0.382684 255 125 0 54 24
0.783653 -0.258160 -0.199684 255 125 0 54 24
0.850062 -0.277606 -0.217684 255 125 0 54 24
0.579174 -0.455413 -0.380862 255 125 0 54 24
0.760239 -0.296175 -0.346684 255 125 0 54 24
0.587299 -0.287328 -0.247684 255 125 0 54 24
0.591313 -0.313843 -0.346684 255 125 0 54 24
0.848093 -0.258011 -0.201161 255 125 0 54 24
0.592933 -0.446069 -0.304684 255 125 0 54 24
0.745934 -0.500060 -0.376684 255 125 0 54 24
0.720466 -0.310138 -0.337684 255 125 0 54 24
0.829741 -0.293981 -0.334684 255 125 0 54 24
0.581486 -0.308687 -0.370684 255 125 0 54 24
0.750311 -0.314023 -0.355684 255 125 0 54 24
0.618074 -0.272404 -0.199684 255 125 0 54 24
0.637834 -0.323731 -0.373982 255 125 0 54 24
0.583668 -0.304412 -0.313684 255 125 0 54 24
0.810359 -0.291239 -0.268684 255 125 0 54 24
0.683241 -0.413125 -0.373525 255 125 0 54 24
0.746333 -0.303879 -0.316684 255 125 0 54 24
0.763453 -0.309905 -0.337684 255 125 0 54 24
0.666221 -0.305618 -0.322684 255 125 0 54 24
0.657963 -0.286753 -0.250684 255 125 0 54 24
0.713626 -0.407316 -0.373684 255 125 0 54 24
0.871538 -0.277574 -0.220684 255 125 0 54 24
0.701436 -0.298667 -0.295684 255 125 0 54 24
0.810114 -0.277968 -0.220684 255 125 0 54 24
0.885617 -0.269054 -0.180049 255 125 0 54 24
0.612077 -0.300616 -0.301684 255 125 0 54 24
0.739774 -0.262590 -0.177813 255 125 0 54 24
0.816902 -0.274891 -0.208683 255 125 0 54 24
0.815446 -0.281741 -0.234260 255 125 0 54 24
0.719227 -0.272680 -0.199684 255 125 0 54 24
0.773949 -0.282122 -0.235684 255 125 0 54 24
0.600787 -0.281587 -0.232684 255 125 0 54 24
0.620696 -0.476507 -0.382053 255 125 0 54 24
0.838122 -0.276064 -0.211684 255 125 0 54 24
0.862764 -0.261134 -0.214684 255 125 0 54 24
0.609185 -0.357513 -0.380846 255 125 0 54 24
0.880203 -0.308950 -0.328684 255 125 0 54 24
0.852525 -0.294876 -0.283684 255 125 0 54 24
0.862809 -0.318643 -0.364684 255 125 0 54 24
0.652421 -0.269532 -0.178684 255 125 0 54 24
0.597310 -0.326806 -0.373684 255 125 0 54 24
0.788530 -0.453908 -0.373684 255 125 0 54 24
0.771051 -0.315243 -0.358684 255 125 0 54 24
0.878484 -0.317039 -0.358684 255 125 0 54 24
0.777291 -0.433117 -0.373684 255 125 0 54 24
0.846577 -0.481581 -0.385981 255 125 0 54 24
0.885303 -0.413137 -0.307684 255 125 0 54 24
0.868273 -0.292931 -0.277684 255 125 0 54 24
0.659719 -0.484801 -0.382684 255 125 0 54 24
0.671103 -0.398081 -0.373684 255 125 0 54 24
0.768597 -0.357854 -0.373684 255 125 0 54 24
0.714815 -0.279008 -0.223684 255 125 0 54 24
0.853552 -0.391053 -0.383974 255 125 0 54 24
0.876842 -0.411339 -0.383974 255 125 0 54 24
0.716633 -0.270455 -0.184684 255 125 0 54 24
0.828521 -0.277938 -0.220684 255 125 0 54 24
0.737473 -0.295838 -0.286684 255 125 0 54 24
0.673362 -0.300874 -0.304684 255 125 0 54 24
0.648121 -0.520631 -0.382684 255 125 0 54 24
0.826518 -0.388374 -0.367188 255 125 0 54 24
0.847314 -0.420397 -0.384038 255 125 0 54 24
0.740077 -0.284124 -0.241684 255 125 0 54 24
0.711105 -0.296463 -0.289684 255 125 0 54 24
0.879623 -0.268398 -0.214684 255 125 0 54 24
0.879479 -0.283505 -0.232684 255 125 0 54 24
0.760784 -0.423474 -0.373394 255 125 0 54 24
0.685665 -0.358434 -0.374058 255 125 0 54 24
0.794749 -0.436827 -0.372306 255 125 0 54 24
0.661820 -0.384036 -0.373353 255 125 0 54 24
0.818485 -0.310726 -0.340684 255 125 0 54 24
0.816099 -0.422963 -0.373055 255 125 0 54 24
0.670537 -0.270882 -0.259684 255 125 0 54 24
0.781945 -0.367205 -0.373684 255 125 0 54 24
0.756417 -0.444015 -0.372945 255 125 0 54 24
0.592712 -0.406151 -0.373304 255 125 0 54 24
0.581717 -0.428350 -0.373684 255 125 0 54 24
0.801859 -0.259086 -0.190684 255 125 0 54 24
0.834599 -0.278207 -0.277684 255 125 0 54 24
0.846344 -0.280670 -0.289684 255 125 0 54 24
0.803226 -0.368088 -0.374060 255 125 0 54 24
0.808216 -0.344612 -0.374059 255 125 0 54 24
0.686445 -0.268185 -0.247684 255 125 0 54 24
0.718893 -0.432972 -0.372486 255 125 0 54 24
0.590487 -0.272327 -0.253684 255 125 0 54 24
0.635313 -0.263447 -0.229684 255 125 0 54 24
0.905492 -0.377557 -0.375701 255 125 0 54 24
0.727298 -0.321279 -0.372993 255 125 0 54 24
0.873582 -0.340104 -0.387157 255 125 0 54 24
0.813553 -0.521514 -0.379684 255 125 0 54 24
0.587637 -0.314594 -0.382684 255 125 0 54 24
0.815128 -0.283237 -0.298684 255 125 0 54 24
0.771739 -0.270924 -0.250684 255 125 0 54 24
0.700917 -0.459821 -0.372511 255 125 0 54 24
0.728392 -0.474862 -0.372746 255 125 0 54 24
0.586362 -0.493745 -0.373871 255 125 0 54 24
0.693220 -0.366174 -0.373418 255 125 0 54 24
0.658957 -0.426366 -0.372723 255 125 0 54 24
0.738371 -0.427911 -0.372856 255 125 0 54 24
0.780869 -0.271255 -0.184684 255 125 0 54 24
0.766076 -0.499582 -0.376684 255 125 0 54 24
0.692254 -0.327431 -0.373684 255 125 0 54 24
0.759168 -0.459935 -0.372990 255 125 0 54 24
0.716511 -0.386460 -0.373513 255 125 0 54 24
0.871022 -0.280002 -0.274684 255 125 0 54 24
0.844819 -0.432135 -0.372825 255 125 0 54 24
0.659028 -0.469319 -0.372760 255 125 0 54 24
0.796901 -0.282411 -0.295684 255 125 0 54 24
0.843557 -0.264923 -0.220684 255 125 0 54 24
0.827456 -0.282951 -0.286684 255 125 0 54 24
0.861547 -0.411154 -0.373333 255 125 0 54 24
0.875127 -0.260690 -0.178075 255 125 0 54 24
0.691236 -0.260075 -0.211684 255 125 0 54 24
0.724599 -0.276266 -0.277684 255 125 0 54 24
0.808810 -0.269671 -0.241684 255 125 0 54 24
0.834329 -0.423771 -0.372943 255 125 0 54 24
0.611269 -0.477570 -0.372561 255 125 0 54 24
0.801965 -0.301879 -0.367684 255 125 0 54 24
0.838782 -0.272960 -0.256684 255 125 0 54 24
0.615862 -0.340530 -0.384174 255 125 0 54 24
0.787562 -0.398495 -0.384036 255 125 0 54 24
0.663763 -0.418186 -0.384124 255 125 0 54 24
0.731368 -0.374283 -0.384080 255 125 0 54 24
0.867274 -0.326495 -0.387145 255 125 0 54 24
0.740323 -0.288867 -0.322684 255 125 0 54 24
0.909674 -0.372312 -0.387060 255 125 0 54 24
0.676635 -0.473062 -0.372569 255 125 0 54 24
0.732247 -0.399006 -0.384032 255 125 0 54 24
0.739292 -0.351431 -0.384064 255 125 0 54 24
0.830289 -0.514923 -0.387149 255 125 0 54 24
0.603291 -0.284237 -0.307684 255 125 0 54 24
0.695714 -0.354437 -0.384119 255 125 0 54 24
0.692626 -0.513265 -0.390154 255 125 0 54 24
0.665725 -0.279092 -0.289684 255 125 0 54 24
0.650012 -0.338588 -0.373076 255 125 0 54 24
0.756000 -0.258399 -0.214684 255 125 0 54 24
0.863914 -0.284581 -0.292684 255 125 0 54 24
0.608724 -0.273106 -0.265684 255 125 0 54 24
0.722267 -0.445957 -0.384075 255 125 0 54 24
0.667392 -0.458829 -0.372520 255 125 0 54 24
0.678277 -0.263324 -0.235684 255 125 0 54 24
0.759720 -0.414047 -0.384048 255 125 0 54 24
0.792894 -0.272404 -0.250684 255 125 0 54 24
0.768381 -0.330011 -0.384049 255 125 0 54 24
0.881464 -0.418455 -0.390129 255 125 0 54 24
0.629981 -0.389537 -0.384106 255 125 0 54 24
0.708332 -0.381655 -0.384048 255 125 0 54 24
0.798676 -0.403925 -0.383990 255 125 0 54 24
0.642456 -0.330848 -0.384106 255 125 0 54 24
0.719772 -0.457695 -0.372715 255 125 0 54 24
0.806529 -0.338120 -0.384044 255 125 0 54 24
0.850914 -0.316884 -0.383973 255 125 0 54 24
0.757962 -0.364601 -0.384100 255 125 0 54 24
0.796550 -0.385071 -0.383984 255 125 0 54 24
0.774760 -0.386573 -0.384037 255 125 0 54 24
0.792112 -0.362658 -0.384017 255 125 0 54 24
0.684999 -0.462572 -0.372773 255 125 0 54 24
0.605513 -0.418073 -0.380916 255 125 0 54 24
0.689181 -0.457326 -0.384162 255 125 0 54 24
0.730631 -0.435467 -0.384144 255 125 0 54 24
0.779893 -0.449005 -0.384071 255 125 0 54 24
0.858683 -0.453484 -0.387122 255 125 0 54 24
0.662955 -0.436417 -0.384145 255 125 0 54 24
0.769403 -0.440641 -0.384020 255 125 0 54 24
0.601005 -0.352707 -0.384109 255 125 0 54 24
0.641424 -0.292416 -0.328684 255 125 0 54 24
0.755963 -0.258575 -0.196684 255 125 0 54 24
0.725569 -0.415989 -0.384088 255 125 0 54 24
0.783635 -0.431398 -0.384061 255 125 0 54 24
0.614062 -0.392287 -0.384086 255 125 0 54 24
0.857181 -0.431695 -0.387161 255 125 0 54 24
0.710968 -0.455824 -0.384143 255 125 0 54 24
0.688415 -0.374354 -0.384113 255 125 0 54 24
0.696115 -0.294833 -0.340684 255 125 0 54 24
0.612375 -0.385794 -0.312167 255 125 0 54 24
0.870534 -0.397730 -0.387150 255 125 0 54 24
0.745488 -0.423290 -0.384133 255 125 0 54 24
0.827652 -0.440754 -0.384037 255 125 0 54 24
0.682433 -0.431356 -0.372716 255 125 0 54 24
0.748904 -0.335072 -0.384118 255 125 0 54 24
0.617435 -0.405272 -0.384127 255 125 0 54 24
0.902742 -0.361637 -0.387005 255 125 0 54 24
0.870279 -0.370072 -0.387161 255 125 0 54 24
0.773407 -0.277510 -0.268684 255 125 0 54 24
0.711195 -0.339325 -0.384126 255 125 0 54 24
0.608929 -0.329856 -0.384178 255 125 0 54 24
0.702533 -0.423360 -0.384151 255 125 0 54 24
0.860736 -0.313963 -0.352684 255 125 0 54 24
0.793202 -0.501826 -0.388684 255 125 0 54 24
0.792325 -0.491519 -0.381193 255 125 0 54 24
0.886614 -0.293224 -0.301684 255 125 0 54 24
0.584434 -0.286376 -0.304684 255 125 0 54 24
0.674479 -0.310051 -0.338956 255 125 0 54 24
0.694236 -0.289249 -0.262684 255 125 0 54 24
0.813239 -0.479705 -0.388684 255 125 0 54 24
0.642615 -0.257951 -0.178684 255 125 0 54 24
0.872399 -0.287951 -0.256684 255 125 0 54 24
0.852196 -0.498433 -0.382684 255 125 0 54 24
0.783792 -0.286366 -0.250684 255 125 0 54 24
0.596467 -0.475061 -0.340684 255 125 0 54 24
0.880372 -0.264872 -0.195903 255 125 0 54 24
0.702945 -0.291566 -0.270994 255 125 0 54 24
0.881847 -0.360263 -0.373684 255 125 0 54 24
0.788469 -0.278796 -0.223684 255 125 0 54 24
0.734356 -0.301310 -0.307684 255 125 0 54 24
0.775527 -0.469546 -0.384034 255 125 0 54 24
0.660094 -0.493161 -0.388684 255 125 0 54 24
0.611085 -0.492866 -0.389607 255 125 0 54 24
0.676422 -0.344202 -0.373873 255 125 0 54 24
0.792994 -0.356712 -0.373684 255 125 0 54 24
0.701513 -0.312731 -0.347875 255 125 0 54 24
0.933334 -0.362006 -0.375219 255 125 0 54 24
0.607489 -0.278917 -0.223684 255 125 0 54 24
0.732123 -0.284158 -0.298684 255 125 0 54 24
0.658944 -0.312883 -0.349684 255 125 0 54 24
0.586580 -0.319570 -0.364684 255 125 0 54 24
0.593487 -0.460222 -0.340684 255 125 0 54 24
0.594203 -0.262318 -0.220684 255 125 0 54 24
0.874603 -0.450734 -0.380563 255 125 0 54 24
0.694057 -0.492100 -0.379902 255 125 0 54 24
0.590728 -0.473204 -0.384090 255 125 0 54 24
0.617025 -0.414386 -0.301684 255 125 0 54 24
0.801950 -0.287520 -0.253684 255 125 0 54 24
0.599205 -0.404464 -0.380828 255 125 0 54 24
0.674040 -0.283260 -0.238684 255 125 0 54 24
0.666215 -0.507651 -0.373885 255 125 0 54 24
0.793209 -0.314210 -0.352684 255 125 0 54 24
0.610983 -0.431504 -0.307684 255 125 0 54 24
0.590656 -0.358106 -0.382684 255 125 0 54 24
0.769188 -0.297358 -0.292684 255 125 0 54 24
0.843940 -0.407412 -0.383959 255 125 0 54 24
0.667914 -0.489610 -0.379684 255 125 0 54 24
0.651188 -0.289766 -0.263889 255 125 0 54 24
0.752243 -0.319363 -0.367684 255 125 0 54 24
0.694107 -0.275427 -0.208683 255 125 0 54 24
0.826518 -0.388374 -0.383961 255 125 0 54 24
0.866023 -0.298626 -0.295684 255 125 0 54 24
0.617833 -0.518836 -0.373580 255 125 0 54 24
0.632953 -0.274553 -0.205684 255 125 0 54 24
0.636800 -0.458461 -0.380952 255 125 0 54 24
0.600963 -0.453910 -0.380954 255 125 0 54 24
0.732187 -0.312714 -0.349684 255 125 0 54 24
0.846565 -0.308485 -0.373684 255 125 0 54 24
0.629507 -0.492773 -0.388684 255 125 0 54 24
0.872310 -0.302801 -0.313684 255 125 0 54 24
0.827326 -0.370143 -0.384030 255 125 0 54 24
0.890452 -0.405030 -0.387026 255 125 0 54 24
0.660089 -0.291177 -0.268684 255 125 0 54 24
0.636113 -0.384706 -0.373684 255 125 0 54 24
0.586918 -0.282239 -0.286684 255 125 0 54 24
0.795310 -0.275465 -0.211684 255 125 0 54 24
0.838665 -0.259074 -0.204149 255 125 0 54 24
0.596502 -0.272890 -0.199684 255 125 0 54 24
0.682527 -0.301047 -0.367684 255 125 0 54 24
0.663918 -0.258734 -0.179242 255 125 0 54 24
0.677452 -0.281635 -0.295684 255 125 0 54 24
0.707659 -0.390713 -0.373684 255 125 0 54 24
0.768345 -0.258036 -0.187684 255 125 0 54 24
0.684602 -0.421146 -0.382684 255 125 0 54 24
0.600149 -0.472166 -0.307684 255 125 0 54 24
0.850346 -0.290698 -0.328684 255 125 0 54 24
0.712372 -0.290503 -0.330147 255 125 0 54 24
0.598237 -0.264726 -0.238684 255 125 0 54 24
0.643448 -0.297322 -0.354149 255 125 0 54 24
0.822870 -0.275671 -0.268684 255 125 0 54 24
0.776661 -0.521926 -0.387181 255 125 0 54 24
0.620965 -0.258805 -0.177654 255 125 0 54 24
0.789716 -0.294674 -0.334684 255 125 0 54 24
0.630010 -0.302825 -0.310684 255 125 0 54 24
0.826744 -0.271875 -0.196171 255 125 0 54 24
0.783941 -0.300095 -0.301684 255 125 0 54 24
0.815333 -0.339991 -0.387181 255 125 0 54 24
0.810125 -0.357286 -0.385684 255 125 0 54 24
0.644854 -0.449426 -0.382684 255 125 0 54 24
0.686077 -0.298776 -0.358684 255 125 0 54 24
0.720257 -0.359653 -0.373684 255 125 0 54 24
0.600720 -0.459993 -0.328684 255 125 0 54 24
0.843245 -0.367393 -0.387150 255 125 0 54 24
0.663074 -0.450282 -0.382684 255 125 0 54 24
0.770876 -0.318273 -0.384077 255 125 0 54 24
0.676265 -0.503654 -0.384118 255 125 0 54 24
0.786366 -0.274258 -0.205684 255 125 0 54 24
0.655186 -0.299817 -0.300714 255 125 0 54 24
0.576874 -0.278656 -0.256684 255 125 0 54 24
0.661216 -0.264294 -0.232684 255 125 0 54 24
0.604532 -0.278397 -0.283684 255 125 0 54 24
0.585901 -0.409332 -0.382684 255 125 0 54 24
0.719999 -0.341196 -0.372626 255 125 0 54 24
0.820436 -0.258266 -0.201168 255 125 0 54 24
0.773211 -0.292861 -0.322684 255 125 0 54 24
0.638817 -0.511029 -0.385684 255 125 0 54 24
0.654230 -0.304313 -0.370684 255 125 0 54 24
0.903296 -0.380157 -0.385684 255 125 0 54 24
0.762442 -0.285810 -0.249707 255 125 0 54 24
0.612077 -0.459340 -0.372512 255 125 0 54 24
0.803231 -0.295917 -0.286684 255 125 0 54 24
0.669859 -0.274072 -0.205684 255 125 0 54 24
0.577119 -0.479512 -0.375834 255 125 0 54 24
0.669408 -0.478202 -0.385684 255 125 0 54 24
0.701041 -0.271667 -0.196684 255 125 0 54 24
0.851853 -0.283612 -0.241684 255 125 0 54 24
0.797271 -0.280666 -0.229684 255 125 0 54 24
0.588703 -0.324010 -0.382684 255 125 0 54 24
0.833308 -0.313141 -0.384004 255 125 0 54 24
0.844526 -0.318081 -0.361684 255 125 0 54 24
0.839108 -0.397184 -0.373684 255 125 0 54 24
0.924890 -0.344015 -0.379684 255 125 0 54 24
0.705734 -0.307295 -0.328684 255 125 0 54 24
0.872150 -0.361269 -0.373263 255 125 0 54 24
0.737350 -0.317281 -0.360380 255 125 0 54 24
0.645972 -0.429740 -0.372866 255 125 0 54 24
0.712337 -0.305091 -0.319684 255 125 0 54 24
0.694741 -0.258017 -0.178684 255 125 0 54 24
0.602097 -0.506291 -0.390062 255 125 0 54 24
0.867038 -0.269887 -0.181684 255 125 0 54 24
0.799810 -0.456305 -0.374046 255 125 0 54 24
0.886478 -0.308289 -0.355684 255 125 0 54 24
0.814337 -0.315810 -0.358684 255 125 0 54 24
0.871186 -0.264801 -0.211684 255 125 0 54 24
0.732980 -0.280126 -0.226684 255 125 0 54 24
0.662652 -0.279121 -0.223684 255 125 0 54 24
0.684292 -0.292744 -0.274684 255 125 0 54 24
0.592854 -0.492058 -0.383782 255 125 0 54 24
0.884317 -0.323984 -0.388684 255 125 0 54 24
0.670033 -0.287681 -0.256684 255 125 0 54 24
0.647883 -0.506822 -0.373684 255 125 0 54 24
0.771232 -0.302170 -0.310684 255 125 0 54 24
0.716328 -0.401756 -0.384034 255 125 0 54 24
0.857105 -0.258899 -0.178684 255 125 0 54 24
0.819401 -0.392995 -0.372307 255 125 0 54 24
0.751441 -0.308702 -0.334684 255 125 0 54 24
0.716803 -0.500524 -0.385684 255 125 0 54 24
0.601955 -0.290524 -0.265684 255 125 0 54 24
0.694366 -0.303067 -0.313684 255 125 0 54 24
0.702237 -0.496906 -0.378454 255 125 0 54 24
0.682943 -0.486671 -0.389587 255 125 0 54 24
0.600963 -0.453910 -0.311516 255 125 0 54 24
0.878827 -0.344286 -0.373963 255 125 0 54 24
0.670665 -0.270280 -0.187684 255 125 0 54 24
0.734666 -0.408721 -0.373684 255 125 0 54 24
0.595560 -0.291750 -0.337684 255 125 0 54 24
0.650922 -0.276587 -0.214684 255 125 0 54 24
0.618641 -0.500606 -0.375171 255 125 0 54 24
0.651091 -0.362370 -0.373684 255 125 0 54 24
0.826886 -0.357782 -0.383984 255 125 0 54 24
0.589949 -0.476871 -0.358684 255 125 0 54 24
0.754433 -0.511068 -0.373538 255 125 0 54 24
0.836960 -0.339245 -0.373684 255 125 0 54 24
0.609145 -0.444275 -0.298684 255 125 0 54 24
0.773106 -0.300345 -0.361684 255 125 0 54 24
0.825341 -0.437196 -0.372959 255 125 0 54 24
0.836200 -0.414968 -0.373790 255 125 0 54 24
0.771979 -0.515093 -0.373684 255 125 0 54 24
0.822123 -0.264759 -0.176028 255 125 0 54 24
0.836873 -0.372173 -0.373684 255 125 0 54 24
0.821976 -0.362872 -0.373684 255 125 0 54 24
0.602692 -0.359200 -0.372886 255 125 0 54 24
0.672637 -0.463011 -0.390209 255 125 0 54 24
0.685655 -0.286331 -0.250684 255 125 0 54 24
0.684446 -0.508459 -0.373935 255 125 0 54 24
0.876080 -0.270634 -0.226684 255 125 0 54 24
0.611124 -0.416199 -0.310684 255 125 0 54 24
0.755213 -0.521829 -0.382684 255 125 0 54 24
0.595718 -0.449728 -0.373886 255 125 0 54 24
0.775937 -0.337751 -0.373397 255 125 0 54 24
0.764158 -0.436459 -0.372941 255 125 0 54 24
0.632982 -0.259983 -0.211684 255 125 0 54 24
0.581262 -0.445592 -0.373684 255 125 0 54 24
0.756862 -0.283203 -0.301684 255 125 0 54 24
0.735703 -0.368317 -0.373684 255 125 0 54 24
0.752532 -0.375715 -0.373769 255 125 0 54 24
0.673190 -0.417123 -0.373971 255 125 0 54 24
0.853219 -0.407048 -0.337684 255 125 0 54 24
0.915727 -0.358263 -0.375971 255 125 0 54 24
0.870790 -0.425387 -0.374110 255 125 0 54 24
0.709027 -0.421673 -0.373221 255 125 0 54 24
0.578283 -0.315313 -0.358684 255 125 0 54 24
0.782714 -0.507878 -0.373606 255 125 0 54 24
0.616188 -0.411141 -0.373156 255 125 0 54 24
0.675756 -0.448339 -0.372724 255 125 0 54 24
0.862213 -0.307017 -0.375164 255 125 0 54 24
0.619420 -0.338220 -0.374009 255 125 0 54 24
0.788871 -0.269959 -0.241684 255 125 0 54 24
0.805704 -0.284287 -0.301684 255 125 0 54 24
0.774506 -0.358916 -0.384018 255 125 0 54 24
0.704590 -0.399261 -0.384044 255 125 0 54 24
0.678548 -0.363056 -0.384097 255 125 0 54 24
0.726562 -0.382463 -0.384067 255 125 0 54 24
0.695506 -0.297705 -0.358684 255 125 0 54 24
0.830337 -0.283829 -0.241684 255 125 0 54 24
0.721431 -0.320031 -0.384103 255 125 0 54 24
0.653987 -0.276598 -0.280684 255 125 0 54 24
0.653017 -0.382165 -0.373054 255 125 0 54 24
0.692482 -0.427358 -0.384122 255 125 0 54 24
0.677996 -0.408944 -0.384097 255 125 0 54 24
0.749230 -0.405683 -0.384097 255 125 0 54 24
0.660091 -0.478746 -0.372642 255 125 0 54 24
0.654958 -0.416315 -0.384172 255 125 0 54 24
0.724805 -0.333017 -0.384144 255 125 0 54 24
0.750335 -0.313907 -0.384114 255 125 0 54 24
0.848519 -0.515731 -0.387173 255 125 0 54 24
0.576537 -0.381244 -0.384133 255 125 0 54 24
0.808585 -0.314020 -0.384090 255 125 0 54 24
0.844748 -0.389182 -0.387175 255 125 0 54 24
0.788994 -0.377331 -0.373858 255 125 0 54 24
0.892876 -0.350339 -0.387105 255 125 0 54 24
0.731112 -0.346625 -0.384077 255 125 0 54 24
0.761847 -0.432901 -0.384082 255 125 0 54 24
0.744282 -0.327956 -0.373406 255 125 0 54 24
0.763831 -0.365848 -0.373349 255 125 0 54 24
0.856213 -0.486696 -0.385684 255 125 0 54 24
0.773952 -0.404804 -0.384045 255 125 0 54 24
0.832018 -0.420213 -0.384031 255 125 0 54 24
0.875241 -0.274583 -0.256684 255 125 0 54 24
0.866904 -0.357087 -0.387153 255 125 0 54 24
0.874645 -0.349531 -0.387161 255 125 0 54 24
0.740170 -0.376154 -0.384073 255 125 0 54 24
0.756899 -0.355174 -0.384063 255 125 0 54 24
0.592806 -0.521146 -0.382684 255 125 0 54 24
0.841978 -0.301212 -0.364684 255 125 0 54 24
0.642434 -0.258807 -0.214684 255 125 0 54 24
0.639940 -0.270536 -0.259684 255 125 0 54 24
0.706808 -0.287823 -0.322684 255 125 0 54 24
0.667849 -0.297956 -0.358684 255 125 0 54 24
0.683942 -0.279962 -0.286684 255 125 0 54 24
0.684747 -0.261746 -0.217684 255 125 0 54 24
0.658410 -0.299077 -0.355684 255 125 0 54 24
0.757688 -0.264887 -0.238684 255 125 0 54 24
0.856116 -0.400799 -0.385684 255 125 0 54 24
0.821503 -0.296532 -0.289684 255 125 0 54 24
0.853453 -0.276083 -0.271684 255 125 0 54 24
0.841092 -0.276521 -0.268684 255 125 0 54 24
0.876116 -0.299323 -0.349684 255 125 0 54 24
0.875411 -0.432503 -0.387169 255 125 0 54 24
0.625804 -0.466905 -0.382684 255 125 0 54 24
0.876939 -0.281024 -0.283684 255 125 0 54 24
0.843297 -0.280573 -0.229684 255 125 0 54 24
0.619114 -0.397376 -0.373684 255 125 0 54 24
0.829269 -0.303283 -0.313684 255 125 0 54 24
0.600594 -0.484502 -0.381824 255 125 0 54 24
0.887233 -0.278598 -0.220684 255 125 0 54 24
0.883897 -0.320433 -0.370684 255 125 0 54 24
0.827907 -0.468411 -0.372378 255 125 0 54 24
0.644361 -0.278590 -0.220684 255 125 0 54 24
0.680616 -0.281179 -0.232684 255 125 0 54 24
0.885738 -0.431632 -0.382684 255 125 0 54 24
0.589920 -0.393289 -0.373684 255 125 0 54 24
0.846584 -0.308397 -0.334684 255 125 0 54 24
0.733742 -0.290967 -0.268684 255 125 0 54 24
0.577785 -0.375375 -0.375800 255 125 0 54 24
0.859434 -0.305662 -0.322684 255 125 0 54 24
0.877722 -0.436062 -0.373851 255 125 0 54 24
0.844045 -0.305914 -0.325684 255 125 0 54 24
0.628860 -0.293804 -0.277684 255 125 0 54 24
0.887799 -0.345364 -0.379684 255 125 0 54 24
0.646425 -0.369887 -0.373684 255 125 0 54 24
0.601658 -0.493929 -0.380088 255 125 0 54 24
0.712207 -0.276847 -0.271684 255 125 0 54 24
0.577303 -0.464216 -0.384128 255 125 0 54 24
0.724370 -0.479347 -0.388684 255 125 0 54 24
0.742362 -0.279273 -0.223684 255 125 0 54 24
0.806558 -0.482276 -0.372947 255 125 0 54 24
0.872950 -0.415226 -0.319684 255 125 0 54 24
0.613069 -0.425813 -0.296506 255 125 0 54 24
0.601896 -0.276372 -0.214684 255 125 0 54 24
0.831976 -0.521416 -0.381446 255 125 0 54 24
0.581630 -0.501940 -0.373684 255 125 0 54 24
0.831289 -0.308209 -0.376684 255 125 0 54 24
0.749812 -0.503951 -0.383991 255 125 0 54 24
0.785025 -0.511436 -0.387170 255 125 0 54 24
0.862561 -0.343895 -0.373684 255 125 0 54 24
0.742071 -0.511507 -0.384010 255 125 0 54 24
0.640074 -0.284336 -0.244298 255 125 0 54 24
0.576311 -0.497743 -0.384079 255 125 0 54 24
0.842374 -0.400353 -0.349684 255 125 0 54 24
0.577392 -0.427431 -0.382684 255 125 0 54 24
0.760887 -0.313083 -0.349684 255 125 0 54 24
0.793043 -0.405794 -0.373684 255 125 0 54 24
0.621720 -0.514977 -0.385684 255 125 0 54 24
0.765515 -0.271350 -0.193684 255 125 0 54 24
0.691903 -0.415661 -0.373684 255 125 0 54 24
0.839379 -0.313438 -0.352684 255 125 0 54 24
0.594779 -0.454142 -0.355684 255 125 0 54 24
0.829621 -0.301630 -0.367684 255 125 0 54 24
0.740781 -0.301142 -0.367684 255 125 0 54 24
0.656973 -0.493419 -0.380116 255 125 0 54 24
0.576722 -0.365948 -0.375798 255 125 0 54 24
0.646751 -0.267353 -0.243176 255 125 0 54 24
0.696429 -0.271779 -0.262684 255 125 0 54 24
0.815701 -0.309399 -0.381173 255 125 0 54 24
0.626271 -0.378133 -0.304684 255 125 0 54 24
0.812411 -0.512458 -0.373684 255 125 0 54 24
0.711409 -0.468185 -0.380923 255 125 0 54 24
0.594426 -0.289969 -0.325684 255 125 0 54 24
0.597897 -0.439478 -0.310684 255 125 0 54 24
0.881999 -0.300505 -0.373684 255 125 0 54 24
0.761110 -0.494085 -0.381253 255 125 0 54 24
0.830907 -0.310005 -0.337684 255 125 0 54 24
0.837049 -0.295535 -0.339137 255 125 0 54 24
0.681596 -0.283961 -0.304684 255 125 0 54 24
0.584897 -0.500638 -0.385684 255 125 0 54 24
0.804111 -0.464927 -0.385684 255 125 0 54 24
0.739845 -0.305543 -0.323294 255 125 0 54 24
0.881691 -0.301956 -0.301363 255 125 0 54 24
0.683681 -0.385616 -0.373684 255 125 0 54 24
0.880342 -0.409299 -0.313684 255 125 0 54 24
0.879687 -0.311384 -0.337684 255 125 0 54 24
0.603826 -0.411581 -0.301389 255 125 0 54 24
0.728106 -0.303048 -0.366042 255 125 0 54 24
0.885207 -0.400848 -0.373777 255 125 0 54 24
0.769955 -0.394753 -0.373188 255 125 0 54 24
0.887928 -0.272612 -0.211830 255 125 0 54 24
0.915982 -0.385921 -0.378855 255 125 0 54 24
0.801262 -0.319616 -0.367684 255 125 0 54 24
0.764484 -0.507070 -0.384008 255 125 0 54 24
0.887048 -0.421039 -0.304684 255 125 0 54 24
0.913488 -0.397659 -0.375425 255 125 0 54 24
0.605180 -0.332126 -0.373684 255 125 0 54 24
0.587141 -0.331358 -0.373945 255 125 0 54 24
0.707227 -0.473430 -0.389780 255 125 0 54 24
0.580720 -0.268653 -0.217684 255 125 0 54 24
0.680351 -0.519857 -0.382684 255 125 0 54 24
0.662660 -0.322368 -0.373684 255 125 0 54 24
0.721290 -0.493845 -0.388684 255 125 0 54 24
0.615309 -0.386418 -0.297465 255 125 0 54 24
0.925155 -0.357200 -0.375073 255 125 0 54 24
0.834694 -0.279699 -0.226684 255 125 0 54 24
0.600523 -0.499822 -0.373684 255 125 0 54 24
0.646027 -0.273334 -0.202684 255 125 0 54 24
0.582319 -0.267467 -0.241684 255 125 0 54 24
0.744091 -0.487574 -0.373684 255 125 0 54 24
0.637212 -0.485381 -0.379684 255 125 0 54 24
0.618571 -0.270068 -0.190684 255 125 0 54 24
0.590683 -0.467060 -0.355684 255 125 0 54 24
0.576835 -0.307699 -0.345675 255 125 0 54 24
0.594839 -0.425005 -0.380896 255 125 0 54 24
0.696122 -0.294808 -0.280684 255 125 0 54 24
0.580837 -0.271745 -0.190684 255 125 0 54 24
0.801409 -0.304487 -0.319684 255 125 0 54 24
0.718596 -0.290080 -0.262684 255 125 0 54 24
0.857152 -0.287539 -0.312145 255 125 0 54 24
0.713307 -0.286105 -0.247684 255 125 0 54 24
0.794445 -0.293968 -0.277684 255 125 0 54 24
0.800380 -0.309331 -0.337684 255 125 0 54 24
0.692823 -0.281467 -0.232684 255 125 0 54 24
0.818225 -0.441817 -0.373479 255 125 0 54 24
0.620135 -0.277136 -0.214684 255 125 0 54 24
0.586105 -0.393947 -0.382684 255 125 0 54 24
0.825091 -0.492349 -0.388684 255 125 0 54 24
0.810713 -0.304006 -0.316684 255 125 0 54 24
0.750407 -0.356860 -0.373498 255 125 0 54 24
0.750165 -0.300280 -0.301684 255 125 0 54 24
0.642853 -0.444412 -0.372764 255 125 0 54 24
0.849072 -0.469843 -0.372354 255 125 0 54 24
0.577252 -0.298586 -0.331684 255 125 0 54 24
0.789965 -0.271757 -0.196684 255 125 0 54 24
0.726889 -0.453073 -0.372997 255 125 0 54 24
0.719977 -0.298010 -0.292684 255 125 0 54 24
0.706151 -0.319770 -0.367684 255 125 0 54 24
0.840708 -0.480334 -0.372676 255 125 0 54 24
0.736132 -0.467306 -0.372688 255 125 0 54 24
0.586265 -0.292190 -0.265684 255 125 0 54 24
0.598747 -0.305616 -0.322684 255 125 0 54 24
0.758360 -0.478165 -0.372372 255 125 0 54 24
0.770097 -0.480660 -0.372485 255 125 0 54 24
0.857252 -0.474649 -0.372919 255 125 0 54 24
0.905222 -0.411237 -0.379684 255 125 0 54 24
0.673743 -0.371235 -0.373085 255 125 0 54 24
0.794310 -0.424466 -0.373029 255 125 0 54 24
