ply
format ascii 1.0
element vertex 1118
property float x
property float y
property float z
property uchar red
property uchar green
property uchar blue
property uchar semantic_label
property uchar instance_label
end_header
-1.055543 -0.142172 0.112485 34 18 10 5 3
-1.087860 0.026735 0.122597 90 72 54 5 3
-1.093166 0.038907 0.118829 93 75 55 5 3
-1.088883 0.028795 0.139183 83 66 47 5 3
-1.059566 -0.277494 0.290821 41 34 24 5 3
-1.064978 -0.298394 0.305549 39 23 20 5 3
-1.079916 -0.289542 0.275221 136 115 97 5 3
-1.063160 -0.289863 0.268375 48 30 23 5 3
-1.072668 -0.302068 0.299762 90 68 49 5 3
-1.073013 -0.302085 0.290913 68 46 34 5 3
-1.056570 -0.295226 0.288945 39 24 22 5 3
-1.077504 -0.296008 0.285466 61 43 30 5 3
-1.078320 -0.280342 0.294802 64 49 36 5 3
-1.079619 -0.293141 0.300797 57 38 34 5 3
-1.089500 0.032941 0.158492 91 77 56 5 3
-1.090974 0.032234 0.178736 86 73 60 5 3
-1.098372 0.037687 0.183031 80 71 52 5 3
-1.007904 -0.232884 -0.113481 61 38 16 5 3
-1.015534 -0.218062 -0.115159 58 33 23 5 3
-1.027323 -0.225705 -0.112106 55 33 22 5 3
-1.001676 -0.229541 -0.110175 10 9 8 5 3
-1.046670 -0.141477 -0.070183 36 20 12 5 3
-1.050941 -0.120450 -0.074236 37 20 18 5 3
-1.047811 -0.143014 -0.049358 19 10 8 5 3
-1.146940 0.006235 0.384973 136 112 91 5 3
-1.155793 0.010152 0.379576 138 111 89 5 3
-1.161430 0.013666 0.393411 144 124 99 5 3
-1.160182 0.006904 0.391035 146 124 102 5 3
-1.145443 0.020147 0.403950 142 126 97 5 3
-1.145678 0.041047 0.403981 143 123 99 5 3
-1.156241 0.012100 0.401043 143 124 93 5 3
-1.153311 0.023322 0.397283 144 124 93 5 3
-1.140271 -0.128472 0.353516 112 94 70 5 3
-1.055214 -0.021837 -0.000757 56 24 27 5 3
-1.051373 -0.009678 0.003731 71 35 28 5 3
-1.065029 -0.024003 0.022804 70 44 34 5 3
-1.078510 -0.050707 0.022544 80 53 30 5 3
-1.058943 -0.030547 0.010460 80 47 35 5 3
-1.053567 -0.040164 -0.000666 32 15 7 5 3
-1.086279 -0.214648 0.242626 124 101 101 5 3
-1.089073 -0.207897 0.250975 130 109 105 5 3
-1.087483 -0.190104 0.228969 75 61 38 5 3
-1.086540 -0.193793 0.223311 144 126 108 5 3
-1.084830 -0.204719 0.231096 43 32 26 5 3
-1.089421 -0.204649 0.228671 94 80 57 5 3
-1.146791 0.028403 0.367549 128 102 93 5 3
-1.139912 0.009430 0.366944 64 45 32 5 3
-1.066962 0.033946 0.152568 18 10 9 5 3
-1.076282 0.029902 0.121143 53 40 28 5 3
-1.061164 0.030872 0.114692 21 15 8 5 3
-1.057523 0.036565 0.145955 60 50 35 5 3
-1.057319 0.032025 0.127340 37 27 22 5 3
-1.030843 -0.200970 -0.018141 70 40 21 5 3
-1.031751 -0.179572 -0.005468 49 27 15 5 3
-1.008669 -0.198530 -0.018097 21 11 7 5 3
-1.022682 -0.208632 -0.023742 61 30 21 5 3
-1.033644 -0.175091 -0.019770 37 21 14 5 3
-1.018099 -0.202845 -0.014038 40 21 8 5 3
-1.025896 -0.183798 -0.018862 33 18 11 5 3
-1.026989 -0.218751 -0.022022 50 26 14 5 3
-1.105668 0.060713 0.126882 129 105 64 5 3
-1.109862 0.062645 0.140368 126 96 80 5 3
-1.097662 0.071427 0.134216 119 94 73 5 3
-1.108953 0.068987 0.147186 118 95 71 5 3
-1.104302 0.064646 0.125842 121 101 67 5 3
-1.095285 0.041640 0.137342 108 89 61 5 3
-1.020447 -0.070171 -0.110685 56 30 18 5 3
-1.034901 -0.039379 -0.112164 25 10 9 5 3
-1.039359 -0.061454 -0.112076 25 10 9 5 3
-1.024658 -0.055410 -0.109005 65 32 23 5 3
-1.026051 -0.070600 -0.108566 67 37 22 5 3
-1.063064 0.069452 0.024613 46 34 25 5 3
-1.075487 0.064778 0.033491 26 15 11 5 3
-1.082214 0.058330 0.016840 154 137 118 5 3
-1.069908 0.062675 0.013844 25 16 14 5 3
-1.059208 0.071774 0.042188 74 56 46 5 3
-1.067867 0.072523 0.040487 38 27 19 5 3
-1.103657 0.089483 0.317210 105 91 71 5 3
-1.092313 0.077154 0.343473 99 73 59 5 3
-1.108032 0.091869 0.328615 104 82 70 5 3
-1.104938 0.089053 0.341074 100 77 55 5 3
-1.116223 0.090463 0.301776 56 36 37 5 3
-1.020933 -0.284724 -0.042190 34 18 16 5 3
-1.021088 -0.290077 -0.023926 20 10 17 5 3
-1.011975 -0.290951 -0.038896 14 7 8 5 3
-0.999171 -0.282055 -0.028295 28 14 10 5 3
-1.056161 -0.002749 0.016695 99 59 46 5 3
-1.065035 0.000654 0.048423 23 15 16 5 3
-1.061512 -0.008148 0.034041 107 66 53 5 3
-1.052643 0.061557 0.155493 94 80 61 5 3
-0.999052 0.085058 -0.025027 171 150 142 5 3
-1.001451 0.086909 -0.038298 42 25 16 0 0
-1.003154 0.049058 -0.039174 46 24 16 0 0
-1.011719 0.048831 -0.015076 103 68 53 5 3
-1.097063 -0.156409 0.178219 203 187 185 5 3
-1.134000 0.066863 0.375470 86 58 56 5 3
-1.138420 0.047514 0.370770 128 105 83 5 3
-1.145236 0.034563 0.388145 128 103 87 5 3
-1.145464 0.039959 0.378680 108 90 76 5 3
-1.140534 0.072809 0.400669 140 122 87 5 3
-1.147016 0.051836 0.397749 145 127 103 5 3
-1.130657 0.059232 0.406866 144 120 92 5 3
-1.066294 -0.239885 0.251658 50 32 25 5 3
-1.077401 -0.249542 0.266018 49 30 28 5 3
-1.087600 -0.228116 0.265303 84 66 48 5 3
-1.085195 -0.224460 0.257152 67 50 42 5 3
-1.093394 -0.230540 0.277432 101 72 59 5 3
-1.095375 -0.228996 0.267426 111 91 73 5 3
-1.091669 -0.227252 0.254106 107 89 60 5 3
-1.068405 -0.240935 0.266663 48 35 31 5 3
-1.085102 -0.236297 0.276580 53 33 20 5 3
-1.114631 -0.129869 0.315887 96 79 68 5 3
-1.125985 -0.135646 0.318848 55 35 30 5 3
-1.029863 -0.146198 -0.018299 34 18 10 5 3
-1.037742 -0.135766 -0.018088 37 19 9 5 3
-1.079279 -0.088060 0.122022 101 84 56 5 3
-1.096954 -0.065626 0.117736 155 132 111 5 3
-1.088378 -0.072263 0.128217 108 90 64 5 3
-1.107693 -0.066521 0.125719 176 145 129 5 3
-1.099011 -0.080062 0.133913 176 154 134 5 3
-1.102094 -0.083415 0.148086 191 169 156 5 3
-1.050033 -0.266795 0.189624 35 22 16 5 3
-1.057349 -0.257167 0.185349 36 16 14 5 3
-1.052391 -0.266643 0.212366 37 22 14 5 3
-1.060273 -0.254447 0.193119 46 24 19 5 3
-1.082814 -0.256393 0.383575 50 38 32 5 3
-1.075543 -0.270756 0.391917 49 40 32 5 3
-1.091266 -0.239605 0.396274 44 36 30 5 3
-1.086723 -0.260586 0.401328 50 34 30 5 3
-1.090918 -0.245224 0.388070 48 35 28 5 3
-1.019655 0.018649 -0.087703 46 46 51 5 3
-1.032509 0.020233 -0.097304 42 50 62 5 3
-1.057404 0.015160 -0.087359 54 30 22 5 3
-1.071140 -0.172423 -0.011903 22 9 5 5 3
-1.034798 -0.248125 -0.043282 64 36 19 5 3
-1.035261 -0.266139 -0.062740 50 24 23 5 3
-1.029414 -0.276192 -0.053286 39 27 15 5 3
0.115173 0.604199 -0.371751 193 163 127 5 4
0.105983 0.594001 -0.363409 206 176 134 5 4
0.104955 0.582146 -0.385503 237 236 233 5 4
0.450805 0.439074 -0.601600 187 144 102 2 2
0.333143 0.411645 -0.602327 196 173 142 2 2
0.366315 0.408325 -0.601347 195 175 140 2 2
0.066343 0.594396 -0.403812 233 231 221 5 4
0.067710 0.588658 -0.414578 40 39 34 5 4
0.067555 0.595997 -0.431924 54 53 45 5 4
0.062762 0.260992 -0.358741 193 167 141 5 4
0.071869 0.272992 -0.363012 177 150 129 5 4
0.060429 0.285789 -0.360764 93 71 54 5 4
0.429192 0.438519 -0.606831 209 188 157 2 2
0.423885 0.446528 -0.602888 210 188 161 2 2
0.420114 0.422543 -0.602356 211 191 162 2 2
0.411831 0.414026 -0.603224 214 193 162 2 2
0.074007 0.663735 -0.283851 57 52 50 5 4
0.053453 0.651034 -0.277824 233 227 222 5 4
0.060471 0.658542 -0.273427 222 216 219 5 4
0.053055 0.645931 -0.293793 251 247 244 5 4
0.071219 0.662306 -0.271964 113 110 107 5 4
0.250841 0.908191 -0.173397 95 105 105 0 0
0.254220 0.908608 -0.187988 80 89 91 0 0
0.123263 0.455231 -0.592081 109 83 54 2 2
0.107402 0.436491 -0.590883 92 73 58 2 2
0.086074 0.520962 -0.370651 239 222 204 5 4
0.081787 0.545413 -0.365618 255 252 252 5 4
0.071663 0.544012 -0.360530 233 229 227 5 4
0.093417 0.534554 -0.374769 254 253 248 5 4
0.069922 0.551279 -0.392338 37 31 29 5 4
0.070537 0.536141 -0.397255 43 38 33 5 4
0.082047 0.560154 -0.413690 202 188 169 5 4
0.093418 0.564186 -0.414271 47 35 27 5 4
0.076413 0.582300 -0.417908 35 27 24 5 4
0.066540 0.578540 -0.397198 35 28 25 5 4
0.226019 0.928323 -0.159800 178 165 136 1 1
0.235685 0.927732 -0.136012 184 172 141 1 1
0.250483 0.927157 -0.159371 179 170 133 1 1
0.446802 0.353683 -0.530113 147 114 85 2 2
0.438409 0.347237 -0.539104 214 197 166 2 2
0.221949 0.297132 -0.599098 132 116 89 2 2
0.189006 0.901007 -0.212847 162 163 147 0 0
0.171676 0.900840 -0.209922 167 160 147 0 0
0.171921 0.892038 -0.227334 90 87 79 1 1
0.175278 0.900150 -0.221195 167 159 149 0 0
0.183039 0.888148 -0.213216 53 51 45 1 1
0.190178 0.884859 -0.223074 19 16 15 1 1
0.161478 0.898465 -0.229695 163 157 144 0 0
0.190899 0.903632 -0.199439 92 88 79 0 0
0.103982 0.596399 -0.353338 112 98 79 5 4
0.110852 0.601736 -0.353106 141 125 99 5 4
0.095250 0.260860 -0.201276 77 60 48 5 4
0.981173 0.332746 -0.173817 70 77 114 0 0
0.985148 0.342715 -0.164000 75 80 119 0 0
0.272752 0.845014 -0.275726 84 84 82 1 1
0.260632 0.849862 -0.273787 81 81 79 1 1
0.283325 0.848317 -0.272044 108 99 91 1 1
0.263380 0.841403 -0.301143 95 86 83 1 1
0.186269 0.554145 -0.588079 56 46 40 2 2
0.162684 0.547200 -0.591512 81 62 49 2 2
0.323453 0.909992 -0.148668 198 200 188 0 0
0.305771 0.909087 -0.135917 196 201 188 0 0
0.008475 0.538391 -0.583199 97 80 55 2 2
0.014361 0.562387 -0.583795 106 87 54 2 2
-0.035153 0.906761 -0.148920 132 127 109 1 1
-0.031595 0.915311 -0.163325 133 129 115 1 1
-0.059842 0.921246 -0.148798 132 128 101 1 1
0.034861 0.471152 -0.586246 166 139 99 2 2
0.021678 0.484397 -0.587325 70 58 49 2 2
0.006048 0.449976 -0.588012 160 136 92 2 2
0.216527 0.881316 -0.219707 83 79 83 1 1
0.065813 0.560631 -0.352162 31 25 22 5 4
-0.024102 0.660458 -0.356550 48 40 27 5 4
-0.034391 0.655869 -0.355207 117 105 83 5 4
-0.024692 0.662063 -0.345055 163 150 113 5 4
-0.004512 0.664097 -0.342377 165 152 119 5 4
-0.024158 0.647794 -0.347552 127 113 90 5 4
-0.036484 0.661640 -0.342108 158 146 115 5 4
0.344005 0.866963 -0.161407 146 159 144 1 1
0.400990 0.363741 -0.604884 211 190 160 2 2
0.420002 0.370787 -0.604654 195 172 146 2 2
0.431195 0.352077 -0.596989 192 174 145 2 2
0.937662 0.360985 -0.201923 70 81 126 0 0
0.938166 0.375669 -0.209130 58 66 99 0 0
0.044489 0.399507 -0.588057 132 122 93 2 2
0.069610 0.257774 -0.183369 91 73 59 5 4
0.084933 0.259003 -0.191472 109 96 82 5 4
0.077903 0.259297 -0.177795 152 132 110 5 4
0.227055 0.337746 -0.598123 153 137 109 2 2
0.236418 0.368206 -0.596401 158 141 115 2 2
0.428804 0.874395 -0.148697 200 187 177 1 1
0.266417 0.431218 -0.597564 202 188 159 2 2
0.215815 0.427745 -0.594324 173 154 127 2 2
0.143489 0.578203 -0.589120 87 63 47 2 2
0.333573 0.866454 -0.220674 133 127 111 1 1
0.172363 0.894815 -0.235916 89 88 80 1 1
0.177682 0.897555 -0.231476 171 165 152 0 0
0.188480 0.890329 -0.240242 90 87 81 1 1
0.199567 0.890213 -0.237064 163 164 148 1 1
0.201345 0.584075 -0.578764 118 105 85 2 2
0.196973 0.589675 -0.578209 48 38 33 2 2
-0.001919 0.469902 -0.587132 156 133 94 2 2
0.080552 0.899466 -0.157102 120 117 104 1 1
0.088144 0.892960 -0.156771 121 126 121 1 1
0.089963 0.575410 -0.431404 43 28 21 5 4
0.083039 0.569884 -0.421580 34 25 18 5 4
0.075373 0.574984 -0.451265 40 28 15 5 4
0.089493 0.581320 -0.442414 41 25 21 5 4
0.082584 0.573781 -0.443363 39 28 18 5 4
0.078452 0.574682 -0.428989 39 28 18 5 4
0.093874 0.581187 -0.425214 39 24 21 5 4
0.058875 0.574303 -0.359499 25 22 18 5 4
0.061438 0.571949 -0.385667 31 27 24 5 4
0.052171 0.577714 -0.371032 34 28 24 5 4
0.054874 0.567265 -0.373099 61 56 52 5 4
0.066041 0.330347 -0.360616 132 112 84 5 4
0.060115 0.341027 -0.360913 103 84 59 5 4
0.273553 0.872234 -0.171836 138 149 140 1 1
0.289146 0.871054 -0.187044 137 148 146 1 1
0.140807 0.468530 -0.592334 138 102 68 2 2
0.137770 0.494343 -0.590104 144 109 73 2 2
0.156023 0.482121 -0.593682 152 114 75 2 2
0.193262 0.902166 -0.185759 171 165 146 0 0
0.190048 0.887985 -0.205542 169 159 149 1 1
0.161226 0.903192 -0.177700 167 160 149 0 0
0.176274 0.890140 -0.188498 171 159 150 1 1
0.104306 0.606815 -0.422384 57 48 38 5 4
0.045799 0.631343 -0.290000 44 30 23 5 4
0.040623 0.616883 -0.298259 32 27 30 5 4
0.047284 0.619156 -0.264585 35 27 25 5 4
0.046650 0.632233 -0.275426 236 230 228 5 4
0.055716 0.260839 -0.362251 46 32 18 5 4
0.482041 0.376527 -0.561951 170 136 99 2 2
0.488868 0.384037 -0.576512 136 119 92 2 2
0.473141 0.374363 -0.556578 171 134 95 2 2
0.483912 0.382563 -0.566749 178 141 104 2 2
0.082604 0.904724 -0.157697 105 105 101 0 0
0.078016 0.923196 -0.153750 169 154 123 1 1
0.088349 0.909905 -0.141443 119 118 115 0 0
0.092278 0.924329 -0.178500 169 149 120 1 1
0.211347 0.857812 -0.289785 53 51 42 1 1
0.207431 0.853923 -0.300279 57 56 47 1 1
0.232343 0.862713 -0.269863 71 69 66 1 1
0.076450 0.587827 -0.308290 117 89 57 5 4
0.056424 0.590072 -0.302958 105 79 50 5 4
0.069148 0.583676 -0.315153 107 80 46 5 4
0.062434 0.589920 -0.312391 47 32 24 5 4
0.071428 0.586967 -0.325220 69 57 41 5 4
0.383525 0.869104 -0.170023 207 208 195 1 1
0.377832 0.870868 -0.156901 144 148 136 1 1
0.364953 0.866590 -0.165006 152 163 151 1 1
0.392668 0.873711 -0.144092 209 214 203 1 1
0.283968 0.869953 -0.222576 121 121 108 1 1
0.275542 0.870825 -0.213214 123 121 116 1 1
0.268852 0.868282 -0.229202 72 75 67 1 1
0.291647 0.869402 -0.208090 127 119 109 1 1
0.265871 0.870695 -0.204264 98 111 107 1 1
0.292461 0.866787 -0.220140 123 124 115 1 1
0.088454 0.275322 -0.607107 72 62 56 2 2
0.093705 0.264089 -0.606817 63 44 44 2 2
0.101670 0.258519 -0.593887 70 56 52 2 2
0.090683 0.299215 -0.595903 84 71 61 2 2
0.105889 0.269403 -0.591982 98 80 69 2 2
0.102946 0.289252 -0.593793 94 81 68 2 2
0.097888 0.272154 -0.594951 73 59 53 2 2
0.081242 0.287976 -0.611670 71 57 54 2 2
0.086637 0.465109 -0.589052 76 56 49 2 2
0.058423 0.596062 -0.340864 22 22 16 5 4
0.058359 0.600172 -0.350727 44 43 36 5 4
0.197483 0.527099 -0.590462 143 132 112 2 2
0.041577 0.666727 -0.356119 222 220 215 5 4
0.050481 0.660189 -0.338271 244 242 238 5 4
0.025847 0.667136 -0.355626 139 142 140 5 4
0.035010 0.668124 -0.365131 138 138 131 5 4
0.036053 0.660498 -0.333974 230 233 231 5 4
0.086695 0.459779 -0.370944 234 196 148 5 4
0.074729 0.472862 -0.366116 245 229 208 5 4
0.095840 0.482019 -0.380415 233 195 146 5 4
0.083654 0.477681 -0.370864 229 197 156 5 4
0.058329 0.589186 -0.286620 85 61 35 5 4
0.080101 0.588234 -0.298589 108 81 59 5 4
0.097741 0.592677 -0.283837 111 82 61 5 4
0.080867 0.589763 -0.276384 64 43 30 5 4
0.080814 0.594094 -0.269399 41 26 22 5 4
0.098698 0.599718 -0.333453 122 93 57 5 4
0.123101 0.675676 -0.497405 140 139 129 0 0
0.136478 0.679806 -0.518436 69 51 36 0 0
0.132695 0.681199 -0.498121 47 32 28 0 0
0.049097 0.617491 -0.226020 30 24 18 5 4
0.051498 0.629807 -0.236051 25 24 18 5 4
0.040031 0.640076 -0.229199 41 38 39 5 4
0.427362 0.299579 -0.609953 175 158 135 2 2
0.435464 0.302820 -0.612811 159 141 124 2 2
0.360483 0.433040 -0.600706 187 171 149 2 2
0.338045 0.462286 -0.599827 187 169 144 2 2
0.322983 0.456007 -0.599001 196 179 157 2 2
0.944782 0.365424 -0.202752 45 50 74 0 0
0.224098 0.878193 -0.251040 67 64 58 1 1
0.228769 0.868247 -0.261949 70 67 64 1 1
0.081616 0.648369 -0.386532 253 253 251 5 4
0.058680 0.616183 -0.363503 43 39 34 5 4
0.050802 0.637619 -0.365048 82 79 75 5 4
0.061361 0.625874 -0.372666 251 250 248 5 4
0.067720 0.640498 -0.380650 243 243 240 5 4
0.070816 0.632822 -0.391094 254 253 249 5 4
0.048332 0.669931 -0.367622 96 95 87 5 4
0.077460 0.654769 -0.382087 43 44 43 5 4
0.063152 0.649112 -0.376598 43 40 35 5 4
0.072465 0.665127 -0.381936 60 58 53 5 4
0.170280 0.925766 -0.184124 163 152 126 1 1
0.043229 0.607986 -0.327909 39 37 32 5 4
0.044510 0.608593 -0.341616 85 85 82 5 4
0.048381 0.626665 -0.357846 36 31 27 5 4
0.031894 0.639290 -0.356870 55 54 52 5 4
0.061051 0.456245 -0.586933 79 55 40 2 2
0.127270 0.902035 -0.210206 153 151 135 0 0
0.133844 0.893455 -0.205366 151 144 139 1 1
0.103949 0.902997 -0.203142 152 148 136 0 0
0.115841 0.895467 -0.219959 149 147 137 1 1
0.129533 0.894450 -0.228516 152 150 139 1 1
0.128019 0.900463 -0.231978 154 154 140 0 0
0.116035 0.899736 -0.225350 143 147 131 0 0
0.104235 0.900287 -0.229888 143 141 135 0 0
0.100294 0.897336 -0.232081 134 139 128 1 1
0.104391 0.894633 -0.204274 140 141 131 1 1
0.111867 0.308497 -0.589814 97 83 65 2 2
0.081949 0.314630 -0.594207 82 64 52 2 2
0.055990 0.496313 -0.371434 54 51 38 5 4
0.066835 0.497764 -0.388928 126 103 80 5 4
0.065239 0.489888 -0.362791 220 221 217 5 4
0.056727 0.506958 -0.379917 78 71 58 5 4
0.058756 0.490503 -0.378971 60 42 27 5 4
-0.032012 0.493445 -0.588132 158 131 99 2 2
0.024477 0.443746 -0.588978 162 135 100 2 2
0.031285 0.428345 -0.588550 106 96 81 2 2
0.099465 0.597264 -0.270377 90 73 55 5 4
0.076914 0.315503 -0.366837 161 135 107 5 4
0.050797 0.301185 -0.375894 38 24 7 5 4
0.057321 0.309709 -0.384111 41 29 9 5 4
0.051991 0.296323 -0.369157 43 29 20 5 4
0.062444 0.312421 -0.389328 113 91 66 5 4
0.050130 0.321191 -0.374558 137 111 80 5 4
0.146089 0.496855 -0.591390 149 112 80 2 2
0.397489 0.876662 -0.159819 205 209 199 1 1
0.118807 0.259439 -0.595696 82 67 57 2 2
0.133089 0.262970 -0.596869 99 72 53 2 2
0.132172 0.274941 -0.593866 98 78 58 2 2
0.117605 0.278225 -0.594107 92 74 65 2 2
0.053572 0.596463 -0.322907 24 19 19 5 4
0.045923 0.610742 -0.309986 17 18 18 5 4
0.050054 0.596543 -0.310746 24 20 18 5 4
0.125586 0.625187 -0.561278 110 99 80 2 2
0.131282 0.619642 -0.569891 108 95 78 2 2
0.234334 0.872597 -0.201661 89 91 92 1 1
0.215421 0.881089 -0.198819 99 107 94 1 1
0.224890 0.878763 -0.182418 92 98 91 1 1
0.524511 0.301747 -0.601814 145 137 112 2 2
0.512871 0.300942 -0.594017 172 164 136 7 7
0.513117 0.317652 -0.595625 171 161 127 2 2
0.057386 0.596194 -0.361257 189 185 177 5 4
0.054637 0.578579 -0.380392 181 175 165 5 4
0.165798 0.408618 -0.594515 130 91 62 2 2
0.159595 0.388176 -0.594732 137 97 66 2 2
0.139551 0.392165 -0.592882 119 88 60 2 2
0.064179 0.426465 -0.358645 218 186 151 5 4
0.450186 0.307428 -0.586750 138 121 101 0 0
0.436505 0.291014 -0.605330 153 140 114 0 0
0.457857 0.310981 -0.589312 147 128 108 0 0
0.441099 0.304224 -0.607046 187 173 147 0 0
0.443970 0.303322 -0.598103 141 126 110 0 0
0.295392 0.430184 -0.598964 206 190 160 2 2
0.049129 0.464543 -0.585982 100 80 61 2 2
0.498784 0.313033 -0.577840 172 154 130 7 7
0.501036 0.323210 -0.584918 178 160 132 2 2
0.503248 0.302600 -0.580660 165 154 123 0 0
0.053933 0.423848 -0.588845 94 71 51 2 2
0.066712 0.389362 -0.589910 76 53 38 2 2
-0.045181 0.922520 -0.198220 128 121 96 1 1
-0.048932 0.919437 -0.164908 135 129 114 1 1
0.084002 0.290297 -0.372110 203 175 148 5 4
0.151500 0.924312 -0.180214 162 151 126 1 1
0.141944 0.925095 -0.198705 164 151 122 1 1
0.010400 0.581680 -0.584470 141 116 84 2 2
0.006837 0.598558 -0.585058 139 113 79 2 2
-0.005758 0.584795 -0.584686 142 116 80 2 2
0.312785 0.866422 -0.235299 119 113 98 1 1
0.124510 0.646664 -0.522404 200 174 150 2 2
0.165512 0.513340 -0.591354 155 117 82 2 2
0.186133 0.518602 -0.590086 125 112 95 2 2
0.067571 0.416497 -0.360673 230 199 160 5 4
0.063403 0.393576 -0.358735 216 187 153 5 4
0.059710 0.400909 -0.359743 100 77 59 5 4
-0.003472 0.647301 -0.353700 117 110 99 5 4
-0.005470 0.657114 -0.358057 116 100 78 5 4
-0.013992 0.655958 -0.334301 117 110 96 5 4
0.022416 0.663944 -0.345805 182 179 167 5 4
-0.003547 0.640806 -0.345140 172 172 167 5 4
0.015109 0.665444 -0.361187 73 64 47 5 4
0.069273 0.306670 -0.612196 54 39 28 2 2
0.066065 0.317023 -0.610705 52 36 28 2 2
0.057235 0.319033 -0.598043 86 63 48 2 2
0.062163 0.290647 -0.610873 52 30 22 2 2
0.053003 0.324783 -0.611495 52 30 16 2 2
0.053191 0.311766 -0.612201 55 30 22 2 2
0.050616 0.324285 -0.594831 162 138 106 2 2
0.070497 0.311858 -0.604050 78 54 43 2 2
0.085508 0.300349 -0.598617 87 69 53 2 2
0.251220 0.844936 -0.289219 77 75 70 1 1
0.221278 0.882307 -0.160248 106 112 104 1 1
0.233145 0.877088 -0.149981 103 110 105 1 1
0.221757 0.880490 -0.144194 104 109 100 1 1
0.026307 0.649765 -0.364869 146 134 122 5 4
0.010758 0.656461 -0.364990 171 161 141 5 4
0.020615 0.663414 -0.367785 131 125 109 5 4
0.465477 0.399475 -0.594259 179 138 95 2 2
0.491684 0.409361 -0.596011 49 41 19 2 2
0.472983 0.419014 -0.593911 41 33 18 2 2
0.485732 0.394411 -0.586701 155 135 105 2 2
0.104128 0.617872 -0.481607 79 71 54 5 4
0.103921 0.627619 -0.496720 97 80 60 5 4
0.070061 0.925166 -0.217802 166 149 119 1 1
0.047635 0.643080 -0.265409 92 65 48 5 4
0.037500 0.646392 -0.247515 91 79 65 5 4
0.049144 0.631758 -0.250809 62 53 41 5 4
0.054734 0.617873 -0.237200 26 23 16 5 4
0.323224 0.303394 -0.604053 190 175 142 2 2
0.081199 0.645042 -0.441328 243 242 231 0 0
0.072101 0.627817 -0.447874 249 248 240 5 4
0.068591 0.635960 -0.428499 249 248 240 5 4
0.089766 0.644339 -0.460122 255 253 251 0 0
0.076653 0.636527 -0.445514 254 253 255 0 0
0.066330 0.620208 -0.430362 250 248 243 5 4
0.037735 0.924433 -0.154750 151 141 107 1 1
0.054749 0.924005 -0.153500 152 142 109 1 1
0.063948 0.387770 -0.389790 48 31 17 5 4
0.051781 0.366134 -0.375177 154 128 104 5 4
0.047243 0.384268 -0.372882 156 131 105 5 4
0.072826 0.392183 -0.361809 153 129 98 5 4
0.192108 0.274753 -0.599748 130 115 85 2 2
0.189230 0.296730 -0.598660 134 120 91 2 2
0.278491 0.528285 -0.594317 190 169 147 2 2
0.259034 0.524513 -0.593313 185 166 143 2 2
0.235916 0.873851 -0.220316 77 73 75 1 1
0.207536 0.459378 -0.592999 180 165 140 2 2
0.216725 0.504401 -0.593228 163 149 126 2 2
0.200682 0.510618 -0.591974 151 138 116 2 2
0.207023 0.487987 -0.593313 175 161 140 2 2
0.131854 0.654611 -0.540700 184 161 137 2 2
0.140225 0.652285 -0.534671 133 115 98 2 2
0.290792 0.365434 -0.601629 192 166 134 2 2
0.289563 0.345437 -0.602169 188 165 134 2 2
0.118776 0.293618 -0.591383 105 79 58 2 2
0.126320 0.309514 -0.591273 100 77 50 2 2
-0.013589 0.399714 -0.585855 144 115 78 2 2
-0.025405 0.372540 -0.589714 142 114 82 2 2
-0.008232 0.377384 -0.586636 142 117 87 2 2
0.294082 0.847720 -0.268954 96 96 86 1 1
0.237174 0.504290 -0.593080 181 164 138 2 2
0.254482 0.514391 -0.593972 188 165 137 2 2
0.248789 0.474124 -0.594326 203 184 161 2 2
0.034926 0.630560 -0.304044 124 100 74 5 4
0.029992 0.621346 -0.309032 128 102 78 5 4
0.027057 0.635061 -0.308673 114 113 106 5 4
-0.021568 0.909833 -0.141477 130 126 110 1 1
-0.006255 0.922464 -0.159250 140 129 95 1 1
-0.014390 0.920881 -0.177956 139 130 98 1 1
-0.025846 0.906118 -0.163031 132 131 111 1 1
-0.020313 0.914636 -0.164653 131 132 115 1 1
-0.023843 0.914075 -0.172763 133 132 109 1 1
0.080468 0.640750 -0.486078 214 188 152 0 0
0.086103 0.633963 -0.521116 84 73 61 5 4
0.085026 0.639844 -0.518805 98 86 74 5 4
0.074264 0.624281 -0.492883 214 180 133 5 4
0.080425 0.625632 -0.510919 153 123 94 5 4
0.081077 0.613607 -0.502705 144 118 90 5 4
0.099936 0.590153 -0.577646 75 62 48 2 2
0.114047 0.584610 -0.584919 62 49 38 2 2
0.124339 0.614466 -0.577071 72 57 40 2 2
0.111039 0.600816 -0.577809 84 69 52 2 2
0.093947 0.603106 -0.574829 81 63 50 2 2
0.086962 0.607849 -0.568599 68 52 33 2 2
0.080186 0.577428 -0.579886 66 46 38 2 2
0.095118 0.574121 -0.583742 66 52 44 2 2
0.066328 0.574223 -0.581894 74 56 39 2 2
0.009385 0.373319 -0.587544 148 121 91 2 2
0.096768 0.658170 -0.337714 114 95 70 5 4
0.095279 0.654845 -0.322228 99 83 64 5 4
0.102109 0.658328 -0.311990 135 115 98 5 4
0.285501 0.874822 -0.136158 151 164 150 1 1
0.319258 0.870465 -0.150951 147 163 151 1 1
0.322506 0.866997 -0.164404 146 150 142 1 1
0.298305 0.868354 -0.164900 148 164 158 1 1
0.258177 0.451892 -0.596529 206 185 162 2 2
0.245558 0.413325 -0.595735 198 179 157 2 2
0.228834 0.461951 -0.592456 199 177 151 2 2
0.048779 0.648931 -0.266239 196 190 184 5 4
0.021207 0.621509 -0.325669 234 235 232 5 4
0.002953 0.631911 -0.321749 169 158 153 5 4
-0.008183 0.637147 -0.320606 198 187 177 5 4
0.026363 0.622935 -0.319755 93 71 53 5 4
0.019386 0.638742 -0.315500 132 109 91 5 4
-0.011913 0.642078 -0.320895 189 179 159 5 4
-0.027695 0.643074 -0.321295 187 178 156 5 4
0.212880 0.383347 -0.595279 154 135 106 2 2
0.189986 0.384404 -0.597105 142 126 100 2 2
0.033834 0.612180 -0.582397 75 60 44 2 2
0.048613 0.278599 -0.379524 108 85 63 5 4
0.068712 0.290694 -0.363072 194 164 136 5 4
0.085176 0.268449 -0.371951 201 174 140 5 4
0.060207 0.282357 -0.389141 104 82 67 5 4
0.061615 0.261486 -0.388217 77 62 42 5 4
0.124361 0.904746 -0.175400 136 143 128 0 0
0.112144 0.896629 -0.197419 145 144 133 1 1
0.114232 0.899630 -0.197686 143 144 134 0 0
0.110649 0.902370 -0.191752 138 139 134 0 0
0.134255 0.902349 -0.183492 146 148 135 0 0
0.127046 0.896048 -0.192419 147 146 138 1 1
0.144402 0.894162 -0.196648 154 152 139 1 1
0.137007 0.899847 -0.197021 152 152 140 0 0
0.502581 0.292774 -0.548592 31 25 21 7 7
0.380059 0.294456 -0.606191 178 169 148 2 2
0.201202 0.927863 -0.172520 175 157 131 1 1
0.181514 0.452262 -0.593780 122 110 95 2 2
0.191815 0.444213 -0.592761 152 137 119 2 2
0.149418 0.596549 -0.582239 53 44 40 2 2
0.188632 0.596845 -0.570982 70 59 57 2 2
0.184123 0.595449 -0.582710 66 56 53 2 2
0.091996 0.421575 -0.590656 86 70 62 2 2
0.080988 0.418771 -0.589592 85 67 51 2 2
0.303946 0.398385 -0.598999 206 183 152 2 2
0.327582 0.384561 -0.603256 173 151 124 2 2
0.078272 0.583006 -0.430481 33 25 24 5 4
0.073680 0.592677 -0.457499 68 58 45 5 4
0.067218 0.612059 -0.441027 43 37 29 5 4
0.065743 0.606408 -0.449820 43 37 29 5 4
0.072351 0.586847 -0.433581 37 31 24 5 4
0.067794 0.603847 -0.416683 226 227 225 5 4
0.037883 0.351230 -0.589628 156 132 96 2 2
0.012581 0.334668 -0.593646 160 141 111 2 2
0.020964 0.343551 -0.593619 157 131 99 2 2
0.036553 0.330634 -0.594995 158 139 109 2 2
0.312556 0.908419 -0.161830 176 180 168 0 0
0.059971 0.257208 -0.152957 61 48 37 5 4
0.061088 0.320114 -0.360626 127 109 87 5 4
0.494671 0.395399 -0.591575 159 144 118 2 2
0.103652 0.893185 -0.155730 129 138 128 1 1
0.126889 0.893297 -0.171952 139 142 131 1 1
0.140374 0.904226 -0.164157 138 143 129 0 0
-0.031360 0.634115 -0.318879 189 179 162 5 4
-0.018844 0.623971 -0.328436 86 82 69 5 4
-0.032508 0.619557 -0.331982 72 66 51 5 4
-0.040648 0.619852 -0.324580 168 161 139 5 4
0.216838 0.883083 -0.242453 75 73 70 1 1
0.098471 0.605160 -0.446885 124 107 81 5 4
0.104219 0.593659 -0.420684 92 78 62 5 4
0.091269 0.590298 -0.431969 37 27 20 5 4
0.102908 0.612995 -0.461741 122 106 81 5 4
0.093477 0.605294 -0.461409 75 61 49 5 4
0.103866 0.611824 -0.433912 86 69 53 5 4
0.059955 0.611266 -0.232284 17 19 11 5 4
0.089100 0.598308 -0.505857 76 57 43 5 4
0.091067 0.611772 -0.512967 92 79 67 5 4
0.286423 0.863380 -0.240692 101 105 93 1 1
0.270371 0.866199 -0.249929 65 69 61 1 1
0.280627 0.858901 -0.255413 86 88 80 1 1
0.299996 0.859383 -0.254583 105 94 89 1 1
0.084234 0.608473 -0.519037 65 46 32 5 4
0.082360 0.603030 -0.515113 48 37 25 5 4
0.078309 0.597500 -0.498715 48 33 20 5 4
0.088927 0.591071 -0.497494 41 25 13 5 4
0.081095 0.580820 -0.485752 47 28 13 5 4
0.076820 0.580374 -0.471788 41 28 14 5 4
0.082075 0.576582 -0.471310 79 59 39 5 4
0.091906 0.582263 -0.458825 40 27 9 5 4
0.081499 0.418069 -0.367623 220 185 137 5 4
0.083412 0.394711 -0.369157 218 184 135 5 4
0.085411 0.427529 -0.371280 227 190 148 5 4
0.087045 0.445560 -0.371276 228 192 148 5 4
0.072343 0.446265 -0.362757 235 196 150 5 4
0.389639 0.478057 -0.600401 171 153 130 2 2
0.076134 0.591235 -0.573487 87 59 42 2 2
0.063648 0.601105 -0.579380 75 57 40 2 2
0.079805 0.606744 -0.563693 106 90 68 2 2
0.084942 0.592391 -0.571736 74 58 45 2 2
0.044454 0.283895 -0.369764 144 118 88 5 4
0.040757 0.271902 -0.370733 120 96 74 5 4
0.046663 0.264570 -0.376030 123 101 74 5 4
0.042909 0.263130 -0.369704 52 36 21 5 4
0.052321 0.280706 -0.365629 53 35 20 5 4
0.317577 0.517216 -0.596521 185 163 137 2 2
0.251789 0.841863 -0.297342 58 54 52 1 1
0.200620 0.365828 -0.597025 139 124 98 2 2
0.201299 0.344133 -0.597726 157 136 107 2 2
0.155153 0.564886 -0.589093 67 57 40 2 2
0.052216 0.511378 -0.585412 108 95 70 2 2
0.063751 0.495071 -0.587361 96 78 62 2 2
0.151139 0.407459 -0.591755 136 97 66 2 2
0.109258 0.655404 -0.437248 151 147 140 0 0
0.096575 0.649061 -0.420537 124 125 117 0 0
0.092195 0.649032 -0.448642 253 253 253 0 0
0.104288 0.652656 -0.444250 249 248 241 0 0
0.213981 0.903791 -0.192858 134 136 121 0 0
0.202540 0.903262 -0.207918 55 50 45 0 0
0.191719 0.901796 -0.222831 53 52 51 0 0
0.204769 0.883828 -0.207394 38 35 27 1 1
0.211896 0.882937 -0.223768 71 70 62 1 1
0.029376 0.922193 -0.189750 161 145 111 1 1
0.043721 0.924734 -0.172750 165 146 112 1 1
0.206244 0.314062 -0.599588 159 144 113 2 2
0.182296 0.335561 -0.595932 147 131 103 2 2
-0.011722 0.515470 -0.585101 157 130 98 2 2
-0.004100 0.505766 -0.585134 162 130 95 2 2
0.263196 0.911114 -0.176693 114 126 116 0 0
0.290359 0.908388 -0.167566 114 126 116 0 0
-0.032666 0.916961 -0.181950 135 135 111 1 1
-0.018028 0.920863 -0.193801 143 133 103 1 1
-0.027622 0.918516 -0.198090 139 136 114 1 1
0.135695 0.350303 -0.592896 109 82 58 2 2
0.129135 0.328385 -0.592509 116 93 63 2 2
0.105557 0.340051 -0.591870 88 70 60 2 2
0.072852 0.457512 -0.586441 87 65 50 2 2
0.080526 0.436797 -0.588823 76 62 54 2 2
0.295769 0.326496 -0.602729 186 170 141 2 2
-0.022509 0.922451 -0.211748 137 132 100 1 1
0.041840 0.923151 -0.204750 161 145 112 1 1
0.299228 0.540164 -0.593868 197 177 151 2 2
0.088405 0.585832 -0.484976 35 26 10 5 4
0.090039 0.601733 -0.488870 35 26 15 5 4
0.079175 0.591137 -0.485802 39 26 14 5 4
0.074603 0.597490 -0.483306 36 29 18 5 4
0.073940 0.606286 -0.482303 58 43 27 5 4
0.073221 0.594261 -0.466585 38 28 12 5 4
0.088440 0.589933 -0.472665 37 29 24 5 4
0.089944 0.597259 -0.450713 37 29 24 5 4
0.090058 0.604410 -0.478274 37 28 19 5 4
0.032973 0.544772 -0.584295 120 101 75 2 2
0.014131 0.523414 -0.582662 146 119 90 2 2
0.266095 0.928076 -0.147382 190 178 150 1 1
0.462417 0.373552 -0.576920 166 131 92 2 2
0.461011 0.365845 -0.553548 166 131 92 2 2
0.444370 0.355853 -0.563430 170 133 92 2 2
0.439608 0.358870 -0.577569 175 141 97 2 2
0.079693 0.644538 -0.425781 238 227 216 0 0
0.071070 0.635476 -0.416963 241 234 224 5 4
0.081470 0.643321 -0.402312 254 254 248 0 0
0.064031 0.623119 -0.419493 240 239 226 5 4
0.065974 0.618182 -0.409448 237 226 213 5 4
0.345571 0.444619 -0.599866 211 191 161 2 2
0.318336 0.415417 -0.600702 205 187 158 2 2
0.011896 0.921260 -0.204750 151 137 104 1 1
0.573410 0.301333 -0.610536 194 174 150 2 2
0.561346 0.285302 -0.612008 187 168 152 2 2
0.087211 0.490721 -0.588158 76 63 52 2 2
0.074514 0.480504 -0.586929 82 66 54 2 2
0.063224 0.523411 -0.586531 80 59 46 2 2
0.101969 0.558321 -0.382835 253 254 251 5 4
0.103953 0.589703 -0.374022 241 240 235 5 4
0.096353 0.572253 -0.370618 252 251 248 5 4
0.255665 0.380923 -0.598298 180 160 126 2 2
0.276423 0.382538 -0.598971 186 164 135 2 2
0.262578 0.405446 -0.597136 181 162 136 2 2
0.219953 0.578618 -0.587709 156 140 118 2 2
0.195656 0.560042 -0.586356 105 93 88 2 2
0.441935 0.430311 -0.603813 191 151 101 2 2
0.065580 0.367410 -0.359419 160 134 105 5 4
0.061108 0.376004 -0.360417 105 84 61 5 4
0.390576 0.385814 -0.604040 204 179 152 2 2
0.400395 0.424488 -0.601433 204 179 152 2 2
0.387669 0.411098 -0.602318 182 161 140 2 2
0.263524 0.872841 -0.142298 136 152 145 1 1
0.237650 0.873328 -0.160946 120 133 129 1 1
0.260647 0.871738 -0.173381 127 138 135 1 1
0.051383 0.567171 -0.583921 80 54 42 2 2
0.048619 0.544694 -0.583465 78 48 38 2 2
0.036911 0.577257 -0.585964 66 53 46 2 2
0.085158 0.660107 -0.306482 250 248 246 5 4
0.066344 0.658235 -0.296688 252 251 249 5 4
0.087330 0.658905 -0.330928 181 154 123 5 4
0.083261 0.664426 -0.295803 243 240 237 5 4
0.069680 0.660488 -0.316274 213 194 172 5 4
0.053814 0.655316 -0.307060 253 251 248 5 4
0.082415 0.319521 -0.370398 215 174 130 5 4
0.272735 0.465906 -0.595998 198 185 161 2 2
0.078163 0.925232 -0.190500 168 150 120 1 1
0.306151 0.348876 -0.601401 191 170 137 2 2
0.304110 0.373262 -0.601144 184 160 132 2 2
0.326770 0.351170 -0.603734 176 163 132 2 2
0.305335 0.848826 -0.270142 117 100 77 1 1
0.094159 0.574488 -0.342115 208 202 192 5 4
0.335868 0.492677 -0.597572 176 156 135 2 2
0.352740 0.474357 -0.598639 207 188 162 2 2
0.098800 0.654585 -0.496878 251 249 245 0 0
0.105050 0.657219 -0.460840 250 252 249 0 0
0.094602 0.651966 -0.475364 254 253 249 0 0
0.115775 0.665660 -0.474288 150 147 134 0 0
0.161486 0.891030 -0.203616 159 158 146 1 1
0.155533 0.901134 -0.196488 164 160 139 0 0
0.148428 0.890777 -0.172137 148 150 138 1 1
0.172670 0.900290 -0.189564 160 156 140 0 0
0.158027 0.892530 -0.186580 161 158 135 1 1
0.156389 0.902143 -0.205798 157 153 139 0 0
0.052847 0.294744 -0.611793 54 31 26 2 2
0.085979 0.267532 -0.611380 62 44 37 2 2
0.073170 0.280600 -0.609807 53 39 31 2 2
0.058442 0.268356 -0.599631 53 39 31 2 2
-0.011505 0.534349 -0.583599 140 114 80 2 2
0.494532 0.358801 -0.599544 161 144 118 2 2
0.488029 0.381431 -0.590692 163 146 121 2 2
0.492690 0.375975 -0.599786 177 160 134 2 2
0.125122 0.580057 -0.588174 72 54 41 2 2
0.103745 0.565042 -0.586926 72 58 48 2 2
0.239341 0.870987 -0.186850 118 125 124 1 1
0.241218 0.872947 -0.171523 100 117 108 1 1
0.222421 0.560244 -0.589987 160 144 117 2 2
0.259538 0.546553 -0.592558 180 160 136 2 2
0.074464 0.658225 -0.331978 202 169 136 5 4
0.088112 0.260589 -0.208285 147 131 115 5 4
0.091009 0.261453 -0.226537 133 120 103 5 4
0.227913 0.904857 -0.186695 65 64 54 0 0
0.225744 0.906366 -0.175043 127 139 129 0 0
0.206553 0.886096 -0.188961 94 91 81 1 1
0.188318 0.887725 -0.188221 93 93 78 1 1
0.042797 0.612238 -0.283950 24 26 23 5 4
0.047500 0.600815 -0.294918 24 25 28 5 4
0.062351 0.589285 -0.276829 29 19 12 5 4
0.046776 0.604898 -0.277457 28 24 20 5 4
0.084916 0.562059 -0.584848 85 68 57 2 2
0.067525 0.612156 -0.464575 252 250 246 5 4
0.074428 0.632680 -0.463789 253 251 249 0 0
0.081762 0.640639 -0.469692 252 250 246 0 0
0.071542 0.594522 -0.254353 40 30 15 5 4
0.070901 0.604867 -0.237399 27 24 17 5 4
0.076536 0.599650 -0.242646 29 25 17 5 4
0.062518 0.600017 -0.246315 25 23 15 5 4
0.061327 0.608334 -0.242499 25 22 18 5 4
0.086680 0.596633 -0.257363 36 28 20 5 4
0.121234 0.361997 -0.592595 83 62 47 2 2
0.114224 0.379762 -0.590704 103 81 63 2 2
0.129366 0.375539 -0.591812 109 82 55 2 2
0.090058 0.552295 -0.410118 54 50 41 5 4
0.082730 0.536057 -0.403282 58 37 29 5 4
0.075482 0.522596 -0.397571 57 38 24 5 4
0.065683 0.529266 -0.391605 58 44 22 5 4
0.076155 0.543246 -0.402714 88 81 71 5 4
0.087630 0.556560 -0.368097 173 168 167 5 4
0.000896 0.606545 -0.586489 173 145 106 2 2
0.020235 0.617944 -0.582642 178 148 107 2 2
0.268315 0.336010 -0.601634 188 169 142 2 2
0.253392 0.340802 -0.599506 175 153 122 2 2
0.038136 0.656677 -0.373917 33 26 23 5 4
0.027789 0.655506 -0.372111 47 37 35 5 4
0.061190 0.658129 -0.382744 29 26 21 5 4
0.055903 0.662139 -0.380394 71 66 57 5 4
0.037748 0.664501 -0.376628 42 35 32 5 4
0.099657 0.542060 -0.379843 255 252 246 5 4
0.105384 0.651920 -0.528411 149 138 118 0 0
0.118838 0.641502 -0.527868 114 104 88 2 2
0.093390 0.622374 -0.570359 67 51 38 2 2
0.095164 0.635130 -0.559523 83 65 51 2 2
0.095102 0.641532 -0.560248 85 67 52 2 2
0.122300 0.639967 -0.544930 119 108 88 2 2
0.095275 0.539773 -0.587953 88 70 57 2 2
0.080137 0.518256 -0.588374 77 61 50 2 2
0.076314 0.549755 -0.585830 74 59 48 2 2
0.373450 0.439166 -0.601756 215 197 172 2 2
0.378424 0.469774 -0.600361 198 181 154 2 2
0.139704 0.519910 -0.590759 112 88 62 2 2
0.132383 0.559198 -0.590212 126 91 61 2 2
0.271227 0.301276 -0.601995 165 148 119 2 2
0.244820 0.281999 -0.600769 136 119 95 2 2
-0.016426 0.621088 -0.337061 61 56 47 5 4
-0.012074 0.625344 -0.341656 44 43 39 5 4
-0.014864 0.642338 -0.347822 49 48 41 5 4
0.078287 0.326984 -0.590793 90 62 57 2 2
0.071437 0.348966 -0.589138 84 59 45 2 2
0.066234 0.327707 -0.592301 89 62 46 2 2
0.055619 0.338728 -0.590457 112 84 62 2 2
0.453315 0.392167 -0.594921 183 141 98 2 2
0.453516 0.418951 -0.595926 188 144 98 2 2
0.430049 0.382273 -0.599359 216 195 167 2 2
0.435008 0.394823 -0.594604 217 198 164 2 2
0.439489 0.411389 -0.596110 188 144 101 2 2
0.069433 0.530005 -0.361397 227 224 222 5 4
0.063754 0.474238 -0.386579 73 49 31 5 4
0.056702 0.471459 -0.379267 149 123 94 5 4
0.066585 0.466576 -0.366918 45 29 12 5 4
0.057316 0.457634 -0.376182 43 26 13 5 4
0.056166 0.480130 -0.371416 58 34 21 5 4
0.061842 0.453870 -0.385020 117 93 71 5 4
0.972511 0.342343 -0.176321 63 65 104 0 0
0.964437 0.341830 -0.192807 40 51 85 0 0
0.948090 0.355651 -0.201053 61 75 111 0 0
0.952460 0.331441 -0.203282 57 80 121 0 0
0.950947 0.339349 -0.198638 60 78 117 0 0
0.967375 0.332490 -0.198578 43 56 99 0 0
0.960939 0.346751 -0.185232 38 48 81 0 0
0.958956 0.358527 -0.189966 30 31 50 0 0
0.968460 0.352531 -0.182430 23 25 42 0 0
0.204486 0.885751 -0.154802 171 167 151 1 1
0.211428 0.906226 -0.156592 141 149 135 0 0
0.217590 0.880345 -0.174498 122 120 109 1 1
0.198305 0.904726 -0.169613 171 172 154 0 0
0.306968 0.866810 -0.181341 137 148 140 1 1
0.299164 0.868917 -0.192776 147 156 150 1 1
-0.033874 0.922901 -0.213792 136 128 102 1 1
-0.057324 0.921338 -0.219250 131 124 94 1 1
0.180552 0.927105 -0.143698 167 157 128 1 1
0.171977 0.926513 -0.159750 169 157 129 1 1
0.170005 0.926074 -0.149750 168 157 128 1 1
0.102864 0.478678 -0.588264 105 79 64 2 2
0.117551 0.490843 -0.589897 108 86 67 2 2
0.093248 0.649768 -0.516745 139 127 111 5 4
0.107495 0.638169 -0.496727 159 143 124 5 4
0.123138 0.640607 -0.506394 201 173 150 5 4
0.113048 0.643187 -0.513012 201 173 150 0 0
0.111995 0.629091 -0.494359 114 102 84 5 4
0.102346 0.642175 -0.504488 127 118 99 5 4
0.094276 0.639209 -0.521796 95 86 68 5 4
0.088581 0.619481 -0.514442 91 80 68 5 4
0.099490 0.652158 -0.516732 101 91 81 0 0
0.099349 0.614938 -0.495982 83 73 60 5 4
0.121783 0.634528 -0.495634 76 68 57 5 4
0.151415 0.651419 -0.542151 188 164 141 2 2
0.101265 0.381025 -0.591427 68 51 40 2 2
0.007172 0.355262 -0.595673 156 131 101 2 2
0.273588 0.868032 -0.236915 56 58 53 1 1
0.236521 0.869888 -0.250188 70 69 66 1 1
0.237247 0.871602 -0.237815 80 91 84 1 1
0.257785 0.869412 -0.259693 59 60 60 1 1
0.237207 0.904979 -0.201745 107 113 107 0 0
0.072623 0.555793 -0.353912 27 25 21 5 4
0.074814 0.568096 -0.343360 23 17 14 5 4
0.062116 0.575527 -0.350768 34 27 22 5 4
0.063972 0.588054 -0.341841 30 24 20 5 4
0.083344 0.570369 -0.340908 31 25 20 5 4
0.091598 0.575281 -0.356185 48 42 39 5 4
0.079451 0.566512 -0.347329 48 42 38 5 4
0.086051 0.586945 -0.343497 44 36 31 5 4
0.170587 0.332777 -0.594011 120 85 56 2 2
0.178725 0.313878 -0.595085 81 60 37 2 2
0.153554 0.307324 -0.593663 105 82 60 2 2
0.151844 0.315369 -0.592707 124 90 57 2 2
0.296165 0.511575 -0.596002 192 170 146 2 2
0.347418 0.867258 -0.174117 137 142 127 1 1
0.331654 0.867932 -0.186252 132 138 126 1 1
0.180065 0.419073 -0.593569 86 64 47 2 2
0.201399 0.409928 -0.595903 143 125 103 2 2
0.209164 0.926707 -0.155059 174 156 131 1 1
0.219247 0.925803 -0.145496 176 161 134 1 1
0.057633 0.658534 -0.332580 239 227 219 5 4
0.032948 0.653285 -0.323003 242 241 238 5 4
0.041334 0.643267 -0.305996 217 198 180 5 4
0.042030 0.651809 -0.319673 241 233 231 5 4
0.027081 0.644914 -0.317360 232 224 222 5 4
0.014840 0.644449 -0.320628 245 244 242 5 4
0.247189 0.306899 -0.599445 149 135 105 2 2
0.415946 0.388644 -0.603588 182 158 140 2 2
0.420931 0.404047 -0.601480 195 173 148 2 2
0.138355 0.606275 -0.582181 55 41 27 2 2
0.253403 0.862259 -0.269698 53 56 55 1 1
0.244686 0.866896 -0.263878 51 54 50 1 1
0.131796 0.923420 -0.163496 169 158 130 1 1
0.143807 0.925512 -0.154379 164 154 124 1 1
0.064066 0.516014 -0.366140 78 76 75 5 4
0.066494 0.546317 -0.362313 42 41 37 5 4
0.060458 0.515426 -0.385533 127 118 101 5 4
0.062744 0.546650 -0.376465 36 30 27 5 4
0.059940 0.521449 -0.372291 39 35 32 5 4
0.094423 0.649319 -0.405423 245 242 234 0 0
0.103497 0.656405 -0.402335 122 118 113 0 0
0.094020 0.652114 -0.389027 186 183 177 0 0
0.112052 0.661947 -0.428389 178 175 169 0 0
0.357877 0.300934 -0.606349 203 192 164 2 2
0.138922 0.899603 -0.217975 157 154 142 0 0
0.154459 0.900776 -0.217385 166 158 140 0 0
0.154070 0.893138 -0.220922 156 157 142 1 1
0.142805 0.897135 -0.232878 158 156 146 1 1
0.139730 0.895169 -0.218027 161 156 137 1 1
0.086304 0.313981 -0.373643 218 176 137 5 4
0.128812 0.594279 -0.586626 59 43 28 2 2
0.520718 0.330799 -0.601617 171 154 126 2 2
0.512845 0.327678 -0.599234 177 164 133 2 2
0.498276 0.333015 -0.593196 184 166 139 2 2
0.504352 0.344133 -0.595271 182 164 134 2 2
0.507159 0.320358 -0.585952 187 168 142 2 2
0.302341 0.296745 -0.604423 181 163 134 2 2
0.283528 0.279480 -0.604287 168 151 126 2 2
0.175877 0.586318 -0.579966 50 42 39 2 2
0.166691 0.583577 -0.578797 54 42 33 2 2
0.181322 0.565513 -0.586006 56 44 38 2 2
0.180372 0.571875 -0.581521 53 41 38 2 2
0.178258 0.582907 -0.569385 75 63 56 2 2
0.102595 0.360447 -0.591090 86 72 60 2 2
0.095009 0.327172 -0.591512 77 59 46 2 2
0.081713 0.366583 -0.590297 75 59 46 2 2
0.061039 0.366577 -0.386376 46 24 8 5 4
0.077232 0.367771 -0.365426 214 180 138 5 4
0.060671 0.330222 -0.387472 51 33 14 5 4
0.055818 0.337359 -0.366823 47 31 10 5 4
0.055614 0.370794 -0.368323 42 31 13 5 4
0.050133 0.343918 -0.372059 43 29 16 5 4
0.057952 0.340530 -0.384604 49 27 4 5 4
0.013215 0.923614 -0.142750 141 132 98 1 1
0.007435 0.922176 -0.170375 151 138 104 1 1
0.153332 0.889263 -0.157539 155 151 137 1 1
0.144371 0.890690 -0.139989 156 157 143 1 1
0.163603 0.905425 -0.149282 151 151 139 0 0
0.179882 0.886969 -0.164957 159 159 147 1 1
0.193377 0.886006 -0.166984 169 163 144 1 1
0.180915 0.904438 -0.172391 169 166 152 0 0
0.069427 0.257390 -0.202741 99 72 50 5 4
0.082000 0.259465 -0.218747 171 157 133 5 4
0.450299 0.288035 -0.577994 168 144 112 7 7
-0.003447 0.650513 -0.328500 196 191 174 5 4
0.011002 0.651726 -0.328961 135 129 114 5 4
0.045245 0.253014 -0.144630 47 35 24 5 4
0.106372 0.925273 -0.193750 170 154 122 1 1
0.128190 0.924008 -0.182719 170 154 126 1 1
0.346302 0.377971 -0.602986 205 184 154 2 2
0.373313 0.385456 -0.602533 202 183 148 2 2
0.351138 0.866702 -0.207610 157 167 154 1 1
0.366378 0.865418 -0.180791 201 206 185 1 1
0.111929 0.907330 -0.154729 129 136 127 0 0
0.099613 0.906534 -0.171473 135 139 138 0 0
0.112738 0.924198 -0.159272 170 155 130 1 1
0.188983 0.474779 -0.593353 142 131 110 2 2
0.180566 0.469318 -0.594658 133 119 100 2 2
0.178247 0.492679 -0.593138 82 68 54 2 2
0.158008 0.458958 -0.594466 76 59 52 2 2
0.174832 0.367280 -0.596912 119 95 68 2 2
0.155569 0.369619 -0.595316 138 104 66 2 2
0.144866 0.328125 -0.592283 134 99 58 2 2
0.269348 0.499332 -0.595140 177 164 137 2 2
0.282031 0.483451 -0.596823 184 166 140 2 2
0.435218 0.329832 -0.608835 184 166 140 2 2
0.419267 0.344118 -0.606463 198 179 155 2 2
0.138807 0.646432 -0.549405 199 176 144 2 2
0.125773 0.639955 -0.529400 123 103 80 2 2
0.136034 0.643950 -0.537930 182 158 135 2 2
0.431516 0.366941 -0.597156 178 159 141 2 2
0.438193 0.381151 -0.593802 185 143 102 2 2
0.462475 0.385496 -0.589627 180 142 96 2 2
0.438682 0.370512 -0.589200 185 144 100 2 2
0.289069 0.402191 -0.599126 186 162 133 2 2
0.444437 0.303993 -0.577884 131 112 93 0 0
0.443873 0.295616 -0.576126 176 163 141 0 0
0.452840 0.307832 -0.562907 126 106 86 7 7
0.462592 0.304231 -0.564972 127 106 81 7 7
0.465224 0.310842 -0.569953 145 123 100 7 7
0.448988 0.298906 -0.563054 110 89 67 7 7
0.053746 0.434604 -0.376464 171 142 115 5 4
0.057917 0.440933 -0.373831 57 37 23 5 4
0.065100 0.452235 -0.389566 155 129 103 5 4
0.066880 0.441809 -0.362048 63 45 31 5 4
0.319762 0.867820 -0.215462 134 137 132 1 1
0.288987 0.909570 -0.154207 186 188 173 0 0
0.254817 0.909787 -0.163339 104 108 110 0 0
0.270904 0.908868 -0.164088 121 129 126 0 0
0.454141 0.358976 -0.540414 143 111 82 2 2
0.145926 0.447535 -0.592983 133 94 64 2 2
0.162197 0.435694 -0.593810 136 91 61 2 2
0.307023 0.430504 -0.599788 209 192 167 2 2
0.290254 0.452288 -0.597366 204 187 161 2 2
0.298912 0.476759 -0.597474 189 172 148 2 2
0.121490 0.673572 -0.525623 184 157 122 0 0
0.104632 0.659588 -0.517480 182 161 132 0 0
0.106788 0.663216 -0.532491 120 107 84 0 0
0.104512 0.656909 -0.535212 120 110 90 0 0
0.510942 0.393952 -0.597078 167 151 123 2 2
0.494629 0.386189 -0.597937 169 151 124 2 2
0.535563 0.363701 -0.600495 103 91 72 2 2
0.501742 0.368927 -0.600006 88 77 62 2 2
0.511474 0.357523 -0.600145 182 166 135 2 2
0.010093 0.395966 -0.585592 153 123 95 2 2
0.030650 0.405987 -0.588659 104 97 81 2 2
0.033129 0.388785 -0.589983 150 124 88 2 2
0.118795 0.668964 -0.509554 185 156 124 0 0
0.105887 0.661271 -0.488935 169 155 131 0 0
0.091604 0.645011 -0.430406 242 237 225 0 0
0.548525 0.335956 -0.604631 188 170 140 2 2
0.062135 0.605392 -0.394649 183 177 167 5 4
0.064045 0.616566 -0.384558 231 229 224 5 4
0.152490 0.281172 -0.591635 107 79 46 2 2
0.141389 0.295721 -0.592317 89 70 50 2 2
0.173157 0.277015 -0.597328 124 109 88 2 2
0.168178 0.292395 -0.594084 98 83 63 2 2
-0.023446 0.567633 -0.583301 133 107 78 2 2
0.357035 0.348347 -0.604071 199 183 150 2 2
0.363179 0.332502 -0.604417 200 180 148 2 2
0.348806 0.317481 -0.604861 198 177 148 2 2
0.041595 0.645057 -0.239462 69 63 54 5 4
0.042854 0.651021 -0.253909 89 84 80 5 4
0.051959 0.653035 -0.244984 96 93 89 5 4
0.538851 0.336975 -0.601629 155 146 124 2 2
0.539829 0.314459 -0.602322 156 142 122 2 2
0.561795 0.309728 -0.609535 186 168 150 2 2
0.548799 0.306928 -0.607165 192 174 157 2 2
0.555287 0.332558 -0.605071 189 172 150 2 2
0.415983 0.451150 -0.601292 183 163 143 2 2
0.406315 0.460463 -0.601330 217 193 169 2 2
0.435247 0.339883 -0.605643 164 147 124 2 2
0.370632 0.867676 -0.192864 177 184 175 1 1
0.116522 0.411414 -0.590407 107 85 61 2 2
0.114180 0.396319 -0.590872 102 83 60 2 2
0.130034 0.410934 -0.591921 126 93 62 2 2
0.132742 0.437046 -0.592613 120 87 60 2 2
0.048647 0.530630 -0.584296 68 54 42 2 2
0.051025 0.603511 -0.257279 29 20 20 5 4
0.063219 0.594524 -0.263161 47 35 25 5 4
0.048673 0.611061 -0.249000 28 25 18 5 4
0.206166 0.563716 -0.587072 131 119 105 2 2
0.230672 0.530479 -0.591970 111 96 82 2 2
0.216116 0.539303 -0.590907 149 135 114 2 2
0.960426 0.331933 -0.219113 17 22 36 0 0
0.947389 0.345573 -0.209318 65 90 137 0 0
0.095709 0.897278 -0.206477 128 139 121 0 0
0.089438 0.896320 -0.207241 129 137 123 1 1
0.083898 0.899664 -0.207131 128 138 136 0 0
0.496027 0.292344 -0.523524 26 22 18 7 7
-0.003032 0.624292 -0.329073 112 113 108 5 4
0.026360 0.618111 -0.334803 42 41 38 5 4
0.019169 0.630569 -0.348313 34 34 32 5 4
0.013695 0.644306 -0.352686 86 81 75 5 4
0.030819 0.621532 -0.342339 42 41 37 5 4
0.010620 0.626378 -0.341366 49 49 46 5 4
0.167754 0.569592 -0.585315 59 43 27 2 2
0.051392 0.586311 -0.585265 67 43 28 2 2
0.047802 0.604209 -0.583604 77 60 45 2 2
0.303999 0.867772 -0.214887 116 107 100 1 1
0.304604 0.861611 -0.250485 111 104 99 1 1
0.078456 0.618717 -0.567202 82 63 49 2 2
0.086226 0.623733 -0.561505 85 64 51 2 2
0.439235 0.349573 -0.561483 173 139 96 2 2
0.435666 0.349533 -0.583244 181 156 126 2 2
0.436676 0.342112 -0.570260 203 178 147 2 2
0.095716 0.901651 -0.189021 130 135 132 0 0
0.084180 0.895599 -0.181235 109 118 105 1 1
0.094973 0.896916 -0.197030 122 133 126 1 1
0.093101 0.894272 -0.173059 128 136 128 1 1
0.081852 0.900911 -0.187880 117 122 113 1 1
0.086387 0.904931 -0.179931 117 122 113 0 0
0.228988 0.908946 -0.155652 90 92 86 0 0
0.249396 0.907641 -0.144730 138 149 141 0 0
0.021550 0.367262 -0.590120 154 128 91 2 2
0.047268 0.372978 -0.589259 156 132 96 2 2
-0.009254 0.561638 -0.582866 119 93 64 2 2
0.275945 0.869919 -0.152793 144 156 151 1 1
0.009036 0.251471 -0.574710 38 25 12 2 2
0.034368 0.485994 -0.586054 45 40 35 2 2
0.029996 0.505485 -0.587104 155 129 84 2 2
0.087043 0.594157 -0.335541 104 93 70 5 4
0.070861 0.585150 -0.341057 107 96 75 5 4
0.230961 0.400554 -0.594489 133 116 95 2 2
0.130236 0.537052 -0.589282 98 77 57 2 2
0.119513 0.546849 -0.588697 84 65 53 2 2
0.054665 0.657845 -0.255281 69 61 57 5 4
0.099658 0.576085 -0.416175 61 52 40 5 4
0.056715 0.416175 -0.383483 119 96 75 5 4
0.061815 0.421315 -0.388575 145 117 92 5 4
0.046281 0.392743 -0.374597 132 103 78 5 4
0.061506 0.406747 -0.389803 169 138 109 5 4
0.050633 0.415163 -0.373321 49 34 21 5 4
0.052417 0.393357 -0.367376 50 32 21 5 4
0.378956 0.336052 -0.605668 164 151 124 2 2
0.383642 0.359692 -0.603886 201 177 142 2 2
0.393650 0.325391 -0.607186 204 183 154 2 2
0.490255 0.301186 -0.581504 170 141 100 7 7
0.472135 0.299671 -0.576095 160 134 104 7 7
0.491959 0.294324 -0.580483 167 138 98 0 0
0.476173 0.312873 -0.571180 143 120 94 7 7
0.480332 0.307032 -0.571542 144 119 86 7 7
0.489944 0.321498 -0.573509 153 132 102 7 7
0.066903 0.513491 -0.391009 53 32 17 5 4
0.072610 0.500816 -0.363134 251 250 250 5 4
0.087810 0.493941 -0.373002 248 237 222 5 4
0.904980 0.328482 0.239915 196 208 202 5 5
0.339041 0.876499 0.327704 224 215 191 1 1
0.339990 0.880906 0.338230 219 211 188 1 1
0.324641 0.878629 0.330709 224 212 191 1 1
0.323775 0.874033 0.321857 222 215 187 1 1
0.620937 0.867672 0.155557 235 242 239 1 1
