ply
format ascii 1.0
element vertex 1047
property float x
property float y
property float z
property uchar red
property uchar green
property uchar blue
property uchar semantic_label
property uchar instance_label
end_header
-0.262645 -1.996365 -0.450037 0 255 255 89 9
-0.304920 -1.945148 -0.383923 0 255 255 89 9
-0.207279 -2.014855 -0.462037 0 255 255 89 9
-0.172591 -1.991677 -0.472037 0 255 255 89 9
-0.149084 -1.968048 -0.434037 0 255 255 89 9
-0.274328 -1.945516 -0.382549 0 255 255 89 9
-0.186180 -2.002166 -0.508037 0 255 255 89 9
-0.212148 -2.008904 -0.480037 0 255 255 89 9
-0.147364 -1.937743 -0.494037 0 255 255 89 9
-0.231800 -1.899349 -0.393662 0 255 255 89 9
-0.244786 -1.902724 -0.372249 0 255 255 89 9
-0.235622 -2.003906 -0.440037 0 255 255 89 9
-0.179595 -1.961563 -0.398922 0 255 255 89 9
-0.158053 -1.923203 -0.446037 0 255 255 89 9
-0.297679 -1.959178 -0.384037 0 255 255 89 9
-0.159798 -1.906909 -0.456037 0 255 255 89 9
-0.145880 -1.948282 -0.514037 0 255 255 89 9
-0.145459 -1.946327 -0.428037 0 255 255 89 9
-0.269851 -1.977138 -0.424037 0 255 255 89 9
-0.223608 -2.014715 -0.450037 0 255 255 89 9
-0.289585 -1.959579 -0.388037 0 255 255 89 9
-0.148170 -1.966198 -0.506037 0 255 255 89 9
-0.207826 -1.882755 -0.416037 0 255 255 89 9
-0.146598 -1.956308 -0.410037 0 255 255 89 9
-0.148808 -1.968107 -0.490037 0 255 255 89 9
-0.179812 -1.914490 -0.381467 0 255 255 89 9
-0.229511 -1.984771 -0.400037 0 255 255 89 9
-0.146057 -1.942111 -0.502037 0 255 255 89 9
-0.210328 -1.875288 -0.470863 0 255 255 89 9
-0.203297 -1.991284 -0.402037 0 255 255 89 9
-0.241096 -2.010422 -0.498037 0 255 255 89 9
-0.172340 -1.903810 -0.526037 0 255 255 89 9
-0.253513 -1.991883 -0.416037 0 255 255 89 9
-0.188704 -1.888985 -0.466037 0 255 255 89 9
-0.320395 -1.956172 -0.424037 0 255 255 89 9
-0.151387 -1.973692 -0.422037 0 255 255 89 9
-0.233376 -2.012572 -0.502037 0 255 255 89 9
-0.161861 -1.979645 -0.498037 0 255 255 89 9
-0.161912 -1.969410 -0.534037 0 255 255 89 9
-0.169487 -1.986202 -0.508037 0 255 255 89 9
-0.286005 -1.957346 -0.408037 0 255 255 89 9
-0.192118 -1.876189 -0.458037 0 255 255 89 9
-0.286067 -1.943022 -0.389013 0 255 255 89 9
-0.147626 -1.933599 -0.420037 0 255 255 89 9
-0.147246 -1.960260 -0.446037 0 255 255 89 9
-0.259404 -1.990739 -0.510037 0 255 255 89 9
-0.229558 -2.013854 -0.456037 0 255 255 89 9
-0.221927 -2.006813 -0.516037 0 255 255 89 9
-0.223876 -2.006361 -0.438037 0 255 255 89 9
-0.286845 -1.932632 -0.424037 0 255 255 89 9
-0.239549 -2.003140 -0.480037 0 255 255 89 9
-0.161106 -1.975716 -0.506037 0 255 255 89 9
-0.203477 -2.006587 -0.468037 0 255 255 89 9
-0.157017 -1.966362 -0.460037 0 255 255 89 9
-0.216069 -2.008107 -0.452037 0 255 255 89 9
-0.196453 -1.886966 -0.436037 0 255 255 89 9
-0.273962 -1.900610 -0.434037 0 255 255 89 9
-0.214103 -2.008482 -0.514037 0 255 255 89 9
-0.162717 -1.916078 -0.424037 0 255 255 89 9
-0.154958 -1.956576 -0.470037 0 255 255 89 9
-0.212164 -2.008978 -0.506037 0 255 255 89 9
-0.310838 -1.941845 -0.394037 0 255 255 89 9
-0.290687 -1.935905 -0.389035 0 255 255 89 9
-0.189328 -1.988119 -0.403030 0 255 255 89 9
-0.289793 -1.946318 -0.418037 0 255 255 89 9
-0.275043 -1.978079 -0.474037 0 255 255 89 9
-0.231696 -2.004676 -0.470037 0 255 255 89 9
-0.237578 -2.003489 -0.498037 0 255 255 89 9
-0.156610 -1.964403 -0.420037 0 255 255 89 9
-0.223881 -2.006380 -0.462037 0 255 255 89 9
-0.165071 -1.912470 -0.486037 0 255 255 89 9
-0.203858 -1.873706 -0.450037 0 255 255 89 9
-0.221931 -2.006825 -0.422037 0 255 255 89 9
-0.156648 -1.964396 -0.492037 0 255 255 89 9
-0.190897 -1.981652 -0.380037 0 255 255 89 9
-0.203481 -2.006607 -0.484037 0 255 255 89 9
-0.221999 -1.997532 -0.394080 0 255 255 89 9
-0.186975 -1.890475 -0.438765 0 255 255 89 9
-0.287191 -1.934603 -0.416037 0 255 255 89 9
-0.199155 -2.005491 -0.438037 0 255 255 89 9
-0.257205 -1.999629 -0.518037 0 255 255 89 9
-0.250440 -1.996661 -0.476037 0 255 255 89 9
-0.212927 -1.993326 -0.380404 0 255 255 89 9
-0.309788 -1.958426 -0.462267 0 255 255 89 9
-0.151374 -1.963472 -0.404347 0 255 255 89 9
-0.237082 -2.010777 -0.410037 0 255 255 89 9
-0.258507 -1.967281 -0.381677 0 255 255 89 9
-0.146801 -1.941952 -0.512950 0 255 255 89 9
-0.150926 -1.922673 -0.414037 0 255 255 89 9
-0.191550 -1.911994 -0.394765 0 255 255 89 9
-0.174604 -1.938087 -0.395098 0 255 255 89 9
-0.191093 -1.890610 -0.524037 0 255 255 89 9
-0.171476 -1.971467 -0.393527 0 255 255 89 9
-0.282876 -1.968235 -0.364037 0 255 255 89 9
-0.278500 -1.971210 -0.440037 0 255 255 89 9
-0.209901 -2.007950 -0.362037 0 255 255 89 9
-0.193480 -1.882596 -0.430037 0 255 255 89 9
-0.277819 -1.971558 -0.458037 0 255 255 89 9
-0.161288 -1.938874 -0.374037 0 255 255 89 9
-0.247602 -1.973688 -0.389252 0 255 255 89 9
-0.258312 -1.912117 -0.370037 0 255 255 89 9
-0.185123 -1.891379 -0.460037 0 255 255 89 9
-0.247035 -1.894066 -0.364142 0 255 255 89 9
-0.283381 -1.959244 -0.366037 0 255 255 89 9
-0.253886 -1.974397 -0.374763 0 255 255 89 9
-0.262420 -1.966449 -0.372577 0 255 255 89 9
-0.308286 -1.958745 -0.416037 0 255 255 89 9
-0.281199 -1.929742 -0.409281 0 255 255 89 9
-0.178541 -1.896358 -0.428037 0 255 255 89 9
-0.229655 -2.014307 -0.429672 0 255 255 89 9
-0.225993 -1.881649 -0.424037 0 255 255 89 9
-0.257062 -1.912381 -0.380986 0 255 255 89 9
-0.255815 -1.906513 -0.378985 0 255 255 89 9
-0.190195 -2.011437 -0.418037 0 255 255 89 9
-0.255533 -2.001385 -0.484037 0 255 255 89 9
-0.267658 -1.981466 -0.362037 0 255 255 89 9
-0.178272 -1.916862 -0.375222 0 255 255 89 9
-0.158141 -1.985686 -0.468037 0 255 255 89 9
-0.257058 -1.998939 -0.432037 0 255 255 89 9
-0.162110 -1.975502 -0.532811 0 255 255 89 9
-0.169349 -1.990321 -0.364114 0 255 255 89 9
-0.199648 -1.998194 -0.404984 0 255 255 89 9
-0.269459 -1.987444 -0.488037 0 255 255 89 9
-0.269125 -1.987515 -0.440037 0 255 255 89 9
-0.211486 -2.015409 -0.498037 0 255 255 89 9
-0.269022 -1.909839 -0.416037 0 255 255 89 9
-0.265952 -1.906111 -0.422037 0 255 255 89 9
-0.250342 -2.005820 -0.452180 0 255 255 89 9
-0.190205 -2.011483 -0.434037 0 255 255 89 9
-0.265993 -1.892081 -0.444037 0 255 255 89 9
-0.213881 -2.007436 -0.397729 0 255 255 89 9
-0.276579 -1.914367 -0.362037 0 255 255 89 9
-0.303965 -1.931037 -0.385399 0 255 255 89 9
-0.157838 -1.931428 -0.512037 0 255 255 89 9
-0.250154 -1.908742 -0.400037 0 255 255 89 9
-0.252414 -1.996325 -0.488037 0 255 255 89 9
-0.264451 -1.963974 -0.400037 0 255 255 89 9
-0.157483 -1.909011 -0.514037 0 255 255 89 9
-0.265775 -1.991853 -0.460037 0 255 255 89 9
-0.292889 -1.955884 -0.394618 0 255 255 89 9
-0.259405 -1.990740 -0.466037 0 255 255 89 9
-0.254695 -1.992628 -0.430037 0 255 255 89 9
-0.165236 -1.974838 -0.396037 0 255 255 89 9
-0.250134 -2.004840 -0.428037 0 255 255 89 9
-0.203734 -1.901984 -0.382037 0 255 255 89 9
-0.303821 -1.959216 -0.392037 0 255 255 89 9
-0.277982 -1.972326 -0.506037 0 255 255 89 9
-0.199162 -1.880470 -0.434037 0 255 255 89 9
-0.185483 -2.008502 -0.522037 0 255 255 89 9
-0.154470 -1.954635 -0.436037 0 255 255 89 9
-0.148499 -1.930704 -0.432037 0 255 255 89 9
-0.282461 -1.931520 -0.368037 0 255 255 89 9
-0.185752 -2.000154 -0.422037 0 255 255 89 9
-0.160372 -1.928844 -0.396488 0 255 255 89 9
-0.169907 -1.906370 -0.493008 0 255 255 89 9
-0.199584 -2.007505 -0.510037 0 255 255 89 9
-0.203141 -1.981094 -0.392037 0 255 255 89 9
-0.321326 -1.954991 -0.482037 0 255 255 89 9
-0.274532 -1.975336 -0.370037 0 255 255 89 9
-0.204051 -1.884236 -0.404037 0 255 255 89 9
-0.187445 -1.883067 -0.458037 0 255 255 89 9
-0.269809 -1.977147 -0.436037 0 255 255 89 9
-0.158700 -1.969074 -0.480037 0 255 255 89 9
-0.312135 -1.959854 -0.476037 0 255 255 89 9
-0.286734 -1.951057 -0.392037 0 255 255 89 9
-0.162323 -1.976497 -0.464037 0 255 255 89 9
-0.181005 -1.997054 -0.482037 0 255 255 89 9
-0.146615 -1.939947 -0.462037 0 255 255 89 9
-0.167894 -1.983474 -0.458037 0 255 255 89 9
-0.196029 -1.976471 -0.398037 0 255 255 89 9
-0.162318 -1.976482 -0.512037 0 255 255 89 9
-0.243109 -1.880589 -0.440037 0 255 255 89 9
-0.252851 -2.005287 -0.474037 0 255 255 89 9
-0.161865 -1.955108 -0.405020 0 255 255 89 9
-0.179055 -1.949409 -0.394008 0 255 255 89 9
-0.173363 -1.980343 -0.538037 0 255 255 89 9
-0.146801 -1.941952 -0.408494 0 255 255 89 9
-0.165109 -1.979990 -0.436037 0 255 255 89 9
-0.186918 -2.000899 -0.444037 0 255 255 89 9
-0.310292 -1.951180 -0.458037 0 255 255 89 9
-0.197588 -1.892308 -0.369235 0 255 255 89 9
-0.186909 -2.000901 -0.456037 0 255 255 89 9
-0.292346 -1.953325 -0.382037 0 255 255 89 9
-0.196002 -2.005104 -0.464037 0 255 255 89 9
-0.183998 -2.001520 -0.364741 0 255 255 89 9
-0.272324 -1.974567 -0.481037 0 255 255 89 9
-0.187963 -1.900488 -0.372037 0 255 255 89 9
-0.165534 -1.981984 -0.514037 0 255 255 89 9
-0.172016 -1.983627 -0.396037 0 255 255 89 9
-0.281201 -1.944056 -0.494037 0 255 255 89 9
-0.265057 -1.892280 -0.429039 0 255 255 89 9
-0.267395 -1.908140 -0.376037 0 255 255 89 9
-0.171324 -1.975589 -0.406037 0 255 255 89 9
-0.220673 -2.000915 -0.408037 0 255 255 89 9
-0.203487 -2.006637 -0.432037 0 255 255 89 9
-0.159318 -1.923890 -0.434037 0 255 255 89 9
-0.149470 -1.925655 -0.424037 0 255 255 89 9
-0.255534 -2.001391 -0.466037 0 255 255 89 9
-0.266773 -1.981881 -0.500037 0 255 255 89 9
-0.176687 -1.899785 -0.518037 0 255 255 89 9
-0.236714 -1.883991 -0.373013 0 255 255 89 9
-0.269052 -1.978408 -0.458037 0 255 255 89 9
-0.250787 -1.892478 -0.438037 0 255 255 89 9
-0.234113 -1.910228 -0.388037 0 255 255 89 9
-0.165825 -1.925640 -0.394764 0 255 255 89 9
-0.250150 -2.004920 -0.440037 0 255 255 89 9
-0.164701 -1.915657 -0.412037 0 255 255 89 9
-0.175274 -1.998957 -0.404037 0 255 255 89 9
-0.200793 -1.897761 -0.373117 0 255 255 89 9
-0.149777 -1.927101 -0.470037 0 255 255 89 9
-0.156723 -1.911679 -0.500037 0 255 255 89 9
-0.161912 -1.926472 -0.529077 0 255 255 89 9
-0.280466 -1.916677 -0.412037 0 255 255 89 9
-0.238117 -1.880966 -0.416037 0 255 255 89 9
-0.146400 -1.954305 -0.476037 0 255 255 89 9
-0.179749 -1.996289 -0.452037 0 255 255 89 9
-0.171615 -1.895169 -0.418037 0 255 255 89 9
-0.253227 -1.990532 -0.366037 0 255 255 89 9
-0.245522 -2.008890 -0.420037 0 255 255 89 9
-0.150972 -1.923101 -0.452037 0 255 255 89 9
-0.313643 -1.951473 -0.418037 0 255 255 89 9
-0.168139 -1.907666 -0.500037 0 255 255 89 9
-0.227438 -1.878829 -0.372037 0 255 255 89 9
-0.262666 -1.986843 -0.477052 0 255 255 89 9
-0.147729 -1.929487 -0.488037 0 255 255 89 9
-0.198584 -1.887374 -0.364037 0 255 255 89 9
-0.171463 -1.916263 -0.376037 0 255 255 89 9
-0.249696 -1.918036 -0.376037 0 255 255 89 9
-0.154886 -1.979989 -0.490037 0 255 255 89 9
-0.255445 -2.000972 -0.444037 0 255 255 89 9
-0.316589 -1.951949 -0.462037 0 255 255 89 9
-0.157552 -1.984650 -0.502037 0 255 255 89 9
-0.170971 -1.934770 -0.376037 0 255 255 89 9
-0.173406 -1.893972 -0.458037 0 255 255 89 9
-0.191955 -1.894666 -0.368037 0 255 255 89 9
-0.162418 -1.991794 -0.510037 0 255 255 89 9
-0.183450 -2.008557 -0.488037 0 255 255 89 9
-0.252825 -1.979023 -0.400037 0 255 255 89 9
-0.172246 -1.989705 -0.420037 0 255 255 89 9
-0.251294 -1.904486 -0.370037 0 255 255 89 9
-0.162801 -1.901794 -0.460037 0 255 255 89 9
-0.281274 -1.968575 -0.409747 0 255 255 89 9
-0.189778 -1.884419 -0.494037 0 255 255 89 9
-0.257437 -1.991098 -0.496037 0 255 255 89 9
-0.157837 -1.955397 -0.370037 0 255 255 89 9
-0.183455 -2.008587 -0.418037 0 255 255 89 9
-0.203043 -1.889104 -0.381035 0 255 255 89 9
-0.185632 -2.009206 -0.438037 0 255 255 89 9
-0.218985 -1.877537 -0.464702 0 255 255 89 9
-0.167240 -1.996903 -0.414037 0 255 255 89 9
-0.287730 -1.950846 -0.428918 0 255 255 89 9
-0.281945 -1.950032 -0.456037 0 255 255 89 9
-0.171480 -1.904150 -0.422037 0 255 255 89 9
-0.192636 -1.888247 -0.482037 0 255 255 89 9
-0.281386 -1.966507 -0.422037 0 255 255 89 9
-0.188014 -1.981932 -0.392037 0 255 255 89 9
-0.239554 -2.003166 -0.514037 0 255 255 89 9
-0.255630 -1.943357 -0.390037 0 255 255 89 9
-0.150268 -1.969841 -0.518037 0 255 255 89 9
-0.146215 -1.940032 -0.484037 0 255 255 89 9
-0.226215 -1.988509 -0.386037 0 255 255 89 9
-0.206514 -2.006958 -0.532037 0 255 255 89 9
-0.320575 -1.958178 -0.472037 0 255 255 89 9
-0.163932 -1.916739 -0.526037 0 255 255 89 9
-0.180398 -1.898007 -0.364426 0 255 255 89 9
-0.197057 -2.014863 -0.496037 0 255 255 89 9
-0.271044 -1.985063 -0.452037 0 255 255 89 9
-0.275146 -1.978216 -0.440037 0 255 255 89 9
-0.170030 -1.916569 -0.402965 0 255 255 89 9
-0.220422 -1.980488 -0.396037 0 255 255 89 9
-0.156605 -1.964404 -0.524037 0 255 255 89 9
-0.152499 -1.959143 -0.363585 0 255 255 89 9
-0.146556 -1.954273 -0.450037 0 255 255 89 9
-0.154210 -1.938334 -0.399273 0 255 255 89 9
-0.161108 -1.918464 -0.502037 0 255 255 89 9
-0.264210 -1.994106 -0.470037 0 255 255 89 9
-0.165470 -1.914351 -0.398037 0 255 255 89 9
-0.156715 -1.911644 -0.416037 0 255 255 89 9
-0.282694 -1.951916 -0.520037 0 255 255 89 9
-0.178082 -1.896729 -0.438037 0 255 255 89 9
-0.154089 -1.952672 -0.524037 0 255 255 89 9
-0.187251 -1.891770 -0.364037 0 255 255 89 9
-0.273118 -1.925326 -0.406037 0 255 255 89 9
-0.237650 -1.994205 -0.373171 0 255 255 89 9
-0.147940 -1.964201 -0.498037 0 255 255 89 9
-0.215614 -1.880915 -0.430037 0 255 255 89 9
-0.268998 -1.958917 -0.370113 0 255 255 89 9
-0.178637 -1.995534 -0.430037 0 255 255 89 9
-0.175424 -1.892931 -0.478037 0 255 255 89 9
-0.172457 -1.903785 -0.448037 0 255 255 89 9
-0.272943 -1.972391 -0.442037 0 255 255 89 9
-0.158113 -1.985551 -0.440037 0 255 255 89 9
-0.191162 -2.012265 -0.446037 0 255 255 89 9
-0.165828 -1.911327 -0.462037 0 255 255 89 9
-0.146565 -1.940845 -0.438037 0 255 255 89 9
-0.154392 -1.944428 -0.420037 0 255 255 89 9
-0.258473 -1.924351 -0.388037 0 255 255 89 9
-0.170413 -1.904218 -0.466037 0 255 255 89 9
-0.235735 -1.889004 -0.364037 0 255 255 89 9
-0.211406 -1.899595 -0.398702 0 255 255 89 9
-0.271071 -1.985057 -0.464037 0 255 255 89 9
-0.158976 -1.935276 -0.534037 0 255 255 89 9
-0.169813 -1.988178 -0.496037 0 255 255 89 9
-0.183379 -1.998606 -0.520037 0 255 255 89 9
-0.149381 -1.963717 -0.524037 0 255 255 89 9
-0.166726 -1.997217 -0.500037 0 255 255 89 9
-0.246939 -1.908399 -0.386037 0 255 255 89 9
-0.156665 -1.935766 -0.442037 0 255 255 89 9
-0.289088 -1.952602 -0.420037 0 255 255 89 9
-0.174026 -2.002698 -0.462037 0 255 255 89 9
-0.228572 -1.874543 -0.440037 0 255 255 89 9
-0.159864 -1.969846 -0.470037 0 255 255 89 9
-0.253554 -2.003093 -0.496037 0 255 255 89 9
-0.277110 -1.949014 -0.376037 0 255 255 89 9
-0.223598 -2.014673 -0.436037 0 255 255 89 9
-0.244982 -1.999843 -0.446037 0 255 255 89 9
-0.299052 -1.946395 -0.389005 0 255 255 89 9
-0.149086 -1.968047 -0.468037 0 255 255 89 9
-0.162395 -1.991799 -0.480037 0 255 255 89 9
-0.148234 -1.966184 -0.454037 0 255 255 89 9
-0.147128 -1.958241 -0.498037 0 255 255 89 9
-0.267447 -1.970862 -0.368037 0 255 255 89 9
-0.145777 -1.952394 -0.484037 0 255 255 89 9
-0.164407 -1.938210 -0.393485 0 255 255 89 9
-0.157400 -1.929476 -0.502037 0 255 255 89 9
-0.154039 -1.956771 -0.399553 0 255 255 89 9
-0.257432 -1.991074 -0.524037 0 255 255 89 9
-0.194582 -1.887779 -0.498037 0 255 255 89 9
-0.262530 -1.933712 -0.392037 0 255 255 89 9
-0.232834 -2.000407 -0.410037 0 255 255 89 9
-0.190609 -1.888329 -0.454037 0 255 255 89 9
-0.207075 -2.015018 -0.480037 0 255 255 89 9
-0.241278 -1.983211 -0.400037 0 255 255 89 9
-0.154961 -1.956575 -0.424037 0 255 255 89 9
-0.231781 -1.995453 -0.404991 0 255 255 89 9
-0.225837 -2.005962 -0.476037 0 255 255 89 9
-0.264499 -1.976231 -0.401563 0 255 255 89 9
-0.157459 -1.968313 -0.430037 0 255 255 89 9
-0.251453 -1.885996 -0.368037 0 255 255 89 9
-0.156209 -1.962445 -0.432037 0 255 255 89 9
-0.279940 -1.909564 -0.432037 0 255 255 89 9
-0.147643 -1.962220 -0.460037 0 255 255 89 9
-0.241066 -2.000659 -0.492037 0 255 255 89 9
-0.218012 -2.007633 -0.430037 0 255 255 89 9
-0.219970 -2.007221 -0.472037 0 255 255 89 9
-0.228577 -1.990000 -0.393187 0 255 255 89 9
-0.212154 -2.008930 -0.492037 0 255 255 89 9
-0.156003 -1.942041 -0.518037 0 255 255 89 9
-0.209743 -1.891769 -0.380997 0 255 255 89 9
-0.157847 -1.970274 -0.516037 0 255 255 89 9
-0.285980 -1.928726 -0.430037 0 255 255 89 9
-0.233654 -2.004268 -0.514037 0 255 255 89 9
-0.268663 -1.963078 -0.378037 0 255 255 89 9
-0.190145 -1.876528 -0.364037 0 255 255 89 9
-0.212219 -1.999611 -0.404987 0 255 255 89 9
-0.163896 -1.979212 -0.478037 0 255 255 89 9
-0.219196 -1.878531 -0.372037 0 255 255 89 9
-0.172583 -1.991678 -0.510037 0 255 255 89 9
-0.190500 -2.003245 -0.474037 0 255 255 89 9
-0.161818 -1.983743 -0.359677 0 255 255 89 9
-0.259320 -1.918036 -0.372037 0 255 255 89 9
-0.267287 -1.979728 -0.419011 0 255 255 89 9
-0.213675 -2.006464 -0.418037 0 255 255 89 9
-0.277995 -1.924289 -0.373017 0 255 255 89 9
-0.161711 -1.989900 -0.442037 0 255 255 89 9
-0.173389 -1.893894 -0.514037 0 255 255 89 9
-0.169410 -1.890120 -0.428037 0 255 255 89 9
-0.160084 -1.922771 -0.490037 0 255 255 89 9
-0.315703 -1.953079 -0.490037 0 255 255 89 9
-0.280197 -1.944268 -0.386846 0 255 255 89 9
-0.162210 -1.914141 -0.506037 0 255 255 89 9
-0.265992 -1.954397 -0.382037 0 255 255 89 9
-0.207089 -2.004342 -0.366037 0 255 255 89 9
-0.265965 -1.983125 -0.444037 0 255 255 89 9
-0.272894 -1.972401 -0.496037 0 255 255 89 9
-0.182807 -1.986300 -0.376037 0 255 255 89 9
-0.271824 -1.981833 -0.522037 0 255 255 89 9
-0.280592 -1.926892 -0.388037 0 255 255 89 9
-0.195588 -2.003146 -0.416037 0 255 255 89 9
-0.309731 -1.933902 -0.398037 0 255 255 89 9
-0.245834 -1.907655 -0.394037 0 255 255 89 9
-0.231138 -1.891311 -0.402037 0 255 255 89 9
-0.268091 -1.916172 -0.364246 0 255 255 89 9
-0.146924 -1.939882 -0.472037 0 255 255 89 9
-0.198421 -1.896221 -0.379369 0 255 255 89 9
-0.318115 -1.954610 -0.398037 0 255 255 89 9
-0.180516 -2.006351 -0.412037 0 255 255 89 9
-0.172092 -1.912040 -0.532037 0 255 255 89 9
-0.173411 -1.899493 -0.486037 0 255 255 89 9
-0.234172 -1.900889 -0.399062 0 255 255 89 9
-0.259061 -1.998746 -0.506037 0 255 255 89 9
-0.308566 -1.956640 -0.424037 0 255 255 89 9
-0.271935 -1.976695 -0.468037 0 255 255 89 9
-0.196465 -1.896636 -0.400825 0 255 255 89 9
-0.179395 -1.994320 -0.526037 0 255 255 89 9
-0.248696 -1.882644 -0.422037 0 255 255 89 9
-0.301131 -1.956177 -0.396596 0 255 255 89 9
-0.315733 -1.953073 -0.426037 0 255 255 89 9
-0.224056 -1.886683 -0.404037 0 255 255 89 9
-0.204253 -2.010241 -0.402037 0 255 255 89 9
-0.279196 -1.958794 -0.521055 0 255 255 89 9
-0.227453 -1.994328 -0.374496 0 255 255 89 9
-0.184017 -1.905416 -0.379381 0 255 255 89 9
-0.188053 -1.914783 -0.385276 0 255 255 89 9
-0.277536 -1.957103 -0.416037 0 255 255 89 9
-0.410475 -1.292949 -0.258037 255 255 0 42 10
-0.483399 -1.293807 -0.532894 255 255 0 42 10
-0.370517 -1.289175 -0.416037 255 255 0 42 10
-0.474942 -1.289469 -0.358037 255 255 0 42 10
-0.371718 -1.274606 -0.528037 255 255 0 42 10
-0.455817 -1.337196 -0.446037 255 255 0 42 10
-0.394939 -1.262415 -0.338037 255 255 0 42 10
-0.418422 -1.344035 -0.520037 255 255 0 42 10
-0.415378 -1.339334 -0.374037 255 255 0 42 10
-0.405238 -1.238857 -0.466037 255 255 0 42 10
-0.437966 -1.320547 -0.312037 255 255 0 42 10
-0.484205 -1.278355 -0.442037 255 255 0 42 10
-0.378891 -1.316020 -0.476037 255 255 0 42 10
-0.446399 -1.283268 -0.205218 255 255 0 42 10
-0.407217 -1.238436 -0.402037 255 255 0 42 10
-0.398635 -1.337522 -0.428037 255 255 0 42 10
-0.465864 -1.328203 -0.394037 255 255 0 42 10
-0.464486 -1.329883 -0.498037 255 255 0 42 10
-0.378760 -1.301735 -0.366586 255 255 0 42 10
-0.453604 -1.278682 -0.292037 255 255 0 42 10
-0.397280 -1.295754 -0.304037 255 255 0 42 10
-0.403304 -1.239267 -0.532037 255 255 0 42 10
-0.416350 -1.343905 -0.472037 255 255 0 42 10
-0.374064 -1.270018 -0.481091 255 255 0 42 10
-0.482152 -1.287937 -0.486899 255 255 0 42 10
-0.380325 -1.319804 -0.528037 255 255 0 42 10
-0.451635 -1.327138 -0.352865 255 255 0 42 10
-0.378685 -1.262902 -0.382667 255 255 0 42 10
-0.402194 -1.321290 -0.338037 255 255 0 42 10
-0.418864 -1.259539 -0.304037 255 255 0 42 10
-0.482893 -1.291430 -0.402037 255 255 0 42 10
-0.383029 -1.254478 -0.434037 255 255 0 42 10
-0.432837 -1.344517 -0.410037 255 255 0 42 10
-0.385687 -1.326844 -0.394037 255 255 0 42 10
-0.413117 -1.292387 -0.220037 255 255 0 42 10
-0.441453 -1.279232 -0.242037 255 255 0 42 10
-0.450094 -1.329511 -0.533017 255 255 0 42 10
-0.441358 -1.307652 -0.272038 255 255 0 42 10
-0.418178 -1.242239 -0.358037 255 255 0 42 10
-0.463137 -1.296068 -0.324037 255 255 0 42 10
-0.478061 -1.311298 -0.458037 255 255 0 42 10
-0.370726 -1.291174 -0.452037 255 255 0 42 10
-0.393492 -1.245983 -0.498037 255 255 0 42 10
-0.475534 -1.315924 -0.424037 255 255 0 42 10
-0.379469 -1.295450 -0.503009 255 255 0 42 10
-0.393699 -1.333535 -0.500037 255 255 0 42 10
-0.387595 -1.293723 -0.334037 255 255 0 42 10
-0.377620 -1.315605 -0.434037 255 255 0 42 10
-0.424891 -1.345608 -0.442037 255 255 0 42 10
-0.444438 -1.331756 -0.474037 255 255 0 42 10
-0.422060 -1.264953 -0.208037 255 255 0 42 10
-0.427006 -1.268988 -0.266954 255 255 0 42 10
-0.417748 -1.313895 -0.290038 255 255 0 42 10
-0.399200 -1.326016 -0.456037 255 255 0 42 10
-0.405828 -1.236686 -0.437043 255 255 0 42 10
-0.444078 -1.339687 -0.378037 255 255 0 42 10
-0.423265 -1.251382 -0.331029 255 255 0 42 10
-0.479097 -1.306988 -0.508037 255 255 0 42 10
-0.438634 -1.342929 -0.500037 255 255 0 42 10
-0.405520 -1.275600 -0.284037 255 255 0 42 10
-0.478643 -1.309130 -0.378037 255 255 0 42 10
-0.389838 -1.276890 -0.361038 255 255 0 42 10
-0.393831 -1.325112 -0.364037 255 255 0 42 10
-0.430135 -1.317396 -0.338037 255 255 0 42 10
-0.428051 -1.302763 -0.240037 255 255 0 42 10
-0.451846 -1.328132 -0.420037 255 255 0 42 10
-0.407617 -1.341300 -0.400037 255 255 0 42 10
-0.376729 -1.263319 -0.409714 255 255 0 42 10
-0.383515 -1.253696 -0.462037 255 255 0 42 10
-0.379122 -1.289391 -0.390037 255 255 0 42 10
-0.399804 -1.246825 -0.378037 255 255 0 42 10
-0.415141 -1.309363 -0.318037 255 255 0 42 10
-0.450841 -1.304168 -0.296037 255 255 0 42 10
-0.382782 -1.268165 -0.506037 255 255 0 42 10
-0.471906 -1.316696 -0.530691 255 255 0 42 10
-0.398870 -1.271284 -0.314037 255 255 0 42 10
-0.403020 -1.329293 -0.532941 255 255 0 42 10
-0.476913 -1.313587 -0.484037 255 255 0 42 10
-0.432194 -1.303009 -0.208037 255 255 0 42 10
-0.384336 -1.308728 -0.411009 255 255 0 42 10
-0.464916 -1.307958 -0.346037 255 255 0 42 10
-0.416968 -1.332463 -0.494037 255 255 0 42 10
-0.382792 -1.253366 -0.526037 255 255 0 42 10
-0.417358 -1.277174 -0.238037 255 255 0 42 10
-0.371403 -1.293076 -0.476037 255 255 0 42 10
-0.444667 -1.284739 -0.266037 255 255 0 42 10
-0.379683 -1.296451 -0.532037 255 255 0 42 10
-0.467721 -1.277767 -0.338037 255 255 0 42 10
-0.426785 -1.335285 -0.354037 255 255 0 42 10
-0.379844 -1.277977 -0.434037 255 255 0 42 10
-0.457350 -1.319790 -0.374037 255 255 0 42 10
-0.466445 -1.329479 -0.468037 255 255 0 42 10
-0.451551 -1.317124 -0.330037 255 255 0 42 10
-0.385303 -1.308523 -0.454037 255 255 0 42 10
-0.396027 -1.334869 -0.477866 255 255 0 42 10
-0.405584 -1.298079 -0.280037 255 255 0 42 10
-0.420132 -1.332844 -0.424037 255 255 0 42 10
-0.387928 -1.248669 -0.396992 255 255 0 42 10
-0.395871 -1.305277 -0.352037 255 255 0 42 10
-0.481442 -1.294222 -0.427064 255 255 0 42 10
-0.379603 -1.317914 -0.506037 255 255 0 42 10
-0.426425 -1.333586 -0.392037 255 255 0 42 10
-0.479779 -1.286397 -0.379017 255 255 0 42 10
-0.399532 -1.255165 -0.358037 255 255 0 42 10
-0.482983 -1.291851 -0.465282 255 255 0 42 10
-0.435297 -1.288749 -0.224037 255 255 0 42 10
-0.381388 -1.275619 -0.462037 255 255 0 42 10
-0.394883 -1.242913 -0.420037 255 255 0 42 10
-0.477079 -1.312171 -0.402037 255 255 0 42 10
-0.482860 -1.281652 -0.507023 255 255 0 42 10
-0.432488 -1.333253 -0.457017 255 255 0 42 10
-0.453877 -1.337687 -0.514037 255 255 0 42 10
-0.375918 -1.310519 -0.386037 255 255 0 42 10
-0.446405 -1.331395 -0.400037 255 255 0 42 10
-0.440851 -1.343744 -0.429184 255 255 0 42 10
-0.420882 -1.307508 -0.268037 255 255 0 42 10
-0.413309 -1.319979 -0.356037 255 255 0 42 10
-0.466252 -1.318950 -0.442037 255 255 0 42 10
-0.437987 -1.344352 -0.526037 255 255 0 42 10
-0.398093 -1.325346 -0.410037 255 255 0 42 10
-0.406798 -1.236480 -0.510037 255 255 0 42 10
-0.403123 -1.325182 -0.382037 255 255 0 42 10
-0.396093 -1.308275 -0.324037 255 255 0 42 10
-0.431034 -1.326416 -0.372037 255 255 0 42 10
-0.391354 -1.245548 -0.478037 255 255 0 42 10
-0.409844 -1.342155 -0.453684 255 255 0 42 10
-0.459465 -1.282537 -0.310037 255 255 0 42 10
-0.429833 -1.291904 -0.256037 255 255 0 42 10
-0.424048 -1.283931 -0.205492 255 255 0 42 10
-0.415011 -1.236778 -0.384037 255 255 0 42 10
-0.430790 -1.306026 -0.302037 255 255 0 42 10
-0.406317 -1.330637 -0.514037 255 255 0 42 10
-0.371023 -1.297246 -0.434037 255 255 0 42 10
-0.376101 -1.279601 -0.374037 255 255 0 42 10
-0.393438 -1.245734 -0.448037 255 255 0 42 10
-0.418655 -1.325896 -0.326037 255 255 0 42 10
-0.481230 -1.296312 -0.446037 255 255 0 42 10
-0.400573 -1.288920 -0.321023 255 255 0 42 10
-0.446869 -1.304716 -0.316037 255 255 0 42 10
-0.432668 -1.343721 -0.482037 255 255 0 42 10
-0.463540 -1.320519 -0.514037 255 255 0 42 10
-0.391981 -1.311193 -0.376037 255 255 0 42 10
-0.408490 -1.250433 -0.342037 255 255 0 42 10
-0.390888 -1.315515 -0.490037 255 255 0 42 10
-0.381836 -1.290859 -0.352037 255 255 0 42 10
-0.421278 -1.266116 -0.284037 255 255 0 42 10
-0.466514 -1.305574 -0.364037 255 255 0 42 10
-0.394431 -1.322940 -0.438037 255 255 0 42 10
-0.395545 -1.279765 -0.344037 255 255 0 42 10
-0.408314 -1.257999 -0.322037 255 255 0 42 10
-0.369639 -1.283227 -0.512037 255 255 0 42 10
-0.376292 -1.265455 -0.448037 255 255 0 42 10
-0.444363 -1.292930 -0.282037 255 255 0 42 10
-0.430327 -1.332708 -0.512037 255 255 0 42 10
-0.370690 -1.283003 -0.492672 255 255 0 42 10
-0.407151 -1.281387 -0.300998 255 255 0 42 10
-0.385114 -1.259491 -0.490037 255 255 0 42 10
-0.467791 -1.326192 -0.412037 255 255 0 42 10
-0.372896 -1.274143 -0.396037 255 255 0 42 10
-0.448138 -1.329926 -0.490993 255 255 0 42 10
-0.415391 -1.281682 -0.271001 255 255 0 42 10
-0.427791 -1.301537 -0.283013 255 255 0 42 10
-0.373701 -1.304855 -0.518037 255 255 0 42 10
-0.446764 -1.342698 -0.460037 255 255 0 42 10
-0.374993 -1.306625 -0.490037 255 255 0 42 10
-0.409518 -1.331004 -0.440037 255 255 0 42 10
-0.424142 -1.274750 -0.222037 255 255 0 42 10
-0.389000 -1.330670 -0.518037 255 255 0 42 10
-0.385943 -1.325906 -0.422037 255 255 0 42 10
-0.421437 -1.319739 -0.306037 255 255 0 42 10
-0.419327 -1.334007 -0.534037 255 255 0 42 10
-0.405218 -1.310777 -0.304037 255 255 0 42 10
-0.416101 -1.275396 -0.255252 255 255 0 42 10
-0.436071 -1.321255 -0.356037 255 255 0 42 10
-0.484212 -1.278394 -0.526037 255 255 0 42 10
-0.390839 -1.262363 -0.370998 255 255 0 42 10
-0.391225 -1.276594 -0.328037 255 255 0 42 10
-0.393318 -1.245172 -0.516037 255 255 0 42 10
-0.461000 -1.323103 -0.483046 255 255 0 42 10
-0.372778 -1.298918 -0.402037 255 255 0 42 10
-0.413975 -1.294250 -0.236453 255 255 0 42 10
-0.466576 -1.330097 -0.428038 255 255 0 42 10
-0.436683 -1.314512 -0.288037 255 255 0 42 10
-0.440534 -1.332630 -0.442037 255 255 0 42 10
-0.383564 -1.323205 -0.462037 255 255 0 42 10
-0.411428 -1.296836 -0.296037 255 255 0 42 10
-0.373307 -1.304939 -0.464375 255 255 0 42 10
-0.417434 -1.329767 -0.342037 255 255 0 42 10
-0.422789 -1.345538 -0.502037 255 255 0 42 10
-0.439903 -1.329656 -0.342037 255 255 0 42 10
-0.437424 -1.269903 -0.208037 255 255 0 42 10
-0.425957 -1.302528 -0.224037 255 255 0 42 10
-0.380599 -1.276809 -0.418037 255 255 0 42 10
-0.409834 -1.342113 -0.416037 255 255 0 42 10
-0.464708 -1.330925 -0.526037 255 255 0 42 10
-0.457296 -1.324916 -0.456037 255 255 0 42 10
-0.469332 -1.314198 -0.498037 255 255 0 42 10
-0.387635 -1.256911 -0.419058 255 255 0 42 10
-0.464758 -1.292682 -0.342037 255 255 0 42 10
-0.441015 -1.334890 -0.362037 255 255 0 42 10
-0.448725 -1.313444 -0.345018 255 255 0 42 10
-0.408304 -1.330215 -0.468037 255 255 0 42 10
-0.480583 -1.302583 -0.414037 255 255 0 42 10
-0.478681 -1.310092 -0.438037 255 255 0 42 10
-0.417012 -1.297693 -0.206037 255 255 0 42 10
-0.438733 -1.343395 -0.394037 255 255 0 42 10
-0.481442 -1.294222 -0.516425 255 255 0 42 10
-0.441522 -1.294528 -0.244038 255 255 0 42 10
-0.482769 -1.300462 -0.478037 255 255 0 42 10
-0.385892 -1.292040 -0.376037 255 255 0 42 10
-0.476821 -1.301338 -0.391020 255 255 0 42 10
-0.420552 -1.334815 -0.408037 255 255 0 42 10
-0.430286 -1.313274 -0.323000 255 255 0 42 10
-0.477926 -1.301103 -0.494037 255 255 0 42 10
-0.407629 -1.341352 -0.502037 255 255 0 42 10
-0.449474 -1.326596 -0.386037 255 255 0 42 10
-0.381675 -1.301116 -0.424037 255 255 0 42 10
-0.408137 -1.266793 -0.296037 255 255 0 42 10
-0.384970 -1.263612 -0.397082 255 255 0 42 10
-0.437145 -1.326309 -0.326037 255 255 0 42 10
-0.407553 -1.340997 -0.486037 255 255 0 42 10
-0.387384 -1.265142 -0.352037 255 255 0 42 10
-0.447855 -1.340210 -0.412037 255 255 0 42 10
-0.467371 -1.314597 -0.388037 255 255 0 42 10
-0.423766 -1.244123 -0.344037 255 255 0 42 10
-0.400537 -1.303241 -0.338037 255 255 0 42 10
-0.384970 -1.263612 -0.473035 255 255 0 42 10
-0.407764 -1.332374 -0.362052 255 255 0 42 10
-0.457551 -1.297256 -0.307328 255 255 0 42 10
-0.397748 -1.336549 -0.390037 255 255 0 42 10
-0.428401 -1.342886 -0.380037 255 255 0 42 10
-0.392908 -1.320199 -0.474037 255 255 0 42 10
-0.438526 -1.303947 -0.258037 255 255 0 42 10
-0.462394 -1.320040 -0.360037 255 255 0 42 10
-0.380322 -1.285045 -0.522037 255 255 0 42 10
-0.430852 -1.344796 -0.466037 255 255 0 42 10
-0.463069 -1.279726 -0.324037 255 255 0 42 10
-0.434667 -1.333889 -0.420037 255 255 0 42 10
-0.380303 -1.285049 -0.404037 255 255 0 42 10
-0.400484 -1.288503 -0.290038 255 255 0 42 10
-0.406183 -1.342933 -0.528037 255 255 0 42 10
-0.470515 -1.314946 -0.470037 255 255 0 42 10
-0.412781 -1.312906 -0.332037 255 255 0 42 10
-0.379530 -1.291348 -0.464037 255 255 0 42 10
-0.420054 -1.303181 -0.254037 255 255 0 42 10
-0.484627 -1.280346 -0.474037 255 255 0 42 10
-0.412045 -1.342890 -0.432037 255 255 0 42 10
-0.382967 -1.254189 -0.510037 255 255 0 42 10
-0.386075 -1.312449 -0.360037 255 255 0 42 10
-0.416329 -1.343807 -0.388037 255 255 0 42 10
-0.455937 -1.303732 -0.334037 255 255 0 42 10
-0.457670 -1.336293 -0.478037 255 255 0 42 10
-0.383327 -1.323220 -0.408037 255 255 0 42 10
-0.376760 -1.265357 -0.426037 255 255 0 42 10
-0.397666 -1.336565 -0.446037 255 255 0 42 10
-0.395950 -1.247936 -0.434037 255 255 0 42 10
-0.387605 -1.324391 -0.380037 255 255 0 42 10
-0.386009 -1.312462 -0.396037 255 255 0 42 10
-0.373510 -1.306941 -0.446037 255 255 0 42 10
-0.477201 -1.297168 -0.370037 255 255 0 42 10
-0.383334 -1.323254 -0.447797 255 255 0 42 10
-0.391547 -1.256078 -0.385001 255 255 0 42 10
-0.420127 -1.332818 -0.450037 255 255 0 42 10
-0.382841 -1.268152 -0.522037 255 255 0 42 10
-0.453661 -1.332842 -0.368037 255 255 0 42 10
-0.410810 -1.240890 -0.370037 255 255 0 42 10
-0.426810 -1.345018 -0.428037 255 255 0 42 10
-0.453887 -1.337738 -0.432037 255 255 0 42 10
-0.434577 -1.294983 -0.272038 255 255 0 42 10
-0.416508 -1.325413 -0.372037 255 255 0 42 10
-0.477523 -1.304644 -0.526037 255 255 0 42 10
-0.401592 -1.327553 -0.490037 255 255 0 42 10
-0.380471 -1.280925 -0.475011 255 255 0 42 10
-0.393744 -1.318997 -0.350037 255 255 0 42 10
-0.378916 -1.279210 -0.448037 255 255 0 42 10
-0.442485 -1.332191 -0.520037 255 255 0 42 10
-0.428367 -1.333108 -0.474037 255 255 0 42 10
-0.380764 -1.272683 -0.493002 255 255 0 42 10
-0.411474 -1.330583 -0.392037 255 255 0 42 10
-0.484610 -1.280268 -0.394037 255 255 0 42 10
-0.393327 -1.322170 -0.508037 255 255 0 42 10
-0.379053 -1.293494 -0.489094 255 255 0 42 10
-0.444435 -1.331746 -0.506037 255 255 0 42 10
-0.405953 -1.300045 -0.314037 255 255 0 42 10
-0.430532 -1.333669 -0.493054 255 255 0 42 10
-0.473584 -1.276492 -0.354037 255 255 0 42 10
-0.471153 -1.322990 -0.454037 255 255 0 42 10
-0.402478 -1.269027 -0.328037 255 255 0 42 10
-0.421103 -1.255931 -0.318037 255 255 0 42 10
-0.384466 -1.304611 -0.438037 255 255 0 42 10
-0.386217 -1.326731 -0.484037 255 255 0 42 10
-0.426419 -1.333557 -0.436037 255 255 0 42 10
-0.398692 -1.241595 -0.392037 255 255 0 42 10
-0.420055 -1.294000 -0.268037 255 255 0 42 10
-0.420627 -1.344791 -0.488037 255 255 0 42 10
-0.382089 -1.303072 -0.478037 255 255 0 42 10
-0.446851 -1.314252 -0.304037 255 255 0 42 10
-0.445153 -1.296639 -0.206037 255 255 0 42 10
-0.394256 -1.284128 -0.310037 255 255 0 42 10
-0.429417 -1.289950 -0.236037 255 255 0 42 10
-0.450114 -1.281504 -0.278037 255 255 0 42 10
-0.476219 -1.315779 -0.518037 255 255 0 42 10
-0.374843 -1.298478 -0.380037 255 255 0 42 10
-0.385695 -1.310484 -0.516037 255 255 0 42 10
-0.436821 -1.344020 -0.448037 255 255 0 42 10
-0.428777 -1.272702 -0.252037 255 255 0 42 10
-0.411650 -1.278386 -0.226038 255 255 0 42 10
-0.455721 -1.336745 -0.392037 255 255 0 42 10
-0.483521 -1.284757 -0.454037 255 255 0 42 10
-0.448241 -1.320792 -0.364037 255 255 0 42 10
-0.412115 -1.280333 -0.210037 255 255 0 42 10
-0.386616 -1.257128 -0.448037 255 255 0 42 10
-0.457297 -1.324921 -0.404037 255 255 0 42 10
-0.454347 -1.291802 -0.290792 255 255 0 42 10
-0.381380 -1.275581 -0.386037 255 255 0 42 10
-0.436968 -1.330256 -0.384037 255 255 0 42 10
-0.417418 -1.305786 -0.304037 255 255 0 42 10
-0.393381 -1.245466 -0.464699 255 255 0 42 10
-0.446378 -1.340889 -0.484037 255 255 0 42 10
-0.406905 -1.260993 -0.309169 255 255 0 42 10
-0.470359 -1.319069 -0.376037 255 255 0 42 10
-0.379544 -1.291345 -0.442037 255 255 0 42 10
-0.400233 -1.325796 -0.397046 255 255 0 42 10
-0.406392 -1.318353 -0.322037 255 255 0 42 10
-0.404744 -1.327782 -0.350037 255 255 0 42 10
-0.435287 -1.288709 -0.210037 255 255 0 42 10
-0.392834 -1.247627 -0.532037 255 255 0 42 10
-0.394130 -1.292335 -0.348037 255 255 0 42 10
-0.422578 -1.344348 -0.456037 255 255 0 42 10
-0.393329 -1.322176 -0.528037 255 255 0 42 10
-0.421512 -1.286515 -0.246037 255 255 0 42 10
-0.377820 -1.287689 -0.364037 255 255 0 42 10
-0.437989 -1.301414 -0.291000 255 255 0 42 10
-0.387334 -1.313215 -0.424037 255 255 0 42 10
-0.413702 -1.288174 -0.282037 255 255 0 42 10
-0.397780 -1.336541 -0.464037 255 255 0 42 10
-0.424670 -1.344566 -0.400037 255 255 0 42 10
-0.370193 -1.281065 -0.426037 255 255 0 42 10
-0.416005 -1.332667 -0.481069 255 255 0 42 10
-0.405200 -1.329922 -0.420037 255 255 0 42 10
-0.432712 -1.334308 -0.532037 255 255 0 42 10
-0.379441 -1.281143 -0.504037 255 255 0 42 10
-0.440330 -1.283567 -0.254037 255 255 0 42 10
-0.418182 -1.333287 -0.508037 255 255 0 42 10
-0.383159 -1.278308 -0.350037 255 255 0 42 10
-0.404272 -1.320848 -0.370037 255 255 0 42 10
-0.460546 -1.330585 -0.380037 255 255 0 42 10
-0.416805 -1.317185 -0.344037 255 255 0 42 10
-0.446419 -1.331455 -0.454037 255 255 0 42 10
-0.429570 -1.338768 -0.368037 255 255 0 42 10
-0.456529 -1.326098 -0.438037 255 255 0 42 10
-0.397496 -1.245584 -0.406037 255 255 0 42 10
-0.372651 -1.303033 -0.414037 255 255 0 42 10
-0.429987 -1.311872 -0.276037 255 255 0 42 10
-0.441927 -1.343515 -0.514037 255 255 0 42 10
-0.389009 -1.297513 -0.360037 255 255 0 42 10
-0.405799 -1.289853 -0.270037 255 255 0 42 10
-0.388300 -1.303797 -0.342037 255 255 0 42 10
-0.420553 -1.334822 -0.464037 255 255 0 42 10
-0.402066 -1.315183 -0.359012 255 255 0 42 10
-0.457631 -1.307251 -0.322037 255 255 0 42 10
-0.374091 -1.306816 -0.504037 255 255 0 42 10
-0.432488 -1.333253 -0.403018 255 255 0 42 10
-0.453833 -1.337482 -0.500037 255 255 0 42 10
-0.414928 -1.308360 -0.279005 255 255 0 42 10
-0.403261 -1.239276 -0.494037 255 255 0 42 10
-0.370863 -1.293190 -0.522037 255 255 0 42 10
-0.440276 -1.312178 -0.332037 255 255 0 42 10
-0.409305 -1.330003 -0.405044 255 255 0 42 10
-0.435251 -1.317396 -0.300038 255 255 0 42 10
-0.379115 -1.289392 -0.428037 255 255 0 42 10
-0.383627 -1.266912 -0.438037 255 255 0 42 10
-0.422086 -1.332412 -0.522037 255 255 0 42 10
-0.450217 -1.339709 -0.526051 255 255 0 42 10
-0.424345 -1.323805 -0.360037 255 255 0 42 10
-0.375026 -1.265724 -0.466037 255 255 0 42 10
-0.401896 -1.333622 -0.373138 255 255 0 42 10
-0.443200 -1.325933 -0.374037 255 255 0 42 10
-0.398625 -1.337476 -0.412037 255 255 0 42 10
-0.483860 -1.291663 -0.500037 255 255 0 42 10
-0.372387 -1.276510 -0.408037 255 255 0 42 10
-0.437341 -1.298373 -0.232037 255 255 0 42 10
-0.373776 -1.307145 -0.530037 255 255 0 42 10
-0.383446 -1.323777 -0.496037 255 255 0 42 10
-0.424785 -1.345114 -0.530398 255 255 0 42 10
-0.470145 -1.312980 -0.412037 255 255 0 42 10
-0.442883 -1.343681 -0.472037 255 255 0 42 10
-0.455755 -1.336900 -0.466037 255 255 0 42 10
-0.381673 -1.301116 -0.392037 255 255 0 42 10
-0.385727 -1.310477 -0.466037 255 255 0 42 10
-0.427408 -1.328596 -0.334037 255 255 0 42 10
-0.394059 -1.298483 -0.316037 255 255 0 42 10
-0.381449 -1.270494 -0.368037 255 255 0 42 10
-0.471094 -1.300511 -0.354037 255 255 0 42 10
-0.465063 -1.318151 -0.430037 255 255 0 42 10
-0.447372 -1.297374 -0.270037 255 255 0 42 10
-0.384104 -1.251528 -0.408037 255 255 0 42 10
-0.404516 -1.312618 -0.346037 255 255 0 42 10
-0.471198 -1.322980 -0.489403 255 255 0 42 10
-0.483085 -1.282709 -0.424037 255 255 0 42 10
-0.385291 -1.308526 -0.498037 255 255 0 42 10
-0.375798 -1.310544 -0.402037 255 255 0 42 10
-0.477486 -1.304466 -0.468037 255 255 0 42 10
-0.372708 -1.272352 -0.516037 255 255 0 42 10
-0.426497 -1.324303 -0.317125 255 255 0 42 10
-0.455773 -1.327370 -0.508037 255 255 0 42 10
-0.428738 -1.344470 -0.514037 255 255 0 42 10
-0.445004 -1.293788 -0.258037 255 255 0 42 10
-0.407681 -1.307857 -0.292037 255 255 0 42 10
-0.394570 -1.251061 -0.368037 255 255 0 42 10
-0.371516 -1.282828 -0.466037 255 255 0 42 10
-0.419726 -1.330930 -0.382037 255 255 0 42 10
-0.422607 -1.344488 -0.416037 255 255 0 42 10
-0.421466 -1.286523 -0.226038 255 255 0 42 10
-0.459316 -1.334414 -0.412037 255 255 0 42 10
-0.447403 -1.316850 -0.318037 255 255 0 42 10
-0.425335 -1.309221 -0.312037 255 255 0 42 10
-0.482864 -1.291289 -0.390037 255 255 0 42 10
-0.383013 -1.264026 -0.533025 255 255 0 42 10
-0.405190 -1.329875 -0.502037 255 255 0 42 10
-0.398558 -1.337158 -0.520037 255 255 0 42 10
-0.453812 -1.327764 -0.522037 255 255 0 42 10
-0.442485 -1.332190 -0.430037 255 255 0 42 10
-0.452847 -1.313604 -0.356037 255 255 0 42 10
-0.385727 -1.281852 -0.338037 255 255 0 42 10
-0.471198 -1.322980 -0.505554 255 255 0 42 10
-0.459992 -1.318362 -0.348037 255 255 0 42 10
-0.437379 -1.298549 -0.218037 255 255 0 42 10
-0.400826 -1.261247 -0.348037 255 255 0 42 10
-0.396770 -1.285640 -0.334037 255 255 0 42 10
-0.380836 -1.297204 -0.454037 255 255 0 42 10
-0.407207 -1.246616 -0.356037 255 255 0 42 10
-0.396816 -1.324478 -0.426037 255 255 0 42 10
-0.406687 -1.259965 -0.334037 255 255 0 42 10
-0.380402 -1.295253 -0.410037 255 255 0 42 10
-0.417056 -1.270273 -0.274037 255 255 0 42 10
-0.479228 -1.312661 -0.390037 255 255 0 42 10
-0.446797 -1.304380 -0.284037 255 255 0 42 10
-0.425510 -1.290807 -0.216038 255 255 0 42 10
-0.416971 -1.298733 -0.286037 255 255 0 42 10
-0.404693 -1.289065 -0.310037 255 255 0 42 10
-0.442554 -1.279996 -0.226038 255 255 0 42 10
-0.407130 -1.339008 -0.382037 255 255 0 42 10
-0.442541 -1.303597 -0.304037 255 255 0 42 10
-0.383210 -1.264951 -0.458037 255 255 0 42 10
-0.380419 -1.295249 -0.516037 255 255 0 42 10
-0.389451 -1.287194 -0.324037 255 255 0 42 10
-0.467051 -1.317729 -0.402037 255 255 0 42 10
-0.389068 -1.330215 -0.470037 255 255 0 42 10
-0.394018 -1.312804 -0.338037 255 255 0 42 10
-0.376701 -1.312397 -0.420037 255 255 0 42 10
-0.400991 -1.242790 -0.456037 255 255 0 42 10
-0.409521 -1.331018 -0.456037 255 255 0 42 10
-0.464517 -1.330027 -0.448037 255 255 0 42 10
-0.411311 -1.300961 -0.270037 255 255 0 42 10
-0.379815 -1.258599 -0.500037 255 255 0 42 10
-0.370881 -1.287052 -0.398037 255 255 0 42 10
-0.380828 -1.311465 -0.374037 255 255 0 42 10
-0.418885 -1.336592 -0.362037 255 255 0 42 10
-0.415584 -1.321066 -0.316037 255 255 0 42 10
-0.481349 -1.300376 -0.458037 255 255 0 42 10
-0.442013 -1.288291 -0.234037 255 255 0 42 10
-0.371915 -1.282743 -0.384037 255 255 0 42 10
-0.472848 -1.311507 -0.448037 255 255 0 42 10
-0.383077 -1.254705 -0.480037 255 255 0 42 10
-0.450826 -1.323333 -0.340037 255 255 0 42 10
-0.388502 -1.313977 -0.444037 255 255 0 42 10
-0.405293 -1.339984 -0.474037 255 255 0 42 10
-0.393574 -1.333346 -0.402037 255 255 0 42 10
-0.428254 -1.274858 -0.241048 255 255 0 42 10
-0.476681 -1.305457 -0.428037 255 255 0 42 10
-0.371294 -1.284920 -0.438037 255 255 0 42 10
-0.483096 -1.287736 -0.436037 255 255 0 42 10
-0.456574 -1.326088 -0.472037 255 255 0 42 10
-0.391299 -1.317472 -0.414037 255 255 0 42 10
-0.370291 -1.289222 -0.502037 255 255 0 42 10
-0.419143 -1.284972 -0.260037 255 255 0 42 10
-0.388958 -1.301612 -0.371037 255 255 0 42 10
-0.400458 -1.272588 -0.302037 255 255 0 42 10
-0.392445 -1.250684 -0.488037 255 255 0 42 10
-0.384336 -1.308728 -0.527023 255 255 0 42 10
-0.389047 -1.270923 -0.342037 255 255 0 42 10
-0.382933 -1.321367 -0.516037 255 255 0 42 10
-0.401647 -1.298915 -0.326037 255 255 0 42 10
-0.438579 -1.333055 -0.484037 255 255 0 42 10
-0.421312 -1.237484 -0.370037 255 255 0 42 10
-0.379441 -1.281143 -0.486037 255 255 0 42 10
-0.393245 -1.317059 -0.386037 255 255 0 42 10
-0.470598 -1.325152 -0.478037 255 255 0 42 10
-0.372782 -1.272336 -0.504037 255 255 0 42 10
-0.384408 -1.325070 -0.434037 255 255 0 42 10
-0.457626 -1.336088 -0.489010 255 255 0 42 10
-0.407663 -1.341516 -0.514037 255 255 0 42 10
-0.386005 -1.302239 -0.382037 255 255 0 42 10
-0.391281 -1.317477 -0.456037 255 255 0 42 10
-0.411894 -1.332566 -0.526037 255 255 0 42 10
-0.462957 -1.322687 -0.533033 255 255 0 42 10
-0.393627 -1.265861 -0.361019 255 255 0 42 10
-0.413975 -1.294250 -0.247759 255 255 0 42 10
-0.458921 -1.313323 -0.338327 255 255 0 42 10
-0.403251 -1.239279 -0.426037 255 255 0 42 10
-0.400903 -1.309711 -0.314037 255 255 0 42 10
-0.399757 -1.242065 -0.484037 255 255 0 42 10
-0.427841 -1.321012 -0.348037 255 255 0 42 10
-0.389344 -1.330155 -0.454037 255 255 0 42 10
-0.393416 -1.333380 -0.530037 255 255 0 42 10
-0.478051 -1.301077 -0.402037 255 255 0 42 10
-0.391624 -1.319448 -0.402037 255 255 0 42 10
-0.371706 -1.278698 -0.456037 255 255 0 42 10
-0.422134 -1.303782 -0.294037 255 255 0 42 10
-0.371027 -1.297246 -0.390037 255 255 0 42 10
-0.430755 -1.334723 -0.446037 255 255 0 42 10
-0.387172 -1.283589 -0.369035 255 255 0 42 10
-0.468091 -1.308363 -0.376037 255 255 0 42 10
-0.460799 -1.322155 -0.420037 255 255 0 42 10
-0.437500 -1.308733 -0.312037 255 255 0 42 10
-0.463934 -1.288810 -0.332037 255 255 0 42 10
-0.387880 -1.248446 -0.426037 255 255 0 42 10
-0.377651 -1.314240 -0.460037 255 255 0 42 10
-0.454501 -1.287680 -0.302037 255 255 0 42 10
-0.401122 -1.299026 -0.294037 255 255 0 42 10
-0.377749 -1.263101 -0.514037 255 255 0 42 10
-0.411196 -1.325511 -0.334037 255 255 0 42 10
-0.379336 -1.317971 -0.488037 255 255 0 42 10
-0.440537 -1.332644 -0.464037 255 255 0 42 10
-0.440536 -1.332641 -0.410037 255 255 0 42 10
-0.414685 -1.343171 -0.444037 255 255 0 42 10
-0.381711 -1.272482 -0.402037 255 255 0 42 10
-0.405191 -1.329888 -0.480037 255 255 0 42 10
-0.464497 -1.320315 -0.463068 255 255 0 42 10
-0.448678 -1.342080 -0.401652 255 255 0 42 10
-0.384312 -1.302599 -0.352037 255 255 0 42 10
-0.431242 -1.308151 -0.266037 255 255 0 42 10
-0.398078 -1.325281 -0.518037 255 255 0 42 10
-0.399315 -1.338259 -0.492037 255 255 0 42 10
-0.380592 -1.319748 -0.388037 255 255 0 42 10
-0.480319 -1.298550 -0.381489 255 255 0 42 10
-0.438488 -1.332623 -0.352037 255 255 0 42 10
-0.454618 -1.297879 -0.318037 255 255 0 42 10
-0.439590 -1.318568 -0.344037 255 255 0 42 10
-0.395159 -1.311543 -0.366037 255 255 0 42 10
-0.402840 -1.286393 -0.280037 255 255 0 42 10
-0.409941 -1.270571 -0.306037 255 255 0 42 10
-0.401402 -1.278520 -0.322037 255 255 0 42 10
-0.405294 -1.249068 -0.366037 255 255 0 42 10
-0.397449 -1.240511 -0.506037 255 255 0 42 10
-0.385156 -1.269706 -0.378037 255 255 0 42 10
-0.420419 -1.262210 -0.294037 255 255 0 42 10
-0.397563 -1.285470 -0.300038 255 255 0 42 10
-0.428254 -1.274858 -0.208900 255 255 0 42 10
-0.395489 -1.322716 -0.497017 255 255 0 42 10
-0.416005 -1.332667 -0.352784 255 255 0 42 10
-0.459649 -1.321345 -0.386037 255 255 0 42 10
-0.470120 -1.312986 -0.510037 255 255 0 42 10
-0.393535 -1.332767 -0.420037 255 255 0 42 10
-0.419475 -1.300891 -0.216038 255 255 0 42 10
-0.411674 -1.284516 -0.252037 255 255 0 42 10
-0.391371 -1.245631 -0.384037 255 255 0 42 10
-0.453568 -1.307377 -0.308037 255 255 0 42 10
-0.402397 -1.326360 -0.446037 255 255 0 42 10
-0.428005 -1.331403 -0.344037 255 255 0 42 10
-0.404287 -1.239058 -0.383276 255 255 0 42 10
-0.436167 -1.302465 -0.248037 255 255 0 42 10
-0.409523 -1.282928 -0.291019 255 255 0 42 10
-0.436939 -1.344575 -0.419546 255 255 0 42 10
-0.409930 -1.342137 -0.464037 255 255 0 42 10
-0.383628 -1.266919 -0.418037 255 255 0 42 10
-0.396245 -1.335889 -0.510037 255 255 0 42 10
-0.387563 -1.252836 -0.376037 255 255 0 42 10
-0.389372 -1.255462 -0.518037 255 255 0 42 10
-0.390559 -1.299525 -0.326037 255 255 0 42 10
-0.375651 -1.290128 -0.374037 255 255 0 42 10
-0.462862 -1.331856 -0.514037 255 255 0 42 10
-0.450083 -1.339077 -0.422037 255 255 0 42 10
-0.403504 -1.339414 -0.438037 255 255 0 42 10
-0.399202 -1.272853 -0.337020 255 255 0 42 10
-0.426916 -1.316659 -0.294037 255 255 0 42 10
-0.482983 -1.291851 -0.417166 255 255 0 42 10
-0.481370 -1.300371 -0.436037 255 255 0 42 10
-0.457445 -1.335235 -0.456037 255 255 0 42 10
-0.391657 -1.251966 -0.456037 255 255 0 42 10
-0.444944 -1.276423 -0.260037 255 255 0 42 10
-0.448462 -1.307366 -0.328037 255 255 0 42 10
-0.372174 -1.297001 -0.510037 255 255 0 42 10
-0.374430 -1.306744 -0.430037 255 255 0 42 10
-0.393570 -1.332928 -0.436037 255 255 0 42 10
-0.435011 -1.345125 -0.438037 255 255 0 42 10
-0.473554 -1.322479 -0.390037 255 255 0 42 10
-0.449893 -1.328562 -0.464037 255 255 0 42 10
-0.380735 -1.287003 -0.416037 255 255 0 42 10
-0.457415 -1.335095 -0.402037 255 255 0 42 10
-0.430760 -1.344368 -0.492037 255 255 0 42 10
-0.390502 -1.284926 -0.354037 255 255 0 42 10
-0.431808 -1.291574 -0.246037 255 255 0 42 10
-0.426638 -1.344211 -0.390037 255 255 0 42 10
-0.449893 -1.328560 -0.410037 255 255 0 42 10
-0.407156 -1.329505 -0.430037 255 255 0 42 10
-0.409107 -1.280972 -0.263004 255 255 0 42 10
-0.381001 -1.278767 -0.530037 255 255 0 42 10
-0.470042 -1.323226 -0.522037 255 255 0 42 10
-0.379715 -1.277369 -0.360037 255 255 0 42 10
-0.414671 -1.273655 -0.288037 255 255 0 42 10
-0.446714 -1.340453 -0.440037 255 255 0 42 10
-0.469035 -1.315261 -0.366037 255 255 0 42 10
-0.372159 -1.303138 -0.480037 255 255 0 42 10
-0.446270 -1.340379 -0.388037 255 255 0 42 10
-0.466281 -1.328707 -0.438037 255 255 0 42 10
-0.439867 -1.310251 -0.322037 255 255 0 42 10
-0.398075 -1.325265 -0.466037 255 255 0 42 10
-0.372020 -1.299078 -0.496037 255 255 0 42 10
-0.413303 -1.252619 -0.332037 255 255 0 42 10
-0.372288 -1.296977 -0.424037 255 255 0 42 10
-0.386964 -1.318393 -0.370037 255 255 0 42 10
-0.399698 -1.315686 -0.330037 255 255 0 42 10
-0.399431 -1.245070 -0.524037 255 255 0 42 10
-0.478056 -1.311300 -0.494037 255 255 0 42 10
-0.458835 -1.288805 -0.318037 255 255 0 42 10
-0.380728 -1.287004 -0.454037 255 255 0 42 10
-0.388909 -1.253285 -0.472037 255 255 0 42 10
-0.382099 -1.303071 -0.510037 255 255 0 42 10
-0.418607 -1.335284 -0.398037 255 255 0 42 10
-0.436704 -1.343472 -0.458037 255 255 0 42 10
-0.446371 -1.340855 -0.494037 255 255 0 42 10
-0.432717 -1.334333 -0.522037 255 255 0 42 10
-0.388480 -1.313982 -0.434037 255 255 0 42 10
-0.438579 -1.333052 -0.394037 255 255 0 42 10
-0.416291 -1.343632 -0.406037 255 255 0 42 10
-0.407127 -1.267081 -0.318037 255 255 0 42 10
-0.464888 -1.301831 -0.338037 255 255 0 42 10
-0.477407 -1.284857 -0.369443 255 255 0 42 10
-0.373673 -1.274191 -0.472037 255 255 0 42 10
-0.459319 -1.334432 -0.422037 255 255 0 42 10
-0.414479 -1.315866 -0.300038 255 255 0 42 10
-0.426127 -1.293711 -0.206019 255 255 0 42 10
-0.422460 -1.314937 -0.331017 255 255 0 42 10
-0.449109 -1.296021 -0.302037 255 255 0 42 10
-0.426415 -1.333542 -0.484037 255 255 0 42 10
-0.383095 -1.253787 -0.390037 255 255 0 42 10
-0.380471 -1.280925 -0.395044 255 255 0 42 10
-0.381668 -1.301117 -0.468037 255 255 0 42 10
-0.457297 -1.324918 -0.492037 255 255 0 42 10
-0.371778 -1.301174 -0.454037 255 255 0 42 10
