ply
format ascii 1.0
element vertex 1108
property float x
property float y
property float z
property uchar red
property uchar green
property uchar blue
property uchar semantic_label
property uchar instance_label
end_header
0.704014 -0.052735 -0.195075 202 184 154 5 11
0.831362 0.289901 -0.317279 86 75 61 40 13
0.819514 0.292490 -0.309926 46 47 41 40 13
0.825169 0.302086 -0.305056 92 83 70 40 13
1.089315 0.326735 -0.328661 120 116 109 14 7
1.092604 0.332870 -0.335018 121 118 108 14 7
1.083044 0.308043 -0.321880 191 178 153 14 7
1.090480 0.311035 -0.345692 148 140 123 14 7
0.808588 0.196182 -0.322287 232 213 177 14 7
0.720668 0.048646 -0.366110 144 130 110 14 7
0.732388 0.010868 -0.350482 129 125 110 14 7
0.743189 0.025305 -0.358102 142 134 114 14 7
0.759824 0.035986 -0.361852 147 137 112 14 7
0.727003 0.039238 -0.363772 122 110 97 14 7
0.548573 -0.125524 -0.382961 34 38 36 5 11
0.540606 -0.124566 -0.353886 26 29 28 5 11
0.526094 -0.123474 -0.359983 39 41 42 5 11
0.523097 -0.123620 -0.378328 39 43 45 5 11
0.456609 -0.155498 -0.479769 85 88 88 5 11
0.448046 -0.160347 -0.505791 123 124 124 5 11
0.436741 -0.147415 -0.483094 71 74 77 5 11
0.703105 -0.090589 -0.314241 20 28 40 5 11
0.716004 -0.076902 -0.328050 20 28 40 5 11
0.697326 -0.092452 -0.328173 18 30 44 5 11
0.691666 -0.039123 -0.322188 43 39 34 5 11
0.512465 -0.168638 -0.545166 23 25 23 5 11
1.122872 0.494297 0.110107 214 209 198 40 4
1.101337 0.503940 0.113696 251 247 233 40 4
1.099496 0.501350 0.105909 255 252 238 40 4
1.076631 0.052490 -0.464116 22 23 23 14 7
1.085858 0.059716 -0.474779 13 18 21 14 7
1.068607 0.048272 -0.488455 22 25 25 14 7
1.067959 0.050763 -0.453549 20 24 23 14 7
0.822870 0.061277 -0.321292 237 219 181 14 7
1.037862 0.179224 -0.321470 215 197 165 14 7
0.407174 -0.127468 -0.467341 53 58 57 5 11
0.424075 -0.125487 -0.453253 56 59 59 5 11
0.434533 -0.131331 -0.458927 61 66 65 5 11
0.479298 -0.121686 -0.350501 29 30 33 5 11
0.488966 -0.129286 -0.308167 28 29 30 5 11
0.491179 -0.126448 -0.325605 27 28 30 5 11
0.460951 -0.118708 -0.340578 26 28 30 5 11
0.660999 -0.102850 -0.352407 20 23 23 5 11
0.681084 -0.097038 -0.329866 24 37 53 5 11
0.668596 -0.103822 -0.328935 21 25 37 5 11
0.467908 -0.150011 -0.471151 65 66 67 5 11
0.488275 -0.145910 -0.476909 84 86 87 5 11
0.537723 -0.154037 -0.506796 36 37 37 5 11
0.557925 -0.158345 -0.538428 29 33 31 5 11
0.572658 -0.151660 -0.529876 30 32 30 5 11
0.552407 -0.152685 -0.516806 34 33 35 5 11
0.975324 0.190841 -0.321264 222 202 167 14 7
1.110083 0.496125 -0.027741 52 53 51 40 4
1.114484 0.492767 -0.018812 69 69 68 40 4
1.098476 0.500520 -0.024700 54 55 57 40 4
1.090593 0.506215 -0.019534 53 55 57 40 4
1.095699 0.504902 -0.004455 53 56 58 40 4
1.086032 0.091958 -0.477890 9 13 20 14 7
1.081247 0.094571 -0.452035 16 20 22 14 7
1.088357 0.071257 -0.457939 7 14 21 14 7
1.089117 0.075227 -0.485458 6 13 21 14 7
1.088668 0.079933 -0.435941 9 14 20 14 7
0.694029 -0.046428 -0.260880 76 64 47 5 11
0.685510 -0.035850 -0.277141 83 71 56 5 11
0.690512 -0.042808 -0.275691 56 47 35 5 11
0.679476 -0.024580 -0.264892 61 51 40 5 11
0.551966 -0.138813 -0.470790 39 40 41 5 11
0.530292 -0.143005 -0.469645 40 43 42 5 11
0.554554 -0.130764 -0.434487 35 38 38 5 11
0.540167 -0.131279 -0.436422 41 41 41 5 11
0.850227 0.040705 -0.362897 163 150 126 14 7
0.858545 0.060823 -0.365993 174 154 124 14 7
0.860523 0.028578 -0.358277 138 130 117 14 7
0.870539 0.037108 -0.361406 173 155 130 14 7
0.876451 0.009405 -0.340603 157 146 124 14 7
0.878789 0.015165 -0.347557 170 154 129 14 7
0.856235 0.010837 -0.328511 209 186 151 14 7
0.871474 0.017641 -0.324259 224 203 165 14 7
0.879006 0.009266 -0.334732 184 163 131 14 7
0.679782 -0.030140 -0.519776 2 3 6 5 11
0.480859 -0.123464 -0.408174 36 39 39 5 11
0.480138 -0.122778 -0.394099 38 42 41 5 11
0.480978 -0.120288 -0.381354 38 40 40 5 11
0.776113 0.055242 -0.321759 236 215 179 14 7
0.714074 -0.078950 -0.481781 13 17 22 5 11
0.714034 -0.074032 -0.449639 14 16 22 5 11
1.086471 0.498230 -0.351581 123 116 102 14 7
1.089886 0.489285 -0.348415 123 116 102 14 7
1.083931 0.488511 -0.350261 128 121 104 14 7
1.100402 0.493641 -0.097159 39 40 42 40 4
1.108447 0.481906 -0.122406 38 39 41 40 4
1.112889 0.482729 -0.084133 49 49 46 40 4
1.113312 0.481720 -0.108479 46 46 45 40 4
1.095913 0.492500 -0.125268 29 31 30 40 4
1.088167 0.497559 -0.098304 35 36 38 40 4
0.864649 0.063305 -0.321314 235 215 181 14 7
0.581002 -0.132954 -0.457133 30 34 32 5 11
0.636907 -0.127059 -0.154797 44 52 69 5 11
0.620642 -0.123037 -0.135982 166 157 144 5 11
0.390357 -0.116412 -0.127131 171 161 152 5 11
0.400308 -0.106125 -0.127124 189 178 162 5 11
0.496473 -0.143678 -0.140391 92 112 144 5 11
0.754452 0.021224 -0.355221 122 117 107 14 7
0.664651 0.014537 -0.309317 103 90 69 5 11
0.910162 0.248332 -0.321911 226 203 170 14 7
0.562265 -0.123381 -0.361108 27 30 29 5 11
0.516470 -0.130588 -0.307025 26 27 30 5 11
0.544108 -0.132229 -0.288685 27 31 33 5 11
0.533856 -0.129882 -0.296859 27 29 30 5 11
0.546377 -0.131187 -0.302005 28 29 31 5 11
0.528251 -0.127573 -0.314818 26 27 29 5 11
0.625948 -0.124444 -0.243099 29 28 33 5 11
0.613029 -0.130220 -0.221078 28 29 30 5 11
0.714051 -0.079999 -0.391878 11 18 24 5 11
0.702951 -0.094753 -0.428849 17 26 34 5 11
0.709926 -0.091689 -0.437561 18 26 35 5 11
0.715315 -0.076453 -0.426622 11 14 19 5 11
0.712122 -0.086225 -0.418303 15 20 28 5 11
0.410322 -0.115933 -0.414990 40 46 45 5 11
0.403295 -0.110353 -0.388921 34 36 39 5 11
0.414619 -0.109104 -0.376810 34 35 34 5 11
0.614313 -0.116693 -0.366867 24 26 25 5 11
0.599363 -0.120791 -0.370364 22 26 27 5 11
0.623150 -0.112876 -0.375010 24 26 27 5 11
0.692401 -0.092816 -0.374100 26 42 60 5 11
0.671469 -0.099012 -0.374962 22 26 26 5 11
0.682099 -0.094792 -0.350608 26 40 59 5 11
0.678129 -0.073804 -0.143148 108 108 109 5 11
0.669117 -0.053149 -0.151179 105 103 98 5 11
0.439909 -0.117516 -0.339481 27 29 29 5 11
0.437425 -0.115250 -0.356392 26 27 29 5 11
0.435590 -0.115587 -0.377207 32 32 33 5 11
0.703049 -0.042927 -0.268294 208 188 159 5 11
0.357921 -0.093960 -0.347608 29 31 29 5 11
0.369807 -0.101695 -0.319939 28 30 32 5 11
0.344079 -0.091256 -0.322941 28 30 31 5 11
0.355337 -0.093658 -0.334775 27 27 29 5 11
0.693161 0.215090 -0.322968 237 217 178 14 7
0.699365 -0.045026 -0.233268 144 129 113 5 11
0.709851 -0.059698 -0.222441 195 179 153 5 11
1.107286 0.466984 -0.243848 197 193 179 40 4
0.566256 -0.141069 -0.482351 33 35 33 5 11
0.532765 -0.145550 -0.485852 38 41 38 5 11
0.552182 -0.145984 -0.494100 37 37 36 5 11
0.838765 0.155935 -0.322592 236 215 180 14 7
0.838071 0.176507 -0.322294 235 215 180 14 7
0.943743 0.024106 -0.356332 128 117 97 14 7
0.976073 0.035311 -0.361739 149 135 112 14 7
0.697638 0.029750 -0.361615 108 102 99 14 7
0.686976 0.027086 -0.361230 98 97 93 14 7
0.688269 0.037084 -0.364399 92 86 76 14 7
0.679500 0.045599 -0.361983 68 64 54 14 7
1.083017 0.034792 -0.357828 12 18 23 14 7
1.089585 0.033254 -0.349527 8 15 26 14 7
1.083584 0.048982 -0.368211 12 19 16 14 7
1.053638 0.093267 -0.448915 35 39 37 14 7
1.046959 0.093145 -0.428676 47 48 48 14 7
1.062575 0.105434 -0.418956 76 66 55 14 7
1.050179 0.101597 -0.419857 54 56 59 14 7
1.052136 0.321378 -0.321468 219 201 170 14 7
0.703272 -0.043982 -0.422229 12 16 23 5 11
0.694476 -0.038747 -0.402999 10 11 16 5 11
0.692893 -0.041915 -0.421590 16 16 23 5 11
0.946850 0.036439 -0.320950 233 212 175 14 7
0.947543 0.027047 -0.322017 225 205 167 14 7
0.955552 0.053046 -0.320996 232 212 174 14 7
0.513363 -0.132098 -0.432260 77 81 78 5 11
0.505270 -0.127687 -0.416126 62 64 66 5 11
0.643626 0.058785 -0.539132 7 10 14 5 11
1.065516 0.098277 -0.439460 26 27 27 14 7
1.069132 0.100328 -0.427843 24 22 18 14 7
1.122384 0.494228 0.062831 83 82 83 40 4
1.107508 0.500941 0.062087 127 125 125 40 4
1.110149 0.499146 0.096560 163 164 158 40 4
1.122230 0.494642 0.075040 111 109 106 40 4
1.097728 0.501028 0.086869 255 253 239 40 4
0.609520 -0.117928 -0.389516 26 28 28 5 11
1.086290 0.472916 -0.234559 211 208 193 40 4
1.072475 0.477439 -0.235091 214 209 194 40 4
1.053877 0.481235 -0.250519 219 215 198 40 4
0.584307 -0.141826 -0.175690 37 45 54 5 11
0.594251 -0.138926 -0.158279 36 47 64 5 11
0.938793 0.358111 -0.312315 143 133 112 14 7
0.931675 0.337150 -0.297585 140 134 117 14 7
0.411729 -0.118860 -0.429205 46 49 51 5 11
0.440454 -0.121624 -0.419663 45 48 49 5 11
0.798243 0.152788 -0.322148 236 213 177 14 7
0.767034 0.138618 -0.322138 236 213 174 14 7
1.090846 0.444176 -0.351677 118 114 101 14 7
0.898763 0.328714 -0.317579 102 92 75 14 7
0.971531 0.281948 -0.321823 222 203 173 14 7
0.708680 -0.083574 -0.542615 12 20 28 5 11
0.707836 -0.075659 -0.524694 15 24 29 5 11
0.703706 -0.068084 -0.526967 14 21 29 5 11
0.705458 -0.068326 -0.508154 13 20 26 5 11
0.711450 -0.094536 -0.520070 16 23 31 5 11
0.699902 -0.061883 -0.527462 15 22 29 5 11
1.109708 0.470458 -0.213355 218 214 195 40 4
1.095647 0.187408 -0.334214 56 57 60 14 7
1.095376 0.193937 -0.340309 56 58 59 14 7
1.092990 0.161480 -0.344381 25 34 40 14 7
1.092536 0.185024 -0.345984 41 44 43 14 7
1.090247 0.177814 -0.324066 155 145 126 14 7
1.086734 0.197999 -0.347033 207 185 152 14 7
0.580101 -0.077099 -0.153229 89 82 69 5 11
0.556239 -0.089681 -0.140095 89 82 69 5 11
0.573803 -0.102979 -0.134576 225 212 186 5 11
0.534547 -0.157697 -0.525806 29 31 31 5 11
0.524431 -0.164241 -0.545592 27 28 28 5 11
0.511610 -0.159499 -0.523308 23 28 28 5 11
0.518291 -0.157080 -0.513553 30 31 32 5 11
0.576712 -0.141589 -0.191780 49 52 54 5 11
0.465914 -0.144217 -0.219829 34 33 33 5 11
0.467031 -0.139887 -0.237586 33 34 35 5 11
0.661404 -0.116214 -0.248347 20 24 32 5 11
0.757379 0.245345 -0.322225 231 209 175 14 7
0.788189 0.260731 -0.321552 227 206 173 14 7
0.791205 0.270335 -0.320477 175 158 134 14 7
0.720806 0.120213 -0.322506 234 211 175 14 7
0.741884 0.146794 -0.322427 234 210 174 14 7
0.905413 0.342933 -0.292599 214 212 203 14 7
0.888882 0.343935 -0.314948 126 121 108 14 7
0.911897 0.358312 -0.287325 162 161 153 14 7
0.899212 0.359798 -0.292868 146 146 141 14 7
0.688972 -0.047076 -0.542560 13 13 21 5 11
0.348777 -0.092462 -0.420516 31 32 33 5 11
0.375250 -0.100147 -0.382067 27 28 30 5 11
0.372835 -0.102213 -0.407131 37 40 41 5 11
0.361604 -0.095199 -0.396853 30 31 33 5 11
0.835037 0.305243 -0.315911 148 133 109 14 7
0.851556 0.321216 -0.321685 206 187 157 14 7
0.486764 -0.102136 -0.131770 170 157 143 5 11
0.486733 -0.131788 -0.125640 159 155 154 5 11
0.506766 -0.127836 -0.125817 182 166 149 5 11
0.473364 -0.113651 -0.127010 185 174 153 5 11
1.041899 0.076909 -0.551771 37 37 38 14 7
0.712521 -0.092789 -0.196571 39 40 50 5 11
0.704194 -0.101865 -0.212129 30 36 49 5 11
0.555283 -0.123041 -0.344389 27 28 28 5 11
0.547244 -0.125167 -0.336170 27 28 28 5 11
0.483766 -0.152247 -0.479577 27 28 27 5 11
0.493308 -0.170289 -0.498817 41 43 42 5 11
0.486350 -0.173795 -0.501364 62 62 60 5 11
0.470017 -0.164326 -0.487095 61 61 60 5 11
0.468677 -0.158073 -0.477309 27 29 28 5 11
0.630340 -0.134997 -0.188614 37 37 39 5 11
0.612971 -0.137593 -0.179605 50 52 56 5 11
0.611113 -0.134957 -0.157061 32 46 63 5 11
0.786464 0.062966 -0.363266 138 119 92 14 7
1.038905 0.074322 -0.463813 38 40 37 14 7
0.389926 -0.104406 -0.335514 25 26 28 5 11
0.396783 -0.108746 -0.326448 24 25 27 5 11
0.408531 -0.109857 -0.349742 29 31 29 5 11
0.408617 -0.115373 -0.310714 30 30 31 5 11
0.522610 -0.119789 -0.127299 178 162 138 5 11
0.522696 -0.136112 -0.129196 67 77 100 5 11
0.538900 -0.134970 -0.128683 185 174 157 5 11
0.532929 -0.131074 -0.126934 201 191 166 5 11
0.547079 -0.122276 -0.126920 223 214 199 5 11
0.356536 -0.108594 -0.234573 20 20 23 5 11
0.341116 -0.102935 -0.220168 23 23 26 5 11
0.344503 -0.101676 -0.250541 28 29 30 5 11
0.407135 -0.139237 -0.505759 63 64 66 5 11
0.419610 -0.146938 -0.518146 58 62 64 5 11
0.658651 0.068658 -0.322806 226 206 173 14 7
0.645402 0.100168 -0.322905 237 217 180 14 7
0.413918 -0.138712 -0.163664 66 80 115 5 11
0.431733 -0.115328 -0.124940 178 169 155 5 11
0.429446 -0.129000 -0.127370 163 154 146 5 11
0.415082 -0.121555 -0.124911 140 138 137 5 11
0.411395 -0.128016 -0.130275 97 106 121 5 11
0.715176 -0.051247 -0.326934 62 65 68 5 11
0.694600 -0.033095 -0.338630 40 40 41 5 11
0.703765 -0.036464 -0.343333 28 32 40 5 11
0.696598 -0.030608 -0.328483 37 31 22 5 11
0.686754 -0.037825 -0.307891 31 28 21 5 11
0.699660 -0.027111 -0.326051 87 81 66 5 11
0.389871 -0.109467 -0.421255 43 48 49 5 11
0.406424 -0.119919 -0.444026 48 51 53 5 11
0.394106 -0.114364 -0.435733 49 53 53 5 11
0.694801 -0.049300 -0.457222 10 11 15 5 11
0.690669 -0.040540 -0.444421 2 3 5 5 11
0.686602 -0.037404 -0.476375 3 4 7 5 11
0.685122 -0.033463 -0.459276 1 2 4 5 11
1.092105 0.469426 -0.262990 196 190 175 40 4
1.078680 0.472921 -0.259409 205 199 185 40 4
1.101696 0.469475 -0.267632 188 182 166 40 4
1.088061 0.069330 -0.418605 7 14 21 14 7
1.086407 0.088526 -0.450179 13 18 22 14 7
1.082222 0.093391 -0.426659 16 20 20 14 7
1.087733 0.084674 -0.423485 8 14 21 14 7
1.072515 0.098341 -0.412829 34 37 36 14 7
0.489142 -0.150530 -0.189061 62 67 70 5 11
0.483028 -0.146657 -0.156678 53 68 99 5 11
0.629463 -0.094273 -0.138728 227 210 180 5 11
0.634616 -0.103821 -0.136867 193 180 161 5 11
0.342715 -0.117993 -0.525162 48 53 52 5 11
0.718457 -0.079521 -0.253034 147 137 121 5 11
0.713905 -0.084013 -0.275875 27 32 43 5 11
1.100533 0.496023 -0.075295 35 38 38 40 4
1.112833 0.485360 -0.075106 46 45 47 40 4
1.086073 0.498129 -0.081714 38 40 42 40 4
0.394627 -0.125109 -0.225235 24 25 25 5 11
0.405763 -0.138520 -0.189963 69 71 73 5 11
1.070113 0.031110 -0.359799 24 27 24 14 7
1.044090 0.037041 -0.371173 62 63 66 14 7
1.037067 0.023400 -0.360018 55 54 45 14 7
0.654101 0.160447 -0.539327 14 15 20 5 11
0.855254 0.286098 -0.321844 228 207 172 14 7
0.455829 -0.117846 -0.383828 34 36 40 5 11
0.692193 0.199649 -0.322978 237 217 180 14 7
0.869304 0.115018 -0.321660 239 219 186 14 7
0.639787 0.133036 -0.322382 239 215 174 14 7
0.662470 0.099439 -0.322458 236 214 176 14 7
0.619893 -0.118829 -0.421250 28 29 31 5 11
0.603590 -0.122180 -0.433180 32 33 33 5 11
1.143836 0.462012 -0.206324 204 202 187 40 4
1.150880 0.463475 -0.201427 160 157 143 40 4
1.097080 0.060975 -0.321526 13 19 27 14 7
1.101277 0.067771 -0.330770 21 26 33 14 7
0.788664 0.006532 -0.332588 175 154 122 14 7
0.771816 0.008978 -0.328645 181 159 124 14 7
0.795040 0.005308 -0.338260 169 150 123 14 7
0.438947 -0.156097 -0.538690 58 58 60 5 11
0.435049 -0.156075 -0.525443 58 62 64 5 11
0.423349 -0.137220 -0.146735 83 100 129 5 11
1.047291 0.432839 -0.321549 198 179 149 14 7
1.074501 0.449933 -0.321522 181 166 138 14 7
1.083844 0.415070 -0.324610 114 112 98 14 7
1.089014 0.433916 -0.333314 105 103 92 14 7
1.081908 0.433282 -0.324167 105 103 92 14 7
1.077183 0.405048 -0.321657 191 174 146 14 7
1.089693 0.071341 -0.532105 6 11 19 14 7
0.992488 0.029582 -0.321771 224 205 170 14 7
0.998233 0.037574 -0.320707 229 211 173 14 7
1.012428 0.018329 -0.329172 206 186 152 14 7
0.436224 -0.140745 -0.208916 32 32 33 5 11
0.400713 -0.132155 -0.204610 29 29 31 5 11
0.423211 -0.139586 -0.199035 48 48 51 5 11
0.412286 -0.134043 -0.214373 26 29 30 5 11
0.826985 0.023801 -0.322037 237 216 180 14 7
0.826287 0.029786 -0.321400 240 218 182 14 7
0.781022 0.038497 -0.321910 236 216 174 14 7
0.802970 0.048681 -0.321664 238 218 183 14 7
0.916717 0.058375 -0.367790 139 118 88 14 7
0.902352 0.068842 -0.366851 141 122 94 14 7
0.921259 0.073463 -0.366958 98 88 72 14 7
0.910409 0.073070 -0.369460 112 96 77 14 7
0.324060 -0.083389 -0.287304 24 25 27 5 11
0.327599 -0.081733 -0.306080 24 26 28 5 11
1.085696 0.258522 -0.349074 160 149 128 14 7
1.087035 0.241191 -0.347284 157 144 119 14 7
0.612555 -0.069882 -0.159716 18 21 24 5 11
0.678022 0.146089 -0.322679 235 213 175 14 7
0.706563 0.053851 -0.366671 85 71 56 14 7
0.726852 0.062050 -0.364682 58 49 36 14 7
0.700494 0.043110 -0.364643 121 112 101 14 7
0.704748 -0.041053 -0.405516 11 17 22 5 11
0.689528 -0.034523 -0.405598 12 15 19 5 11
0.923685 0.014151 -0.328813 203 180 144 14 7
0.891860 0.011744 -0.329698 194 173 137 14 7
0.897736 0.009760 -0.338904 170 155 134 14 7
1.010535 0.085553 -0.375694 188 160 121 14 7
1.025935 0.069043 -0.376847 159 137 110 14 7
0.693831 -0.038960 -0.360206 17 23 30 5 11
0.692511 -0.038336 -0.380435 16 22 30 5 11
0.690197 -0.034773 -0.358544 13 15 19 5 11
0.704287 -0.037711 -0.363192 16 22 30 5 11
0.704289 -0.039273 -0.383463 14 18 24 5 11
0.700244 -0.046864 -0.211016 147 137 125 5 11
0.693121 -0.115144 -0.494616 20 28 42 5 11
0.674849 -0.121206 -0.500669 22 32 48 5 11
0.989754 0.051608 -0.320616 230 209 172 14 7
0.700695 0.164784 -0.322648 236 215 178 14 7
0.649141 0.203885 -0.322190 239 218 179 14 7
0.673664 0.042479 -0.322988 232 211 173 14 7
0.659168 0.043525 -0.319790 231 210 173 14 7
0.740065 0.219365 -0.322775 234 214 180 14 7
0.691216 -0.059052 -0.511990 13 14 21 5 11
0.691638 -0.059306 -0.536210 14 14 22 5 11
1.087841 0.168919 -0.349032 139 121 98 14 7
0.696735 -0.051624 -0.538834 16 22 29 5 11
0.431711 -0.150870 -0.498625 67 71 70 5 11
0.415668 -0.136319 -0.486848 67 69 72 5 11
0.400503 -0.133685 -0.497659 68 73 74 5 11
0.520952 -0.127069 -0.397165 35 35 38 5 11
0.525758 -0.127379 -0.412061 30 34 34 5 11
0.533918 -0.125544 -0.393508 28 34 34 5 11
0.777499 0.005583 -0.340452 156 141 119 14 7
0.749382 0.014562 -0.325190 218 196 161 14 7
0.766414 0.004449 -0.336504 154 140 114 14 7
0.741558 0.025312 -0.322994 233 212 177 14 7
0.759209 0.006930 -0.344076 150 137 116 14 7
0.651020 -0.107463 -0.340443 22 25 25 5 11
0.625663 -0.117040 -0.319336 20 24 26 5 11
0.633338 -0.115557 -0.332351 20 24 25 5 11
0.492012 -0.145897 -0.219328 29 32 32 5 11
0.511112 -0.143371 -0.224702 32 33 35 5 11
0.505464 -0.141043 -0.243660 28 31 33 5 11
0.671594 0.000539 -0.543070 12 13 17 5 11
0.685925 -0.020757 -0.543374 13 20 27 5 11
0.500096 -0.178443 -0.538327 16 19 16 5 11
0.327835 -0.089299 -0.130298 97 101 112 5 11
0.322043 -0.076558 -0.132111 199 195 180 5 11
0.680350 -0.019343 -0.444329 3 4 4 5 11
1.054718 0.364962 -0.321450 212 194 163 14 7
0.586664 -0.132755 -0.235710 29 31 35 5 11
0.568590 -0.133619 -0.237613 31 33 36 5 11
0.590689 -0.136245 -0.216061 27 29 31 5 11
0.599010 -0.131821 -0.222606 28 29 31 5 11
0.842433 0.230687 -0.322447 229 207 172 14 7
0.824709 0.213093 -0.322076 232 211 176 14 7
0.385444 -0.102201 -0.368023 34 35 36 5 11
0.377657 -0.099342 -0.348045 26 28 27 5 11
0.414601 -0.109807 -0.362313 26 27 28 5 11
0.399571 -0.106301 -0.375138 31 34 35 5 11
1.091414 0.275745 -0.345425 145 139 123 14 7
1.085136 0.290906 -0.349475 123 119 110 14 7
1.091811 0.296195 -0.330847 117 111 107 14 7
1.071971 0.095786 -0.468641 25 27 25 14 7
1.053158 0.090810 -0.468691 30 34 32 14 7
1.042489 0.082992 -0.461623 34 38 36 14 7
0.567749 -0.141294 -0.149092 45 64 84 5 11
0.546921 -0.140648 -0.139010 63 75 94 5 11
1.079351 0.056399 -0.383679 19 23 24 14 7
1.080626 0.065025 -0.386273 19 24 25 14 7
1.079691 0.057983 -0.396556 16 20 20 14 7
1.071802 0.053373 -0.390797 19 23 22 14 7
0.931633 0.177941 -0.321741 227 204 170 14 7
0.954778 0.153859 -0.321673 229 207 171 14 7
0.504617 -0.174241 -0.532134 20 20 21 5 11
0.494831 -0.176945 -0.527942 17 23 21 5 11
0.495556 -0.174621 -0.509696 13 17 16 5 11
0.506744 -0.123763 -0.370423 43 46 48 5 11
0.629930 -0.112250 -0.388363 25 29 27 5 11
0.654077 -0.105815 -0.387054 25 29 28 5 11
0.639530 -0.110553 -0.399298 26 30 27 5 11
0.715673 -0.087636 -0.233434 28 36 48 5 11
0.696509 -0.104658 -0.235501 23 32 43 5 11
0.710655 -0.094583 -0.215799 30 36 49 5 11
0.368817 -0.104169 -0.443736 45 49 50 5 11
0.363980 -0.099656 -0.422343 50 54 54 5 11
1.111531 0.510592 -0.286595 176 170 158 40 4
1.111059 0.490544 -0.280248 153 147 135 40 4
0.927520 0.280481 -0.321659 225 202 168 14 7
1.013051 0.174665 -0.321236 221 202 171 14 7
0.997973 0.200613 -0.321650 218 201 167 14 7
0.791074 0.047791 -0.365664 155 140 112 14 7
0.800560 0.054126 -0.366138 144 126 102 14 7
0.831726 0.031697 -0.360159 145 134 120 14 7
0.811580 0.052020 -0.366630 169 151 124 14 7
0.812195 0.035994 -0.361601 169 151 124 14 7
0.789883 0.033393 -0.361352 155 140 112 14 7
0.798218 0.094444 -0.321832 236 213 178 14 7
1.083309 0.167576 -0.320956 206 191 162 14 7
1.096511 0.146135 -0.334681 21 29 33 14 7
1.095555 0.147777 -0.340421 57 63 65 14 7
1.086985 0.133392 -0.348260 198 173 142 14 7
1.093718 0.128248 -0.344534 84 82 74 14 7
1.097802 0.120891 -0.339573 111 104 88 14 7
1.093147 0.139604 -0.325375 23 27 35 14 7
1.087616 0.121569 -0.321254 116 110 98 14 7
1.087780 0.148640 -0.321378 188 174 150 14 7
0.452538 -0.126479 -0.299504 25 28 28 5 11
0.430939 -0.119986 -0.309597 28 32 34 5 11
0.575184 -0.137483 -0.220602 26 30 32 5 11
0.673433 0.011359 -0.353885 41 34 24 14 7
0.679622 0.008561 -0.350069 63 61 58 14 7
0.666907 0.021075 -0.318566 154 139 117 14 7
0.620460 -0.143123 -0.535824 32 34 34 5 11
0.553836 -0.144546 -0.167031 48 57 73 5 11
0.546413 -0.143978 -0.151426 45 60 82 5 11
0.521800 -0.147331 -0.168034 44 58 82 5 11
0.573932 -0.131505 -0.272283 29 32 33 5 11
0.587768 -0.130047 -0.258596 30 32 34 5 11
0.567194 -0.134496 -0.258849 28 32 32 5 11
0.579264 -0.131203 -0.282199 26 30 31 5 11
0.716131 0.189994 -0.322536 235 214 178 14 7
0.812315 0.120921 -0.322238 236 214 176 14 7
0.699110 -0.037678 -0.298233 135 121 101 5 11
0.691013 -0.042415 -0.291950 84 73 65 5 11
0.705038 -0.043701 -0.279622 190 174 151 5 11
0.707990 -0.044323 -0.310142 84 80 71 5 11
0.698799 -0.031738 -0.312127 81 75 63 5 11
0.695980 -0.038335 -0.308165 67 59 51 5 11
1.008067 0.079992 -0.320647 224 206 174 14 7
1.058214 0.051305 -0.439596 25 28 26 14 7
1.048622 0.054762 -0.419697 30 31 32 14 7
1.040557 0.064098 -0.414444 36 39 38 14 7
0.549020 -0.085870 -0.146274 148 133 116 5 11
0.543154 -0.093596 -0.136329 231 215 193 5 11
0.666292 -0.121327 -0.206124 28 28 29 5 11
0.645655 -0.125159 -0.219188 26 29 29 5 11
0.654540 0.047209 -0.541906 12 15 21 5 11
0.331027 -0.082367 -0.323884 25 26 28 5 11
0.327093 -0.078415 -0.342282 24 25 27 5 11
1.087167 0.075213 -0.348293 115 99 82 14 7
0.967483 0.317725 -0.321658 225 203 171 14 7
0.984012 0.335474 -0.321504 220 201 169 14 7
0.366826 -0.125578 -0.187790 38 40 39 5 11
0.385489 -0.123345 -0.205505 33 33 33 5 11
0.712893 -0.063984 -0.430866 10 15 21 5 11
0.710521 -0.054685 -0.418475 11 15 20 5 11
0.808649 0.270066 -0.320616 221 201 168 14 7
0.828312 0.279803 -0.319739 201 182 153 14 7
0.703891 -0.054746 -0.465553 9 15 19 5 11
0.702942 -0.048133 -0.451805 10 14 19 5 11
0.717735 -0.075407 -0.312131 56 60 65 5 11
0.712990 -0.056520 -0.296478 160 145 124 5 11
0.942439 0.119603 -0.321535 225 208 173 14 7
0.735087 0.001857 -0.341418 120 116 104 14 7
0.685860 -0.013760 -0.342563 21 17 12 5 11
0.679727 -0.009726 -0.345758 29 29 32 5 11
0.695199 -0.003603 -0.340889 103 97 88 14 7
0.683297 -0.001663 -0.340247 43 36 25 14 7
0.673561 0.002396 -0.315342 102 89 70 5 11
0.674983 0.008861 -0.321152 140 124 104 14 7
0.689920 -0.006210 -0.322808 165 148 119 14 7
0.684249 0.008964 -0.320853 166 151 126 14 7
0.694146 -0.013843 -0.329061 109 96 76 14 7
0.684230 -0.016155 -0.332832 80 68 51 5 11
0.678763 0.001989 -0.328160 80 66 49 5 11
0.450185 -0.120995 -0.322721 24 24 28 5 11
0.461318 -0.119870 -0.329074 31 32 32 5 11
0.670497 0.030633 -0.360417 44 38 28 14 7
0.805172 0.012412 -0.326540 235 213 175 14 7
0.819372 0.007143 -0.334882 168 150 120 14 7
0.834134 0.016059 -0.324297 215 194 156 14 7
0.829944 0.008017 -0.342102 146 135 120 14 7
0.471453 -0.148621 -0.187691 41 42 44 5 11
0.454324 -0.142525 -0.211704 43 45 45 5 11
1.086618 0.322758 -0.349439 143 136 120 14 7
0.486246 -0.175994 -0.546051 27 28 29 5 11
0.534698 -0.135838 -0.255834 29 32 33 5 11
0.556009 -0.132275 -0.271100 26 30 32 5 11
1.134559 0.473716 -0.104691 222 220 204 40 4
1.130963 0.472764 -0.124088 225 220 205 40 4
0.957613 0.252212 -0.322032 224 202 166 14 7
1.001370 0.408057 -0.322019 203 184 150 14 7
1.021661 0.426027 -0.322132 200 182 150 14 7
1.103776 0.475591 -0.205245 160 157 144 40 4
1.091740 0.474064 -0.217463 221 218 200 40 4
1.094450 0.488348 -0.195827 39 39 39 40 4
0.997095 0.235632 -0.321551 221 201 166 14 7
0.848360 0.040686 -0.321545 237 216 177 14 7
0.847129 0.022505 -0.323059 239 218 182 14 7
0.892901 0.027912 -0.322196 241 218 183 14 7
0.657703 -0.127903 -0.497135 30 33 30 5 11
0.650669 -0.131067 -0.508004 28 30 30 5 11
0.661942 -0.120142 -0.477898 21 25 25 5 11
1.101132 0.485819 -0.161976 47 47 45 40 4
1.042927 0.059188 -0.448316 36 39 36 14 7
1.039911 0.066244 -0.455696 37 41 38 14 7
1.049769 0.053315 -0.450223 29 34 31 14 7
1.058565 0.049749 -0.471991 26 27 29 14 7
0.443356 -0.139873 -0.468317 76 78 80 5 11
0.331601 -0.079728 -0.366503 32 34 34 5 11
0.614136 0.121549 -0.318782 202 185 153 14 7
0.395690 -0.120519 -0.256726 22 25 25 5 11
0.432369 -0.130905 -0.259086 34 36 40 5 11
0.988652 0.027441 -0.356561 68 65 60 14 7
0.971172 0.014692 -0.346407 86 83 71 14 7
0.826248 0.259188 -0.321790 227 204 170 14 7
0.794033 0.247438 -0.322327 230 208 173 14 7
0.826033 0.236486 -0.322213 234 211 178 14 7
1.089556 0.418878 -0.351222 113 110 100 14 7
1.089353 0.431454 -0.352582 123 117 107 14 7
0.697828 -0.102297 -0.247281 21 29 41 5 11
0.711076 -0.092995 -0.251609 23 31 46 5 11
0.665915 -0.113980 -0.456991 32 43 67 5 11
0.682599 -0.108404 -0.456991 25 33 49 5 11
0.681298 -0.101651 -0.429459 34 41 64 5 11
0.663554 -0.108928 -0.429909 20 24 31 5 11
1.093466 0.488403 -0.176916 40 41 41 40 4
1.074276 0.495953 -0.181590 39 38 39 40 4
1.090327 0.450659 -0.340146 99 100 92 14 7
1.086891 0.457667 -0.329919 109 102 92 14 7
0.542264 -0.138332 -0.240845 27 30 31 5 11
0.422969 -0.145006 -0.179336 103 105 110 5 11
0.646181 0.162941 -0.321996 237 213 176 14 7
0.925596 0.036789 -0.321569 234 212 174 14 7
0.919708 0.057747 -0.321386 231 210 172 14 7
0.562177 -0.135803 -0.134441 91 98 109 5 11
0.567139 -0.123687 -0.128808 170 164 153 5 11
0.587952 -0.117152 -0.131914 219 202 179 5 11
0.596758 -0.135725 -0.146545 48 65 81 5 11
0.585534 -0.130587 -0.133602 53 68 83 5 11
0.678758 -0.104861 -0.276880 22 30 47 5 11
0.676623 -0.100354 -0.309291 23 33 50 5 11
0.695180 -0.095370 -0.302320 23 33 50 5 11
1.145582 0.462953 -0.190380 187 182 168 40 4
1.149464 0.465997 -0.174958 187 182 168 40 4
0.891758 0.279401 -0.322258 225 202 169 14 7
0.565475 -0.130083 -0.294980 25 29 28 5 11
0.578377 -0.125339 -0.320843 25 29 30 5 11
0.590465 -0.125483 -0.296443 26 28 28 5 11
0.567652 -0.126253 -0.307879 28 29 31 5 11
0.591146 -0.128148 -0.280827 26 29 29 5 11
0.657792 -0.108265 -0.140481 72 81 89 5 11
0.671828 -0.097967 -0.140590 61 71 80 5 11
0.662391 -0.090646 -0.139824 70 80 88 5 11
0.672059 -0.107535 -0.146347 58 67 78 5 11
0.694838 -0.088040 -0.142631 67 77 88 5 11
0.917184 0.008905 -0.336709 188 169 138 14 7
0.950003 0.009248 -0.340910 115 103 85 14 7
0.954123 0.017611 -0.326174 208 185 150 14 7
0.923577 0.008846 -0.341203 63 55 46 14 7
0.678126 -0.031613 -0.204974 15 14 14 5 11
0.671166 -0.027956 -0.195105 12 12 13 5 11
0.710246 -0.097794 -0.464053 16 22 30 5 11
0.714916 -0.091198 -0.475036 15 20 27 5 11
0.713195 -0.092602 -0.505267 18 22 30 5 11
1.130845 0.485670 0.002993 144 141 133 40 4
0.942922 0.340731 -0.317615 199 178 148 14 7
0.945225 0.360448 -0.319031 189 169 140 14 7
0.960156 0.356452 -0.321341 216 195 162 14 7
0.939453 0.328632 -0.318314 206 185 155 14 7
0.957199 0.298876 -0.321499 224 203 170 14 7
0.948115 0.316726 -0.320661 225 202 170 14 7
0.762855 0.216793 -0.322389 232 212 176 14 7
0.623690 0.105267 -0.535937 12 14 20 5 11
0.691100 -0.051535 -0.197314 66 65 68 5 11
0.688442 -0.051615 -0.209918 107 93 73 5 11
0.683891 -0.045121 -0.199396 76 66 52 5 11
0.676593 -0.035393 -0.194857 9 9 12 5 11
0.370337 -0.109504 -0.260078 21 22 23 5 11
0.365949 -0.119712 -0.141469 91 104 126 5 11
0.355779 -0.103047 -0.129770 99 110 128 5 11
0.345670 -0.089611 -0.129290 214 203 187 5 11
0.365842 -0.091847 -0.130977 211 202 183 5 11
0.883228 0.028408 -0.357451 138 129 119 14 7
0.694024 -0.037903 -0.542102 14 19 27 5 11
0.701650 -0.045120 -0.550249 15 23 29 5 11
0.688201 0.141135 -0.543476 12 16 18 5 11
0.678512 0.169326 -0.539675 13 14 19 5 11
0.699978 -0.089473 -0.345150 19 28 40 5 11
0.707151 -0.085715 -0.347435 18 27 38 5 11
0.707873 -0.086326 -0.381491 17 26 37 5 11
0.715697 -0.076795 -0.372177 19 27 37 5 11
0.360625 -0.134974 -0.544654 58 62 60 5 11
1.085771 0.072031 -0.399904 17 21 22 14 7
1.083684 0.086517 -0.406773 16 18 17 14 7
0.768241 0.046811 -0.364968 149 134 109 14 7
0.767141 0.060210 -0.365743 89 77 61 14 7
0.787647 0.056166 -0.367973 146 131 104 14 7
0.746888 0.041350 -0.364122 145 132 109 14 7
0.941539 0.032879 -0.361429 85 80 66 14 7
0.945504 0.011996 -0.346281 97 88 75 14 7
0.690602 -0.048905 -0.236435 49 45 42 5 11
0.693248 -0.051307 -0.219003 112 97 84 5 11
0.683251 -0.040525 -0.229915 101 89 74 5 11
0.686548 -0.043031 -0.249772 95 79 60 5 11
0.375981 -0.114278 -0.461497 59 60 59 5 11
0.384941 -0.117063 -0.463843 52 54 55 5 11
0.469815 -0.171018 -0.503291 70 70 70 5 11
0.449583 -0.158019 -0.493739 69 69 69 5 11
0.706398 -0.101499 -0.181837 30 37 50 5 11
0.712760 -0.092183 -0.172965 31 38 50 5 11
0.660424 -0.132350 -0.531185 27 37 57 5 11
1.126923 0.468273 -0.162092 211 207 191 40 4
1.116854 0.471413 -0.198306 107 107 98 40 4
1.108757 0.476887 -0.174171 132 129 120 40 4
1.135927 0.465225 -0.179353 214 212 197 40 4
1.110897 0.475296 -0.161348 105 104 97 40 4
0.376701 -0.107993 -0.302225 25 27 29 5 11
1.085662 0.510761 0.004406 58 61 59 40 4
1.099817 0.507431 0.023544 62 63 65 40 4
1.111279 0.496749 0.037715 59 60 61 40 4
1.106511 0.498415 -0.000888 56 59 58 40 4
1.109581 0.494785 0.011069 63 62 62 40 4
0.688938 -0.114380 -0.176371 27 36 49 5 11
0.702438 -0.104775 -0.164252 31 39 49 5 11
0.679909 -0.117665 -0.167634 36 43 59 5 11
0.524018 -0.139674 -0.240839 32 32 35 5 11
0.823417 0.050155 -0.365421 133 114 93 14 7
0.839348 0.051713 -0.366477 144 125 102 14 7
0.822655 0.037778 -0.362203 167 147 117 14 7
1.035614 0.071682 -0.320610 218 200 166 14 7
1.061917 0.089611 -0.320751 211 196 164 14 7
0.669165 0.141505 -0.541133 12 14 17 5 11
0.655077 0.134392 -0.541011 12 14 19 5 11
0.467693 -0.131240 -0.285643 30 31 33 5 11
0.432444 -0.127273 -0.277850 34 37 40 5 11
0.480943 -0.134921 -0.272581 34 33 36 5 11
0.456583 -0.133292 -0.269442 40 41 43 5 11
0.453297 -0.133810 -0.258449 39 42 45 5 11
0.475282 -0.135622 -0.260474 25 27 29 5 11
0.371297 -0.119837 -0.501081 55 61 61 5 11
0.679056 -0.028381 -0.238006 79 68 53 5 11
0.677554 -0.030281 -0.219117 83 73 56 5 11
0.422964 -0.120624 -0.437091 52 53 54 5 11
0.447896 -0.119756 -0.403343 42 45 45 5 11
0.697114 0.093542 -0.322859 238 217 179 14 7
0.636143 0.116954 -0.540486 11 14 16 5 11
0.950246 0.226546 -0.322002 224 200 165 14 7
0.412091 -0.129505 -0.227003 21 22 25 5 11
0.420112 -0.127785 -0.246896 26 27 29 5 11
0.448508 -0.140086 -0.228274 26 27 29 5 11
0.414703 -0.127977 -0.240962 28 30 32 5 11
0.692707 -0.109916 -0.207710 20 30 43 5 11
0.909769 0.152176 -0.322072 231 208 175 14 7
0.891430 0.134464 -0.321839 230 209 175 14 7
0.716364 -0.065972 -0.371964 12 18 27 5 11
0.717100 -0.064665 -0.352259 15 22 28 5 11
0.711842 -0.048165 -0.360096 16 23 31 5 11
0.710022 -0.047876 -0.378218 15 21 29 5 11
0.635450 -0.127260 -0.481503 30 34 35 5 11
0.715864 -0.074987 -0.228457 202 182 155 5 11
0.713315 -0.064094 -0.233947 198 181 155 5 11
0.705205 -0.046842 -0.242176 213 196 163 5 11
0.759377 0.166014 -0.322708 235 212 176 14 7
0.732806 0.085766 -0.322300 235 215 180 14 7
0.756222 0.085961 -0.322067 237 216 180 14 7
0.638249 -0.119326 -0.281516 23 27 27 5 11
0.641181 -0.120772 -0.247136 26 27 29 5 11
0.662966 -0.113734 -0.276997 20 24 26 5 11
0.659327 -0.114507 -0.260126 24 29 29 5 11
0.330451 -0.091538 -0.261110 29 29 32 5 11
0.343227 -0.093920 -0.295822 24 25 27 5 11
0.334110 -0.091655 -0.282964 25 25 27 5 11
0.350864 -0.101035 -0.273682 24 24 26 5 11
0.311959 -0.073596 -0.271013 31 33 34 5 11
0.382007 -0.105109 -0.395273 37 41 42 5 11
1.087701 0.358641 -0.348092 143 137 120 14 7
1.125140 0.481755 -0.058899 160 157 145 40 4
1.133571 0.478937 -0.049189 211 207 191 40 4
1.123001 0.482202 -0.040611 195 192 178 40 4
0.510629 -0.135834 -0.278506 26 27 29 5 11
0.492700 -0.135568 -0.282869 42 43 46 5 11
0.517708 -0.136733 -0.256803 27 30 31 5 11
0.503232 -0.133720 -0.289635 31 31 33 5 11
0.499954 -0.137305 -0.268537 30 32 33 5 11
1.117354 0.461112 -0.258677 196 196 181 40 4
1.136124 0.459082 -0.240437 205 203 188 40 4
1.123149 0.464127 -0.224644 207 205 188 40 4
1.074197 0.044271 -0.538005 17 22 21 14 7
1.065773 0.045142 -0.520931 20 22 23 14 7
0.407901 -0.119617 -0.276854 21 22 24 5 11
0.383153 -0.112564 -0.275547 24 25 27 5 11
0.896732 0.315229 -0.321216 219 197 163 14 7
0.903349 0.300538 -0.321807 220 200 166 14 7
0.874776 0.316560 -0.322161 224 203 171 14 7
0.699894 0.212177 -0.541724 12 16 18 5 11
0.472621 -0.146195 -0.206267 33 34 35 5 11
0.675018 -0.019278 -0.526524 3 5 9 5 11
0.683399 -0.029394 -0.540571 4 6 10 5 11
0.673803 -0.011372 -0.537438 2 3 6 5 11
1.035210 0.009480 -0.345634 45 44 38 14 7
1.054221 0.026035 -0.358203 37 36 30 14 7
1.043139 0.076942 -0.536249 33 37 36 14 7
1.045205 0.079467 -0.513308 33 36 38 14 7
0.354367 -0.128920 -0.538665 62 69 69 5 11
0.357515 -0.125041 -0.523437 62 69 69 5 11
0.374993 -0.131116 -0.530161 64 66 69 5 11
0.377649 -0.128249 -0.513362 60 65 63 5 11
1.092439 0.492290 -0.148663 26 27 25 40 4
1.100873 0.488875 -0.141419 37 39 42 40 4
0.923287 0.105055 -0.321959 230 209 172 14 7
0.423499 -0.106032 -0.126926 187 174 156 5 11
0.623577 0.136900 -0.539039 10 17 22 5 11
0.612751 0.127994 -0.534743 13 20 27 5 11
0.497927 -0.124585 -0.392676 40 41 42 5 11
0.950974 0.195829 -0.321665 224 203 167 14 7
0.426978 -0.117150 -0.323642 30 33 34 5 11
0.408004 -0.111124 -0.333794 30 35 34 5 11
0.422347 -0.113173 -0.342178 31 32 32 5 11
0.844285 0.276152 -0.321051 225 204 170 14 7
1.048576 0.037718 -0.320721 227 208 173 14 7
0.709844 -0.106152 -0.511956 14 23 33 5 11
1.051510 0.046280 -0.535066 26 29 27 14 7
0.726208 0.017912 -0.323355 226 202 167 14 7
0.694838 0.013593 -0.324825 210 190 153 14 7
0.703656 0.000853 -0.340858 110 104 97 14 7
0.727639 0.002606 -0.335604 130 114 90 14 7
0.701374 0.003126 -0.331560 105 92 75 14 7
1.079481 0.051882 -0.494222 7 11 19 14 7
1.085702 0.058537 -0.501471 8 13 17 14 7
1.041107 0.453489 -0.320731 192 173 145 14 7
1.071616 0.476740 -0.319613 185 168 141 14 7
0.342087 -0.082908 -0.132070 179 169 156 5 11
0.321290 -0.063942 -0.139981 209 200 182 5 11
0.345308 -0.060206 -0.156167 172 151 128 5 11
0.336902 -0.059882 -0.149982 155 145 135 5 11
0.937280 0.383893 -0.315463 165 150 121 14 7
0.948541 0.383092 -0.321543 187 168 137 14 7
0.938542 0.396211 -0.318930 160 143 117 14 7
0.688052 -0.051781 -0.183798 32 34 36 5 11
0.681916 -0.046591 -0.157349 49 56 60 5 11
0.677457 -0.037783 -0.179562 15 16 17 5 11
0.685706 -0.046533 -0.167266 24 25 28 5 11
0.659615 -0.054679 -0.162987 11 12 12 5 11
0.667813 -0.046331 -0.170793 21 24 26 5 11
0.713700 -0.070493 -0.166123 70 66 60 5 11
0.707659 -0.057521 -0.176456 48 48 52 5 11
0.728170 0.024367 -0.358790 117 110 102 14 7
0.705332 0.019549 -0.356745 110 104 98 14 7
0.706421 0.003497 -0.345212 106 99 92 14 7
0.531612 -0.127207 -0.342592 27 28 30 5 11
0.551062 -0.127242 -0.316877 30 34 34 5 11
0.539078 -0.127870 -0.315967 27 29 31 5 11
0.929164 0.051373 -0.364977 176 155 126 14 7
0.904211 0.046993 -0.363791 190 169 139 14 7
0.952268 0.042235 -0.363712 180 159 133 14 7
0.922417 0.035035 -0.360358 173 154 129 14 7
1.089884 0.459330 -0.351563 128 123 107 14 7
0.516155 -0.125381 -0.344581 41 42 42 5 11
0.492408 -0.121905 -0.354129 35 37 39 5 11
0.492335 -0.122504 -0.367916 45 46 48 5 11
1.095376 0.505453 -1.015224 28 35 38 2 8
0.373067 0.677045 -1.015887 17 20 21 2 8
-0.070738 0.691439 -1.003892 23 25 26 2 8
0.243500 0.069781 -0.940423 51 55 53 5 11
0.237196 0.057918 -0.941192 37 39 39 5 11
0.226338 0.054786 -0.937475 47 48 47 5 11
0.234879 0.058375 -0.954441 45 47 47 5 11
0.247093 0.065754 -0.945692 41 43 42 5 11
0.225081 0.051260 -0.950108 48 50 51 5 11
0.220995 0.070799 -0.943657 34 35 34 5 11
0.216303 0.354543 -1.018393 29 31 33 2 8
0.223408 0.355581 -1.019617 28 30 32 2 8
0.204884 0.348360 -1.018552 27 31 33 2 8
0.209772 0.365970 -1.018315 29 32 34 2 8
0.800134 0.734321 -1.014091 30 33 38 2 8
0.807091 0.757440 -1.013647 27 31 35 2 8
0.301561 0.341324 -1.007617 29 28 28 2 8
0.304253 0.356129 -1.013148 72 77 83 2 8
0.310182 0.368455 -1.023879 78 84 92 2 8
0.316508 0.345043 -1.006763 35 37 36 2 8
0.856534 0.349152 -0.610024 26 26 26 40 1
0.854557 0.362639 -0.606320 19 19 20 40 1
0.347559 0.367931 -1.019338 23 27 29 2 8
-0.022176 0.602175 -1.007474 40 36 29 2 8
-0.036724 0.592727 -1.007002 48 44 37 2 8
0.408851 0.835802 -0.736082 85 84 82 1 3
0.216476 0.826728 -0.942514 164 143 123 1 3
0.564548 0.803791 -0.964580 108 112 110 1 3
0.545498 0.806097 -0.947507 109 112 111 1 3
0.273726 0.572018 -1.020973 26 28 30 2 8
0.316743 0.581099 -1.018425 24 26 28 2 8
0.178549 0.638002 -1.015773 24 28 31 2 8
0.520453 0.100887 -0.874694 27 30 30 5 11
0.510349 0.122744 -0.890661 30 34 34 5 11
0.520969 0.095520 -0.888744 41 47 47 5 11
0.488758 0.630658 -1.014309 49 56 61 2 8
0.481691 0.611294 -1.015537 49 56 61 2 8
0.508721 0.609013 -1.015626 49 57 60 2 8
0.794051 0.816068 -0.786725 114 110 103 1 3
0.791341 0.818842 -0.770804 117 103 91 1 3
0.801933 0.816386 -0.798054 138 119 101 1 3
0.778265 0.815385 -0.782963 84 74 65 1 3
0.692821 0.741535 -1.009294 21 26 29 2 8
0.689829 0.762531 -1.009795 22 26 30 2 8
0.684668 0.744502 -1.004524 23 27 30 2 8
0.677362 0.742290 -1.002246 18 20 25 2 8
0.684161 0.331119 -1.022306 38 43 45 2 8
0.161158 0.814238 -0.962552 159 141 116 1 3
0.172739 0.808229 -0.989102 123 111 96 1 3
0.161059 0.810798 -0.977221 129 114 100 1 3
0.838670 0.509554 -1.000058 33 35 37 2 8
0.834284 0.491465 -1.003234 25 27 28 2 8
0.822557 0.481323 -1.005606 29 32 34 2 8
0.816555 0.497689 -1.002697 27 29 32 2 8
0.433888 0.802331 -1.011051 34 40 46 1 3
0.442384 0.811697 -1.001516 32 39 45 1 3
0.454866 0.791499 -1.013155 22 29 35 2 8
0.060871 0.782467 -1.011250 148 131 105 2 8
0.068363 0.802267 -1.012623 131 114 95 2 8
0.049069 0.791976 -1.013741 151 131 107 2 8
0.067461 0.807096 -1.009263 112 95 80 1 3
0.032107 0.801249 -1.006548 99 82 68 1 3
0.044677 0.798133 -1.012268 44 36 31 1 3
0.039319 0.805711 -0.997530 98 85 76 1 3
0.324390 0.380568 -1.020290 107 113 126 2 8
0.624122 0.187460 -1.001889 20 22 23 2 8
0.628199 0.181760 -1.012045 28 33 33 2 8
0.631439 0.195525 -0.999356 12 15 17 2 8
0.614129 0.181188 -0.996553 11 15 16 5 11
0.631131 0.170554 -1.014575 28 34 34 2 8
0.649034 0.179734 -1.015744 27 33 33 2 8
0.081667 0.808612 -0.945140 146 127 106 1 3
0.073425 0.805087 -0.972658 150 132 110 1 3
0.065188 0.811003 -0.944765 145 128 109 1 3
0.093659 0.810026 -0.943618 158 139 117 1 3
0.877248 0.354149 -1.008490 17 20 21 2 8
0.867187 0.347789 -1.010012 18 20 21 2 8
0.856727 0.354625 -1.016952 26 28 31 2 8
-0.098810 0.820554 -0.909395 139 128 115 1 3
-0.086265 0.830057 -0.920989 165 152 131 1 3
0.392985 0.780324 -1.015429 17 23 24 2 8
0.117482 0.444498 -1.018923 37 39 40 2 8
-0.116109 0.737770 -1.016762 126 109 94 2 8
-0.126999 0.758782 -1.017416 81 69 58 2 8
-0.110358 0.748054 -1.016974 132 116 99 2 8
0.635383 0.813861 -0.826797 136 128 119 1 3
0.637944 0.814549 -0.808896 141 131 117 1 3
0.816480 0.807251 -0.835475 128 113 93 1 3
0.803367 0.809834 -0.823270 118 105 89 1 3
0.809190 0.812993 -0.808593 111 98 84 1 3
0.182405 0.733529 -1.014541 15 18 21 2 8
0.178486 0.716639 -1.015556 20 25 26 2 8
1.039052 0.573313 -1.013910 30 34 33 2 8
1.037620 0.595807 -1.012404 30 35 35 2 8
0.895688 0.713013 -1.004384 27 30 36 2 8
0.900635 0.724326 -1.004756 25 27 31 2 8
0.909768 0.728346 -1.009791 16 18 19 2 8
0.669865 0.192251 -0.969438 12 14 14 5 11
0.832061 0.406976 -1.010796 30 35 38 2 8
0.812604 0.412049 -1.005292 36 39 42 2 8
0.820109 0.391369 -1.008768 30 35 37 2 8
0.608023 0.815545 -0.818251 126 121 117 1 3
0.599254 0.815026 -0.835501 128 126 122 1 3
0.616275 0.817384 -0.793212 122 117 112 1 3
0.592273 0.815937 -0.807235 122 117 112 1 3
0.308938 0.438286 -1.023066 25 29 32 2 8
0.308379 0.453034 -1.022321 24 29 32 2 8
0.603535 0.813846 -0.861185 149 141 129 1 3
0.592843 0.805915 -0.948433 99 101 98 1 3
0.577811 0.805988 -0.945623 100 102 99 1 3
0.609007 0.807280 -0.945659 114 116 113 1 3
0.589601 0.806009 -0.935341 103 105 101 1 3
0.259185 0.813210 -0.785982 126 127 124 1 3
0.257466 0.820266 -0.764306 62 61 60 1 3
0.422161 0.820861 -0.771932 91 90 86 1 3
0.178167 0.352242 -1.020148 32 38 39 2 8
0.168957 0.356783 -1.018681 35 40 42 2 8
0.162346 0.366225 -1.019991 34 36 40 2 8
0.286789 0.807814 -0.989457 149 130 106 1 3
0.293850 0.808971 -0.974829 151 131 108 1 3
0.271182 0.808499 -0.974167 147 127 105 1 3
-0.149176 0.655530 -0.993381 20 20 20 2 8
-0.157242 0.643958 -0.992950 31 31 30 2 8
0.474714 0.297353 -1.015162 38 43 48 2 8
-0.040102 0.558800 -1.015693 26 30 32 2 8
-0.052968 0.561344 -1.014003 25 29 29 2 8
0.729200 0.253499 -1.000741 17 18 17 5 11
0.730874 0.246180 -1.009863 8 9 11 2 8
0.726319 0.248231 -0.989765 29 30 31 5 11
0.608010 0.589091 -1.009735 25 29 34 2 8
0.618601 0.572729 -1.010091 32 38 42 2 8
0.486252 0.057603 -0.891320 20 23 22 5 11
0.457932 0.074979 -0.912874 31 35 31 5 11
0.476088 0.064855 -0.899637 16 18 18 5 11
0.467449 0.079895 -0.904334 15 17 16 5 11
0.475901 0.053868 -0.904153 20 22 21 5 11
0.465963 0.062912 -0.906890 22 23 22 5 11
0.475936 0.069838 -0.890181 24 24 23 5 11
0.481792 0.057578 -0.819548 15 18 19 5 11
0.407020 0.814150 -0.780144 64 59 54 1 3
0.371676 0.824257 -0.762610 43 41 36 1 3
0.387055 0.814212 -0.789355 100 96 92 1 3
0.403583 0.817176 -0.756112 43 41 36 1 3
0.390591 0.818717 -0.763448 63 55 49 1 3
0.374153 0.817805 -0.785143 80 77 70 1 3
0.096974 0.276328 -1.014048 43 48 50 2 8
0.081062 0.259432 -1.009134 33 37 38 2 8
0.407493 0.656578 -1.014772 38 44 48 2 8
0.384935 0.650923 -1.017394 12 14 16 2 8
0.706528 0.524616 -1.008635 32 35 39 2 8
0.674998 0.504248 -1.006543 30 34 38 2 8
0.697000 0.513930 -1.001499 32 37 38 2 8
0.323147 0.524068 -1.021620 24 27 29 2 8
0.337903 0.508034 -1.023582 23 28 30 2 8
0.526765 0.319819 -1.015533 29 34 33 2 8
0.538474 0.350799 -1.016037 34 38 39 2 8
0.557601 0.325220 -1.016052 30 35 34 2 8
0.301529 0.809758 -0.952756 161 138 113 1 3
0.282709 0.813544 -0.957661 146 132 112 1 3
0.277709 0.822321 -0.941354 169 147 119 1 3
0.248335 0.353211 -1.021152 28 32 33 2 8
0.799231 0.802291 -0.966739 49 50 52 1 3
0.756555 0.332441 -1.016329 23 26 27 2 8
0.763736 0.332577 -1.021389 23 27 29 2 8
0.730967 0.815618 -0.843368 48 48 47 1 3
0.712588 0.814227 -0.839956 162 151 138 1 3
0.730432 0.816499 -0.827804 109 102 93 1 3
0.517468 0.813428 -0.917820 135 134 133 1 3
0.508627 0.806324 -0.894425 124 121 119 1 3
0.519100 0.808647 -0.898790 110 110 107 1 3
0.588320 0.182727 -0.962590 24 27 26 5 11
0.615379 0.142987 -0.926209 23 23 23 5 11
0.595447 0.169988 -0.949665 24 24 25 5 11
0.615230 0.167038 -0.939558 25 26 26 5 11
0.886579 0.511288 -1.006417 16 17 19 2 8
0.897483 0.499847 -1.011155 13 14 15 2 8
0.384337 0.265907 -0.980667 16 17 19 2 8
0.444027 0.274375 -1.011910 48 57 60 2 8
0.441688 0.268593 -1.000957 36 40 43 2 8
0.433722 0.297348 -1.003216 22 24 27 2 8
0.437770 0.280738 -1.008358 43 48 51 2 8
0.307539 0.382882 -1.024057 97 103 114 2 8
0.324655 0.390524 -1.023352 123 129 145 2 8
0.305657 0.411557 -1.024201 31 35 39 2 8
0.369628 0.553526 -1.016851 98 103 103 2 8
0.694318 0.812177 -0.838184 165 153 135 1 3
-0.062981 0.800227 -0.998776 56 49 43 2 8
-0.079580 0.788473 -1.011067 76 67 58 2 8
-0.057943 0.789630 -1.005768 102 88 73 2 8
-0.045021 0.785118 -1.011823 102 86 73 2 8
-0.065000 0.783565 -1.012982 102 88 72 2 8
0.812608 0.813850 -0.925698 113 113 109 1 3
0.843851 0.810261 -0.939793 107 106 104 1 3
0.239260 0.472537 -1.023433 26 30 32 2 8
0.242622 0.455182 -1.024292 28 32 34 2 8
0.308363 -0.035251 -1.009997 77 84 87 2 8
0.510740 0.393429 -1.017689 29 33 35 2 8
0.861103 0.423314 -1.015495 29 34 39 2 8
0.830849 0.416953 -1.007478 38 41 46 2 8
0.851864 0.427803 -1.008464 30 33 36 2 8
0.831236 0.433427 -1.009784 36 40 43 2 8
0.513955 0.833807 -0.761282 45 35 32 1 3
0.532612 0.551932 -1.013240 42 50 55 2 8
0.541297 0.570926 -1.014986 42 50 53 2 8
0.816039 0.810378 -0.814358 125 109 89 1 3
0.817236 0.820924 -0.809748 57 50 43 1 3
0.822129 0.811818 -0.826820 129 113 94 1 3
0.813237 0.812737 -0.799782 100 88 73 1 3
0.825497 0.808274 -0.814183 101 89 75 1 3
0.833508 0.813400 -0.830465 134 116 96 1 3
0.242232 0.375911 -1.020442 28 32 34 2 8
0.123076 0.810799 -0.964016 126 114 103 1 3
0.144887 0.806801 -0.982655 89 76 68 1 3
0.111625 0.807389 -0.968270 135 123 105 1 3
0.126304 0.806505 -0.972253 91 78 69 1 3
0.329720 0.808041 -0.996785 23 22 18 1 3
0.326629 0.806203 -1.004152 18 23 25 1 3
0.338843 0.799739 -1.009844 62 55 49 2 8
0.316431 0.785726 -1.014178 24 26 28 2 8
0.298322 0.732262 -1.016294 22 25 28 2 8
0.279124 0.726100 -1.016822 22 26 29 2 8
0.411175 0.584071 -1.014733 40 46 51 2 8
0.685246 0.434728 -1.011515 33 38 40 2 8
0.656111 0.423836 -1.014950 23 24 23 2 8
0.671993 0.419422 -1.012429 27 29 30 2 8
0.792510 0.819790 -0.755405 61 52 43 1 3
0.767629 0.826521 -0.760670 102 89 76 1 3
0.781747 0.829127 -0.751308 96 81 63 1 3
0.499194 0.214097 -1.020584 27 31 33 2 8
0.504290 0.219833 -1.022271 35 41 44 2 8
0.521418 0.243188 -1.018525 35 40 42 2 8
0.510969 0.229134 -1.018618 36 41 42 2 8
0.533890 0.218683 -1.020188 22 26 28 2 8
0.048426 0.580929 -1.018085 37 41 43 2 8
0.138158 0.253902 -1.008391 63 68 65 2 8
0.118977 0.263767 -1.011102 54 58 55 2 8
0.136436 0.267010 -1.009605 38 43 39 2 8
0.027117 0.590604 -1.018131 31 34 38 2 8
0.005850 0.599125 -1.017797 37 41 42 2 8
-0.005153 0.590557 -1.017381 26 30 32 2 8
0.434958 0.741600 -1.014445 40 44 48 2 8
0.226628 0.807127 -0.980835 156 134 109 1 3
0.588596 0.800631 -0.987895 40 43 43 1 3
0.587330 0.803642 -0.966227 66 69 69 1 3
0.612553 0.801842 -0.972590 76 78 78 1 3
0.137387 0.804350 -0.999923 97 83 70 1 3
0.111281 0.801766 -0.984441 104 90 76 1 3
0.105853 0.800734 -1.006618 136 119 101 2 8
0.142861 0.802723 -1.008698 139 121 99 2 8
0.120825 0.797161 -1.008914 121 104 87 2 8
0.125332 0.802603 -1.003317 80 66 54 1 3
0.355720 0.064432 -1.012301 57 66 69 2 8
0.606145 0.179812 -0.952363 16 16 17 5 11
0.605242 0.173472 -0.990929 15 15 15 5 11
0.593938 0.152649 -0.975643 14 16 14 5 11
0.669943 0.814552 -0.812020 107 96 87 1 3
0.684011 0.813239 -0.811871 105 99 95 1 3
0.677861 0.818691 -0.800157 137 129 119 1 3
0.058274 0.324250 -1.013333 28 35 38 2 8
0.087400 0.345471 -1.019307 35 39 42 2 8
0.748335 0.244625 -1.007188 8 9 11 2 8
0.307830 0.221218 -1.011651 29 35 35 2 8
0.320329 0.248838 -1.011516 40 45 48 2 8
0.243694 0.765091 -1.014544 22 26 28 2 8
0.228232 0.281666 -1.008288 22 24 24 2 8
0.231506 0.291405 -1.010596 22 24 25 2 8
0.157138 0.686343 -1.015990 25 29 32 2 8
0.771061 0.431372 -1.014192 39 42 45 2 8
0.748268 0.435038 -1.010786 33 36 39 2 8
0.773931 0.450137 -1.009781 36 40 40 2 8
-0.165962 0.623297 -0.985654 26 26 29 2 8
-0.187189 0.588938 -0.971630 48 43 39 2 8
-0.049056 0.731744 -1.014124 161 144 122 2 8
-0.047338 0.717755 -1.012388 89 81 70 2 8
0.399441 0.623790 -1.014873 44 48 54 2 8
0.383772 0.273717 -0.995642 19 20 22 2 8
0.739833 0.333930 -1.021030 22 25 27 2 8
0.835784 0.588939 -1.001978 23 27 28 2 8
0.851313 0.578938 -0.999045 63 67 66 2 8
0.851519 0.594823 -0.999786 25 28 28 2 8
0.823764 0.593328 -0.994784 24 28 29 2 8
0.417285 0.825474 -0.750545 89 82 74 1 3
0.436834 0.843236 -0.736852 137 121 105 1 3
0.424099 0.829079 -0.743090 98 84 68 1 3
0.422356 0.821516 -0.761329 29 29 20 1 3
0.416255 0.848816 -0.729655 123 109 95 1 3
0.924642 0.447973 -0.609979 78 69 59 40 1
0.940269 0.461351 -0.614377 110 99 86 40 1
0.932433 0.463143 -0.619150 49 50 47 40 1
0.949341 0.449385 -0.605558 77 73 66 40 1
0.911687 0.459935 -0.620174 89 81 71 40 1
0.426474 0.532921 -1.014023 46 52 56 2 8
0.430290 0.508488 -1.015008 46 50 54 2 8
0.423112 0.498678 -1.013984 78 85 87 2 8
0.319554 0.807627 -0.971669 143 125 102 1 3
0.342800 0.808315 -0.960449 154 134 109 1 3
0.338442 0.807877 -0.976638 137 120 98 1 3
0.302630 0.809468 -0.991058 135 120 102 1 3
0.469581 0.641021 -1.014977 47 54 61 2 8
0.490659 0.667443 -1.014330 46 54 60 2 8
