ply
format ascii 1.0
element vertex 1110
property float x
property float y
property float z
property uchar red
property uchar green
property uchar blue
property uchar semantic_label
property uchar instance_label
end_header
-0.838473 0.166591 -0.295474 19 13 11 0 0
-0.843990 0.169664 -0.306448 14 13 14 0 0
-0.843495 0.175438 -0.274729 17 10 5 0 0
-0.823809 0.165243 -0.279885 18 12 8 1 8
-0.842494 0.172281 -0.292416 19 12 13 0 0
-0.793961 0.421766 0.436048 122 59 47 1 8
-0.791387 0.454291 0.458423 126 57 54 1 8
-0.110532 -0.079366 -0.054214 18 16 14 3 1
-0.381232 0.349221 -0.069640 223 219 201 34 2
-0.395613 0.346298 -0.074333 255 254 250 34 2
-0.361337 0.348144 -0.055412 255 254 254 34 2
-0.377007 0.348790 -0.056094 255 254 254 34 2
-0.365470 0.348817 -0.064940 254 253 248 34 2
-0.607489 0.597903 0.406002 83 52 43 19 4
-0.727817 0.505748 0.011592 94 48 41 1 6
-0.726328 0.512048 0.021060 96 49 41 1 6
-0.754342 0.508130 0.016131 92 48 39 1 6
-0.740380 0.500477 0.007858 88 48 25 1 6
-0.317083 0.557003 0.172219 185 180 170 19 4
-0.444569 -0.072889 -0.180282 15 13 11 3 1
-0.405304 -0.077539 -0.158430 15 16 12 3 1
-0.440386 -0.078326 -0.159021 13 14 8 3 1
-0.432641 -0.075273 -0.170459 15 15 9 3 1
-0.588806 -0.024068 -0.009238 154 149 122 3 1
-0.588638 -0.043920 -0.010757 162 151 132 3 1
-0.808671 0.097502 0.393047 131 79 70 1 8
-0.549097 0.493295 0.011117 92 51 34 3 1
-0.562457 0.490487 0.011276 97 52 47 3 1
-0.216749 0.346436 -0.028631 91 86 69 34 2
-0.803550 0.241997 0.518047 133 74 67 1 8
-0.451245 0.353341 -0.041202 105 101 78 34 2
-0.464946 0.352878 -0.034284 154 153 126 34 2
-0.575313 0.333821 -0.102931 255 253 249 34 2
-0.574037 0.319520 -0.112339 191 190 190 34 2
-0.546469 0.328491 -0.106914 243 239 229 34 2
-0.566466 0.328298 -0.106582 255 254 253 34 2
-0.556756 0.324279 -0.107919 255 253 254 34 2
-0.659628 0.511270 0.525542 106 52 43 1 6
-0.662079 0.511920 0.536245 107 48 47 1 6
-0.460658 0.027264 -0.004107 254 253 252 3 1
-0.490246 0.024093 -0.004354 255 253 253 3 1
-0.439819 0.040706 -0.004495 255 255 251 3 1
-0.435841 0.024063 -0.003403 255 254 252 3 1
-0.011590 0.224210 -0.385953 20 21 14 3 1
-0.036673 0.224297 -0.343089 22 19 10 3 1
-0.020333 0.222864 -0.342730 22 18 14 3 1
-0.025369 0.224700 -0.363665 20 21 14 3 1
-0.469120 0.320142 -0.107771 252 250 244 34 2
-0.478232 0.326853 -0.106047 234 228 215 34 2
-0.452163 0.321272 -0.103611 247 246 247 34 2
-0.289707 0.333321 -0.090992 254 254 255 34 2
-0.332198 0.337240 -0.093008 254 254 248 34 2
-0.323325 0.340529 -0.085862 255 254 251 34 2
-0.306745 0.336541 -0.089628 255 255 254 34 2
-0.290300 0.323815 -0.097540 254 254 255 34 2
-0.297759 0.320239 -0.098494 248 245 234 34 2
-0.567897 0.529064 0.335412 124 84 68 19 4
-0.570795 0.518894 0.334527 115 74 53 19 4
-0.604567 0.513592 0.347702 106 64 44 1 6
-0.806801 0.285381 0.094797 133 82 62 1 8
-0.570592 0.512597 0.354750 110 61 43 1 6
-0.585391 0.513652 0.339497 108 62 58 1 6
-0.587826 0.512674 0.349309 112 55 55 1 6
-0.565616 0.521871 0.348111 113 70 50 19 4
-0.807772 0.047067 0.015453 101 53 43 1 8
-0.807355 0.093902 0.008047 145 104 82 1 8
-0.137273 0.232782 0.009423 209 207 168 3 1
-0.174210 0.571872 0.171030 137 129 100 19 4
-0.736254 0.195437 -0.292575 11 15 11 3 1
-0.751632 0.194561 -0.296018 13 13 10 3 1
-0.734578 0.196276 -0.306187 15 7 13 3 1
-0.736861 0.197950 -0.279225 12 11 10 3 1
-0.314849 0.221493 -0.273709 19 15 16 3 1
-0.093780 -0.079845 -0.085125 21 13 9 3 1
-0.078660 -0.080523 -0.052503 13 16 9 3 1
-0.301212 0.397052 0.010878 125 89 75 3 1
-0.757573 0.516836 0.346346 133 96 80 1 6
-0.781285 0.512555 0.339309 161 119 94 1 8
-0.773191 0.516291 0.342371 130 92 73 1 6
-0.756079 0.515652 0.362265 122 84 69 1 6
-0.805638 0.085098 0.001594 89 55 46 1 8
-0.796917 0.059013 -0.005406 112 70 59 3 1
-0.802196 0.081537 -0.002396 97 51 46 1 8
-0.221239 -0.076402 -0.160499 14 16 9 3 1
-0.224249 -0.076957 -0.171369 23 12 13 3 1
-0.243707 -0.076357 -0.173365 9 19 9 3 1
-0.268432 -0.075087 -0.176817 17 15 10 3 1
-0.219550 -0.073079 -0.177431 19 14 9 3 1
-0.804016 0.233415 0.294047 143 85 78 1 8
-0.190855 0.504208 0.038681 250 242 232 1 6
-0.994249 0.058728 0.258797 49 27 20 38 9
-0.992500 0.056727 0.286047 42 25 22 38 9
-0.815473 0.101925 -0.270831 16 10 6 1 8
-0.816983 0.076477 -0.279726 19 10 11 1 8
-0.816318 0.061739 -0.256386 18 13 9 1 8
-0.818004 0.068970 -0.253724 19 14 9 1 8
-0.789213 0.498496 0.015025 87 41 38 1 8
-0.768984 0.503633 0.012144 79 38 20 1 6
-0.771940 0.493836 0.005946 71 31 22 1 6
-0.782254 0.503914 0.015624 76 31 28 1 6
-0.789635 0.506827 0.034937 104 58 43 1 8
-0.777902 0.511321 0.034443 116 71 63 1 6
-0.782520 0.508900 0.026739 122 68 64 1 6
-0.405638 0.214558 -0.273631 13 15 11 3 1
-0.429286 0.214585 -0.272530 16 15 9 3 1
-0.412881 0.203790 -0.267221 16 15 9 3 1
-0.425715 0.204035 -0.264038 15 16 10 3 1
-0.392557 0.204285 -0.267675 14 17 11 3 1
-0.692740 0.007431 -0.009204 150 145 125 3 1
-0.700045 -0.012111 -0.010237 155 144 126 3 1
-0.808467 0.077251 0.200672 120 74 58 1 8
-0.808877 0.059424 0.217047 126 70 63 1 8
-0.807784 0.094057 0.251047 129 75 68 1 8
-0.805600 0.168962 0.112047 111 53 55 1 8
-0.806790 0.136967 0.117048 127 76 63 1 8
-0.806770 0.161526 0.140048 120 64 48 1 8
-0.490313 0.615856 0.134441 36 31 24 19 4
-0.486659 0.609632 0.139462 69 59 47 19 4
-0.486035 0.602295 0.136152 69 59 50 19 4
-0.782180 0.271328 -0.003716 151 117 102 3 1
-0.783277 0.224759 -0.004302 145 110 94 3 1
-0.797148 0.256690 0.001135 113 70 55 3 1
-0.802555 0.251421 0.007724 108 66 48 1 8
-0.802255 0.225764 0.006042 107 63 56 1 8
-0.997458 0.058849 -0.008703 49 21 13 38 9
-0.813647 0.006754 0.527047 124 84 77 1 8
-0.814707 0.004911 0.487172 118 78 73 1 8
-0.814229 0.016910 0.510797 115 68 64 1 8
-0.616464 0.301753 -0.008860 215 208 180 3 1
-0.635890 0.288256 -0.002801 176 172 139 3 1
-0.348727 0.510300 0.138901 228 224 220 1 6
-0.324099 0.507557 0.127506 109 87 74 1 6
-0.323433 0.509951 0.116200 84 43 37 1 6
-0.593874 0.575267 0.262051 120 76 63 19 4
-0.593937 0.570745 0.286581 123 79 69 19 4
-0.159208 -0.073793 -0.009391 144 142 125 3 1
-0.178371 -0.065355 -0.004597 163 159 147 3 1
-0.179375 -0.038065 -0.000582 167 162 147 3 1
-0.175961 -0.055851 -0.002027 163 158 144 3 1
-0.185781 -0.068992 -0.007345 160 159 146 3 1
-0.613202 0.218031 -0.021892 147 146 112 34 2
-0.614056 0.239488 -0.015105 211 206 177 34 2
-0.357158 0.433504 0.023233 201 190 166 34 2
-0.345635 0.438066 0.016417 144 124 102 34 2
-0.372954 0.436182 0.040789 167 158 136 34 2
-0.368935 0.444870 0.028206 255 251 230 34 2
-0.376413 0.455011 0.024164 254 254 248 34 2
-0.361001 0.451502 0.019964 209 199 168 34 2
-0.650446 0.377048 -0.001298 205 197 164 3 1
-0.649218 0.404126 -0.000637 202 182 158 3 1
-1.003556 0.143741 -0.021734 47 25 21 38 9
-1.002656 0.134060 0.003485 47 26 14 38 9
-0.477178 0.521790 0.109114 85 50 48 1 6
-0.460395 0.517089 0.067728 79 48 27 1 6
-0.501227 0.519654 0.066372 80 50 36 1 6
-0.502004 0.520833 0.085599 80 50 36 1 6
-0.178297 -0.077230 -0.085653 16 14 17 3 1
-0.155018 -0.078383 -0.095147 18 14 16 3 1
-0.173879 -0.079074 -0.113141 16 15 10 3 1
-0.599033 0.520284 0.124277 91 42 35 1 6
-0.624468 0.521262 0.117115 90 44 34 1 6
-0.609347 0.519034 0.124730 96 44 30 1 6
-0.346152 -0.028251 -0.003838 204 199 183 3 1
-0.356621 -0.004856 -0.002436 247 244 236 3 1
-0.364628 -0.019493 -0.002997 243 242 229 3 1
-0.601986 0.048987 -0.008028 171 166 143 3 1
-0.623100 0.098098 -0.008095 192 187 166 3 1
-0.627605 0.080274 -0.008090 183 181 150 3 1
-0.778654 0.510928 0.379697 151 98 98 1 6
-0.787978 0.499741 0.395547 118 57 50 1 8
-0.789888 0.490149 0.404047 120 57 53 1 8
-0.775112 0.512049 0.420405 160 110 100 1 6
-0.756157 0.170451 -0.006958 190 174 151 3 1
-0.770455 0.185050 -0.006235 195 182 157 3 1
-0.512340 0.351507 -0.040315 251 249 233 34 2
-0.533500 0.351902 -0.036205 95 92 59 34 2
-0.524342 0.349593 -0.017828 96 92 59 34 2
-1.003684 0.161226 0.020172 48 28 19 38 9
-0.027416 0.220236 -0.313786 16 21 11 3 1
-0.011264 0.210967 -0.294277 19 19 17 3 1
-0.022316 0.214835 -0.298854 15 21 16 3 1
-0.048685 0.211845 -0.297298 14 22 16 3 1
-0.673887 0.518333 0.062028 113 67 51 1 6
-0.685110 0.518077 0.071268 91 45 43 1 6
-0.674092 0.516668 0.034315 103 57 53 1 6
-0.678611 0.490631 0.005397 92 49 35 1 6
-0.673323 0.477708 0.001648 94 47 35 3 1
-0.594542 0.201218 -0.299567 13 12 11 3 1
-0.616475 0.199596 -0.286471 14 13 12 3 1
-0.596131 0.203315 -0.287024 14 11 13 3 1
-0.815305 -0.045884 0.356047 134 96 83 1 8
-0.089726 0.509861 0.123948 61 31 22 1 6
-0.104364 0.508819 0.128991 84 48 31 1 6
-0.057941 0.510900 0.135938 83 63 40 1 6
-0.063208 0.514629 0.149281 102 105 78 1 6
-0.076314 0.510896 0.134841 122 108 79 1 6
-0.072645 0.517080 0.158653 132 123 89 1 6
-0.063943 0.524256 0.169299 140 128 105 1 6
-0.078855 0.517804 0.162436 142 128 97 1 6
-0.198118 0.223001 -0.320871 27 21 20 3 1
-0.107117 -0.077893 -0.177811 17 16 11 3 1
-0.112602 -0.070444 -0.183877 16 16 10 3 1
-0.215477 0.502122 0.084269 70 39 36 1 6
-0.861263 0.137202 -0.274281 15 12 13 0 0
-0.858599 0.152872 -0.275722 12 13 10 0 0
-0.868407 0.158098 -0.290936 17 19 14 0 0
-0.867229 0.151051 -0.289939 15 20 9 0 0
-0.871039 0.160663 -0.280195 16 12 8 0 0
-0.861772 0.151775 -0.282913 18 11 11 0 0
-0.856659 0.166028 -0.294517 19 10 13 0 0
-0.860656 0.157918 -0.301084 19 10 13 0 0
-0.860813 0.150101 -0.294213 20 13 11 0 0
-0.536492 0.204119 -0.307742 16 14 13 3 1
-0.541105 0.208312 -0.294803 19 15 7 3 1
-0.547197 0.203419 -0.300986 16 13 14 3 1
-0.551863 0.465500 0.006725 94 54 45 3 1
-0.697015 0.115088 -0.007593 155 150 127 3 1
-0.712265 0.101802 -0.007390 158 148 125 3 1
-0.723332 0.139088 -0.007103 157 148 134 3 1
-0.807505 0.111079 0.245298 114 58 46 1 8
-1.003923 0.147244 -0.220453 59 37 36 38 9
-0.499167 0.047635 -0.006367 255 253 255 3 1
-0.482155 0.052248 -0.009041 255 253 255 3 1
-0.462925 0.067941 -0.021935 254 251 246 3 1
-0.486238 0.068994 -0.018859 255 253 252 3 1
-0.468604 0.070925 -0.017899 255 254 251 3 1
-0.481999 0.066091 -0.013910 254 252 254 3 1
-0.496747 0.072163 -0.019349 255 254 254 3 1
-0.036992 0.517017 0.163879 126 118 87 1 6
-0.026732 0.513181 0.162901 126 123 87 1 6
-0.028986 0.523333 0.169389 133 128 86 1 6
-0.044045 0.519647 0.167300 134 122 97 1 6
-0.030131 0.511842 0.135107 117 106 78 1 6
-0.052993 0.515651 0.159839 120 109 78 1 6
-0.809066 0.096027 0.586048 142 96 84 1 8
-0.809951 0.081553 0.599048 111 57 47 1 8
-0.807244 0.103110 0.610399 140 89 85 1 8
-0.811116 0.061586 0.585547 112 56 47 1 8
-0.272939 0.315305 -0.098370 254 254 254 34 2
-0.091772 0.384361 0.022359 132 122 104 3 1
-0.074797 0.389428 0.018496 197 178 154 3 1
-0.067485 0.408429 0.017247 202 185 161 3 1
-0.564764 0.556380 0.160657 87 63 45 19 4
-0.328827 0.223917 -0.378466 26 23 17 3 1
-0.367153 0.222268 -0.364177 29 21 18 3 1
-0.351673 0.221403 -0.365974 25 22 20 3 1
-0.345426 0.223070 -0.359307 30 19 19 3 1
-0.442046 0.574104 0.155665 65 48 49 19 4
-0.427603 0.585402 0.169306 70 60 47 19 4
-0.807684 0.100760 -0.357515 18 11 4 1 8
-0.401528 0.219730 -0.319839 22 21 13 3 1
-0.416142 0.220005 -0.306349 25 20 12 3 1
-0.415311 0.219549 -0.323441 23 22 12 3 1
-0.735496 0.001565 -0.009075 152 146 121 3 1
-0.210583 0.339154 -0.049774 254 251 251 34 2
-0.202888 0.343736 -0.035414 158 152 129 34 2
-0.223815 0.344375 -0.043077 171 166 147 34 2
-0.227165 0.336234 -0.055968 255 254 252 34 2
-0.804210 0.192993 0.006184 103 60 38 1 8
-0.803795 0.160008 0.003265 102 56 42 3 1
-0.801737 0.192477 0.002413 107 62 58 3 1
-0.797650 0.168894 -0.001903 107 62 65 3 1
-0.295068 -0.073964 -0.059353 10 16 7 3 1
-0.252318 -0.071665 -0.042341 17 14 15 3 1
-0.326931 -0.022552 -0.001952 219 212 200 3 1
-0.808125 0.068143 0.070047 114 65 49 1 8
-0.810217 0.098613 0.047047 111 70 53 1 8
-0.808003 0.102468 0.065797 101 49 45 1 8
-0.809595 0.085898 0.059041 109 71 53 1 8
-0.807490 0.138771 0.079047 111 62 49 1 8
-0.808114 0.140568 0.064047 111 67 51 1 8
-0.809780 0.144096 0.044262 115 68 58 1 8
-0.431320 0.345899 -0.080350 250 250 244 34 2
-0.607575 0.596946 0.378044 107 73 67 19 4
-0.609408 0.602802 0.366753 120 80 78 19 4
-0.675410 0.524325 0.196367 100 47 38 1 6
-0.698477 0.523011 0.189576 81 38 27 1 6
-0.685049 0.522412 0.179962 162 113 91 1 6
-0.669455 0.527064 0.169523 125 75 52 1 6
-0.997756 0.069901 0.158298 49 24 15 38 9
-0.384065 0.501556 0.042233 255 252 231 1 6
-0.391056 0.501415 0.008895 189 180 170 1 6
-0.380639 0.488080 0.021835 199 196 185 1 6
-0.395280 0.494662 0.029427 246 244 238 1 6
-0.385568 0.490111 0.033428 177 170 151 1 6
-0.387659 0.496580 0.041402 254 250 236 1 6
-0.395836 0.503465 0.049720 254 250 236 1 6
-0.386007 0.488274 0.023937 249 247 240 1 6
-0.379863 0.500124 0.027730 242 233 212 1 6
-0.395785 0.505662 0.019310 201 193 179 1 6
-0.249336 -0.039472 -0.193920 17 15 12 3 1
-0.228737 -0.047012 -0.191457 19 15 12 3 1
-0.237276 -0.065878 -0.183365 17 13 18 3 1
-0.596742 0.578083 0.370643 125 81 73 19 4
-0.605136 0.593637 0.388841 126 87 63 19 4
-0.595721 0.571257 0.393591 122 77 59 19 4
-0.202753 -0.070231 -0.007083 165 161 147 3 1
-0.192407 -0.046047 -0.001641 168 162 140 3 1
-0.204918 -0.058264 -0.003603 156 154 139 3 1
-0.646281 0.516186 0.357262 100 52 51 1 6
-0.625757 0.514336 0.343796 126 79 74 1 6
-0.639095 0.516173 0.343402 154 108 89 1 6
-0.646176 0.515649 0.331018 143 93 86 1 6
-0.658083 0.517586 0.341248 116 67 59 1 6
-0.800270 0.328103 0.228137 121 59 47 1 8
-0.584449 0.558312 0.358955 120 77 70 19 4
-0.315838 0.340339 -0.078393 252 250 243 34 2
-0.289514 0.345998 -0.053860 255 254 254 34 2
-0.303347 0.341306 -0.075713 238 237 230 34 2
-0.312716 0.345185 -0.068053 255 254 252 34 2
-0.301557 0.347403 -0.062917 255 253 255 34 2
-0.589756 0.515293 0.272361 97 35 32 1 6
-0.632853 0.518427 0.275622 101 43 36 1 6
-0.617286 0.517121 0.281275 107 44 42 1 6
-0.605616 0.515683 0.291865 111 54 45 1 6
-0.627797 0.516493 0.289533 119 60 41 1 6
-0.481819 0.520245 0.092024 86 50 38 1 6
-0.480674 0.521946 0.125514 93 55 39 1 6
-0.497263 0.521813 0.120316 94 61 40 1 6
-0.434613 0.532916 0.094693 210 198 183 1 6
-0.420456 0.524193 0.091893 134 121 98 1 6
-0.427868 0.529158 0.074713 234 231 224 1 6
-0.425606 0.525614 0.085564 170 164 149 1 6
-0.429581 0.529525 0.104751 162 146 124 1 6
-0.439188 0.527310 0.105390 145 127 104 1 6
-0.300203 0.221154 -0.305017 24 23 21 3 1
-0.311339 0.222942 -0.284597 20 14 20 3 1
-0.320375 0.224395 -0.293154 19 17 10 3 1
-0.196069 0.348697 -0.093278 205 204 189 34 2
-0.204915 0.346359 -0.088950 173 170 153 34 2
-0.204748 0.349695 -0.097948 181 178 158 34 2
-0.263085 0.225032 -0.319323 23 22 17 3 1
-0.295701 0.226724 -0.346226 24 22 16 3 1
-0.279663 0.224904 -0.322336 27 21 15 3 1
-0.299572 0.226610 -0.323291 29 20 22 3 1
-0.197350 -0.034048 -0.194370 17 17 12 3 1
-0.218721 -0.029113 -0.189587 18 15 13 3 1
-0.205525 -0.028184 -0.187645 19 16 6 3 1
-0.465721 0.215652 -0.270152 17 16 12 3 1
-0.471412 0.209283 -0.261445 18 13 11 3 1
-0.483280 0.211367 -0.268619 19 15 15 3 1
-0.472122 0.211799 -0.271078 19 17 12 3 1
-0.810289 0.057017 0.426047 106 49 52 1 8
-0.808929 0.101530 0.421391 104 49 44 1 8
-0.808426 0.103750 0.443297 138 89 88 1 8
-0.810888 0.067083 0.441547 106 51 42 1 8
-0.806172 0.161797 0.464360 145 92 83 1 8
-0.806745 0.156011 0.490047 168 128 113 1 8
-0.804587 0.177663 0.470047 138 85 73 1 8
-0.718483 0.311357 -0.004419 171 164 133 3 1
-0.747686 0.309685 -0.004361 170 161 140 3 1
-0.791723 0.469727 0.282047 120 70 62 1 8
-0.792513 0.459257 0.296047 141 85 74 1 8
-0.458380 0.414840 0.006541 190 169 147 3 1
-0.475844 0.402741 0.004957 168 143 125 3 1
-0.474353 0.351968 -0.010528 235 235 196 34 2
-0.506925 0.354179 -0.011001 239 235 190 34 2
-0.497488 0.363887 -0.002459 242 237 201 3 1
-0.033273 0.307843 0.015752 223 220 187 3 1
-0.043829 0.296548 0.015556 248 241 199 3 1
-0.067010 0.343474 0.017143 247 239 202 3 1
-0.355782 0.423720 0.024388 231 224 200 34 2
-0.355939 0.402536 0.023716 248 246 231 34 2
-0.361777 0.388948 0.022849 254 254 249 34 2
-0.054481 0.223173 -0.341423 20 19 19 3 1
-0.066244 0.220154 -0.331095 22 19 16 3 1
-0.064809 0.221149 -0.321900 21 18 14 3 1
-0.436168 -0.074581 -0.086777 19 14 14 3 1
-0.439183 -0.071371 -0.052404 17 12 11 3 1
-0.613275 0.239598 -0.034120 135 132 103 34 2
-0.612024 0.220321 -0.050550 202 196 170 34 2
-0.610462 0.232044 -0.045511 225 221 200 34 2
-0.633370 0.200962 -0.257303 14 14 9 3 1
-0.645944 0.196928 -0.255574 7 6 9 3 1
-0.633798 0.201934 -0.265069 15 14 12 3 1
-0.621822 0.204207 -0.277546 14 15 11 3 1
-0.635448 0.204710 -0.270442 14 14 12 3 1
-0.648020 0.205703 -0.264503 8 7 9 3 1
-0.623876 0.201233 -0.257625 8 6 9 3 1
-0.217518 -0.039944 -0.001893 182 176 154 3 1
-0.225399 -0.008655 -0.000037 221 219 198 3 1
-0.257640 -0.022038 -0.001768 198 194 177 3 1
-0.716074 0.020122 -0.008891 149 146 123 3 1
-0.814765 -0.037902 0.438047 102 68 61 1 8
-0.814752 -0.055947 0.426047 102 68 62 1 8
-0.556921 0.422814 0.003473 167 139 118 3 1
-0.989658 -0.015648 0.102047 53 26 20 38 9
-0.684561 0.508944 0.531880 102 46 38 1 6
-0.726870 0.512011 0.530027 115 59 51 1 6
-0.732199 0.512908 0.555799 115 59 51 1 6
-0.717319 0.511569 0.561022 109 60 45 1 6
-0.709650 0.511712 0.533035 156 111 94 1 6
-0.124658 0.224840 -0.359700 25 16 15 3 1
-0.605009 0.511109 0.402953 126 78 63 1 6
-0.808610 0.127070 0.506047 142 92 83 1 8
-0.810124 0.107127 0.514047 162 120 108 1 8
-0.784897 0.415483 0.747735 159 93 78 1 8
-0.800203 0.240591 0.776360 177 110 95 1 8
-0.787641 0.368890 0.745594 166 94 93 1 8
-0.790000 0.360730 0.725047 171 103 99 1 8
-0.785873 0.399717 0.804478 208 162 142 1 8
-0.795819 0.299598 0.670047 160 98 88 1 8
-0.659821 0.513341 0.821879 136 78 68 1 6
-0.655420 0.511489 0.836722 118 53 49 1 6
-0.639512 0.511274 0.837662 161 107 90 1 6
-0.646207 0.511690 0.827581 169 119 106 1 6
-0.661302 0.512012 0.829496 129 60 60 1 6
-0.813133 -0.009447 0.644797 115 82 65 1 8
-0.813812 -0.018922 0.620047 89 42 45 1 8
-0.798089 0.253408 0.697947 143 69 70 1 8
-0.605117 0.587052 0.693864 90 64 56 19 4
-0.595869 0.580100 0.708477 105 67 59 19 4
-0.802308 0.231385 0.632547 188 147 131 1 8
-0.591111 0.571671 0.667745 114 82 69 19 4
-0.589610 0.566323 0.678833 127 93 72 19 4
-0.789129 0.419173 0.664047 153 92 87 1 8
-0.788348 0.437897 0.648623 158 100 96 1 8
-0.788592 0.452192 0.671671 153 92 83 1 8
-0.633931 0.507739 0.695160 150 102 85 1 6
-0.658573 0.512089 0.704329 151 94 79 1 6
-0.641364 0.509038 0.712725 155 102 94 1 6
-0.649688 0.512179 0.687014 153 92 84 1 6
-0.811732 0.037570 0.671298 102 50 42 1 8
-0.583148 0.529219 0.822741 155 96 82 1 6
-0.574315 0.524129 0.804768 167 135 118 1 6
-0.565681 0.524017 0.834414 147 120 107 1 6
-0.603394 0.536434 0.840402 138 63 61 1 6
-0.594509 0.522779 0.821372 138 67 57 1 6
-0.785388 0.473197 0.698349 157 104 88 1 8
-0.787735 0.465098 0.716153 149 85 84 1 8
-0.787483 0.457916 0.683892 139 74 66 1 8
-0.810882 -0.023304 0.756824 82 38 34 1 8
-0.574985 0.555397 0.681227 114 79 70 19 4
-0.578667 0.558417 0.698202 104 67 55 19 4
-0.570100 0.532054 0.713832 114 76 68 19 4
-0.569891 0.541724 0.703093 105 69 58 19 4
-0.791189 0.303448 0.819293 169 111 97 1 8
-0.809037 0.022829 0.785786 108 66 62 1 8
-0.566113 0.533271 0.778574 143 111 96 19 4
-0.570078 0.531014 0.799312 232 204 184 19 4
-0.570106 0.546144 0.794803 130 97 89 19 4
-0.800433 0.217471 0.754092 145 70 62 1 8
-0.568867 0.522020 0.698519 133 97 77 19 4
-0.574399 0.517723 0.691689 134 96 77 1 6
-0.590538 0.513216 0.680840 138 96 83 1 6
-0.596582 0.515642 0.697720 139 88 80 1 6
-0.577301 0.514036 0.670411 133 95 86 1 6
-0.811832 -0.004024 0.700047 107 69 62 1 8
-0.810410 0.024253 0.713294 98 55 41 1 8
-0.810610 0.015939 0.699047 108 69 58 1 8
-0.789943 0.415471 0.610047 141 75 65 1 8
-0.789261 0.429457 0.642047 175 124 107 1 8
-0.789052 0.413779 0.651047 177 127 109 1 8
-0.578765 0.573566 0.800884 92 60 53 19 4
-0.577176 0.570230 0.789098 87 58 46 19 4
-0.583272 0.583905 0.786721 95 67 56 19 4
-0.587897 0.579386 0.807925 126 97 77 19 4
-0.587863 0.591104 0.797533 100 68 63 19 4
-0.804190 0.165105 0.646548 204 158 143 1 8
-0.805487 0.131739 0.669548 148 93 85 1 8
-0.787901 0.298417 0.789559 193 142 125 1 8
-0.789445 0.319075 0.783007 159 88 77 1 8
-0.794713 0.266688 0.814759 166 107 95 1 8
-0.790919 0.280772 0.810604 176 128 111 1 8
-0.788931 0.300849 0.806023 218 176 158 1 8
-0.814107 0.010837 0.621019 124 80 74 1 8
-0.809350 0.052631 0.627269 165 133 119 1 8
-0.802535 0.196566 0.675547 148 85 75 1 8
-0.801880 0.209176 0.658048 181 133 119 1 8
-0.606188 0.514919 0.756731 135 60 49 1 6
-0.617341 0.511898 0.756629 129 59 51 1 6
-0.610991 0.515495 0.767984 137 60 57 1 6
-0.627335 0.516885 0.774332 158 91 79 1 6
-0.627467 0.512310 0.758818 137 60 53 1 6
-0.800343 0.178118 0.731047 140 65 60 1 8
-0.799913 0.184191 0.753400 140 65 58 1 8
-0.798988 0.173699 0.740278 137 65 62 1 8
-0.797109 0.192218 0.773939 147 74 67 1 8
-0.797766 0.195852 0.785961 169 105 100 1 8
-0.798488 0.188521 0.799562 195 138 130 1 8
-0.800963 0.209785 0.804052 176 116 104 1 8
-0.799616 0.217438 0.792595 193 136 124 1 8
-0.635209 0.515737 0.818107 145 82 72 1 6
-0.590839 0.518145 0.810459 153 88 75 1 6
-0.615033 0.515981 0.819020 140 61 62 1 6
-0.622852 0.516649 0.830019 141 75 66 1 6
-0.611842 0.522619 0.832792 140 64 53 1 6
-0.615413 0.529165 0.843987 139 66 49 1 6
-0.622449 0.514706 0.837476 125 59 54 1 6
-0.658386 0.514838 0.797588 153 93 87 1 6
-0.633676 0.513439 0.807631 247 212 199 1 6
-0.642918 0.515745 0.798380 233 195 180 1 6
-0.642779 0.512209 0.783066 170 118 108 1 6
-0.654264 0.512485 0.809670 201 160 152 1 6
-0.801359 0.248360 0.632547 179 125 114 1 8
-0.785606 0.360920 0.782191 179 116 106 1 8
-0.785687 0.381214 0.788398 181 115 110 1 8
-0.604484 0.515669 0.809142 240 207 189 1 6
-0.607911 0.518998 0.799422 239 200 188 1 6
-0.615486 0.514796 0.781935 136 64 60 1 6
-0.626296 0.514616 0.785740 134 67 62 1 6
-0.619946 0.511490 0.808967 170 119 108 1 6
-0.624174 0.512760 0.799961 170 124 112 1 6
-0.796935 0.295917 0.647297 187 139 122 1 8
-0.585119 0.575545 0.755999 126 88 81 19 4
-0.586293 0.581002 0.770960 125 89 78 19 4
-0.576667 0.564850 0.767699 124 91 81 19 4
-0.588968 0.588200 0.743682 132 99 81 19 4
-0.581094 0.579982 0.777763 87 51 54 19 4
-0.695997 0.510137 0.720024 146 90 81 1 6
-0.722615 0.512810 0.728278 144 91 85 1 6
-0.706674 0.513346 0.737972 143 69 57 1 6
-0.793231 0.320087 0.715603 145 75 57 1 8
-0.792234 0.343274 0.717010 166 102 98 1 8
-0.790173 0.318060 0.748944 148 74 71 1 8
-0.791821 0.345233 0.732209 169 101 101 1 8
-0.591392 0.585326 0.751817 154 116 107 19 4
-0.791039 0.374447 0.694047 150 83 79 1 8
-0.790899 0.360904 0.706048 165 99 98 1 8
-0.786747 0.382475 0.810575 178 129 110 1 8
-0.612948 0.509224 0.635188 166 120 96 1 6
-0.591292 0.507646 0.642187 132 80 64 1 6
-0.605114 0.508572 0.615756 157 108 96 1 6
-0.613030 0.508002 0.648335 168 123 103 1 6
-0.796820 0.295888 0.710045 165 99 88 1 8
-0.795797 0.296398 0.685963 160 95 82 1 8
-0.793300 0.312861 0.694723 152 86 80 1 8
-0.813204 0.000410 0.716149 85 38 36 1 8
-0.813281 -0.005893 0.736636 83 36 36 1 8
-0.802506 0.185286 0.670922 173 128 112 1 8
-0.804518 0.160084 0.667971 147 90 82 1 8
-0.801535 0.147294 0.730562 152 90 82 1 8
-0.805606 0.130303 0.735062 149 82 76 1 8
-0.799644 0.219342 0.764044 169 106 94 1 8
-0.799221 0.236682 0.761047 171 101 95 1 8
-0.809384 0.081718 0.782902 135 83 74 1 8
-0.793464 0.361585 0.640048 223 176 157 1 8
-0.794677 0.360984 0.623250 188 137 120 1 8
-0.809175 0.066963 0.684047 127 75 66 1 8
-0.810953 0.041551 0.682807 113 55 53 1 8
-0.810110 0.044724 0.714298 95 49 45 1 8
-0.808891 0.072504 0.703003 108 51 50 1 8
-0.590466 0.571908 0.655190 125 89 79 19 4
-0.597220 0.582420 0.653643 140 107 94 19 4
-0.602691 0.585195 0.684288 115 83 67 19 4
-0.598067 0.586741 0.667904 125 88 71 19 4
-0.626616 0.510213 0.846583 125 64 63 1 6
-0.629305 0.514807 0.842638 125 64 63 1 6
-0.790479 0.398717 0.688047 141 73 65 1 8
-0.788830 0.399040 0.704048 147 74 68 1 8
-0.788757 0.427010 0.687610 155 96 82 1 8
-0.760981 0.508037 0.722515 112 51 42 1 6
-0.760572 0.509907 0.737262 114 51 49 1 6
-0.663019 0.512501 0.681892 137 79 75 1 6
-0.669791 0.509560 0.672330 137 78 75 1 6
-0.677918 0.508872 0.655166 144 87 78 1 6
-0.690130 0.509675 0.659831 129 69 48 1 6
-0.785976 0.468193 0.653547 145 84 74 1 8
-0.572728 0.510437 0.636425 161 120 104 1 6
-0.591462 0.506137 0.626026 157 104 93 1 6
-0.569127 0.528905 0.646880 143 113 97 19 4
-0.568284 0.509311 0.610252 134 101 81 19 4
-0.566425 0.522078 0.626811 129 96 84 19 4
-0.565579 0.523682 0.636142 124 90 71 19 4
-0.580543 0.507526 0.642642 170 124 114 1 6
-0.603775 0.508828 0.654896 140 89 74 1 6
-0.568794 0.513930 0.635038 155 120 105 19 4
-0.570939 0.518766 0.651917 170 132 118 19 4
-0.583941 0.558323 0.663170 129 99 86 19 4
-0.577825 0.550378 0.646997 136 105 93 19 4
-0.569514 0.537100 0.655957 118 86 77 19 4
-0.575790 0.553176 0.671003 116 90 70 19 4
-0.568057 0.537180 0.679448 109 84 65 19 4
-0.570806 0.533295 0.670496 130 97 79 19 4
-0.572405 0.542665 0.660503 116 83 65 19 4
-0.583019 0.559356 0.685273 131 97 79 19 4
-0.778345 0.499002 0.744148 151 106 86 1 8
-0.770142 0.502489 0.728266 149 103 89 1 6
-0.778875 0.493372 0.726169 145 102 87 1 8
-0.782049 0.455016 0.782047 161 94 88 1 8
-0.783048 0.436642 0.790553 159 101 84 1 8
-0.786157 0.416855 0.775892 161 102 86 1 8
-0.785644 0.419205 0.793156 207 156 141 1 8
-0.805180 0.121317 0.714547 143 80 77 1 8
-0.804836 0.112146 0.695797 119 56 56 1 8
-0.804739 0.103503 0.704125 118 59 56 1 8
-0.616929 0.508514 0.691288 119 58 41 1 6
-0.607663 0.513591 0.705927 125 56 59 1 6
-0.782997 0.438381 0.757725 139 72 63 1 8
-0.781401 0.464745 0.763298 160 103 87 1 8
-0.781752 0.438467 0.773502 140 71 66 1 8
-0.782133 0.440939 0.748737 140 76 66 1 8
-0.806708 0.129819 0.624297 151 99 89 1 8
-0.802110 0.218469 0.704854 153 88 80 1 8
-0.800640 0.125206 0.791218 132 66 64 1 8
-0.806717 0.097155 0.803863 176 129 120 1 8
-0.802254 0.129279 0.779474 130 64 57 1 8
-0.805044 0.102449 0.782575 126 59 52 1 8
-0.803879 0.116252 0.806052 176 129 116 1 8
-0.797738 0.250375 0.791000 196 137 123 1 8
-0.796779 0.266900 0.777124 162 84 81 1 8
-0.789195 0.286626 0.787017 187 121 110 1 8
-0.791551 0.277090 0.797263 194 135 118 1 8
-0.791141 0.295583 0.775589 181 116 105 1 8
-0.793244 0.271448 0.803769 217 168 150 1 8
-0.812033 0.000228 0.749771 107 67 66 1 8
-0.808692 0.038619 0.761193 112 65 64 1 8
-0.812530 0.003576 0.767047 105 66 63 1 8
-0.809625 0.076196 0.617684 130 76 69 1 8
-0.807834 0.099950 0.634047 160 114 99 1 8
-0.810383 0.079027 0.640671 151 105 102 1 8
-0.810042 0.056122 0.645921 148 102 98 1 8
-0.795982 0.270219 0.762329 169 97 89 1 8
-0.795221 0.285640 0.759846 175 108 102 1 8
-0.602251 0.593705 0.715870 106 72 61 19 4
-0.607939 0.603058 0.729784 109 76 65 19 4
-0.600069 0.604085 0.740597 126 104 97 19 4
-0.801521 0.251162 0.662308 136 67 59 1 8
-0.801319 0.228684 0.680172 149 87 78 1 8
-0.571267 0.549248 0.747959 138 101 94 19 4
-0.570803 0.556887 0.778672 109 74 62 19 4
-0.563286 0.531558 0.760370 127 93 80 19 4
-0.569871 0.553066 0.764210 118 87 75 19 4
-0.703672 0.506869 0.856297 131 91 84 1 6
-0.786949 0.458962 0.618610 147 80 74 1 8
-0.786434 0.459583 0.634047 147 80 74 1 8
-0.785836 0.477836 0.623047 137 76 61 1 8
-0.813166 -0.032753 0.717196 77 33 34 1 8
-0.665152 0.513432 0.849602 118 51 42 1 6
-0.687761 0.513594 0.853054 96 44 40 1 6
-0.689378 0.510921 0.621559 126 61 60 1 6
-0.704013 0.509922 0.630371 136 78 77 1 6
-0.720185 0.508334 0.630581 142 87 80 1 6
-0.700723 0.509881 0.648288 130 71 65 1 6
-0.592716 0.534933 0.845222 101 52 36 1 6
-0.597687 0.579626 0.625674 59 44 37 19 4
-0.596429 0.583967 0.640318 110 78 58 19 4
-0.776476 0.498616 0.753368 160 106 96 1 8
-0.774248 0.500834 0.767143 155 115 97 1 8
-0.780286 0.489243 0.771376 161 113 99 1 8
-0.781116 0.475998 0.780220 161 115 99 1 8
-0.780749 0.484292 0.753005 158 111 97 1 8
-0.764986 0.508279 0.770066 126 69 64 1 6
-0.801135 0.227198 0.713649 164 100 95 1 8
-0.799029 0.242684 0.699047 146 73 69 1 8
-0.716676 0.510452 0.669572 151 105 89 1 6
-0.721220 0.509026 0.661227 139 93 78 1 6
-0.695918 0.508942 0.663617 120 68 61 1 6
-0.721926 0.510020 0.648312 135 92 77 1 6
-0.706613 0.509484 0.682584 135 83 71 1 6
-0.765733 0.507617 0.755119 117 50 52 1 6
-0.729090 0.512392 0.759336 143 88 76 1 6
-0.752802 0.513801 0.759541 131 70 68 1 6
-0.620565 0.511532 0.714069 125 62 49 1 6
-0.607025 0.513685 0.735779 128 61 59 1 6
-0.637840 0.508444 0.738804 132 67 66 1 6
-0.610124 0.515282 0.727664 133 57 50 1 6
-0.626630 0.512538 0.727959 130 62 59 1 6
-0.604747 0.513591 0.781078 135 64 61 1 6
-0.590311 0.516148 0.801649 241 214 195 1 6
-0.588032 0.514316 0.781954 154 103 91 1 6
-0.570896 0.525176 0.786150 154 103 91 1 6
-0.574434 0.525350 0.793817 149 108 94 1 6
-0.591189 0.518748 0.793301 170 106 92 1 6
-0.791555 0.379558 0.656736 139 78 75 1 8
-0.792748 0.356397 0.668547 147 88 82 1 8
-0.795956 0.303078 0.737668 170 106 94 1 8
-0.791444 0.326235 0.738255 148 71 67 1 8
-0.745850 0.514737 0.749539 128 71 60 1 6
-0.729403 0.512519 0.743778 139 88 75 1 6
-0.735260 0.509229 0.727980 134 79 65 1 6
-0.747061 0.509535 0.724794 130 72 61 1 6
-0.814095 -0.025920 0.660048 120 87 77 1 8
-0.812701 0.000297 0.683048 94 51 44 1 8
-0.740599 0.510198 0.787946 124 62 59 1 6
-0.764951 0.510335 0.794504 128 74 76 1 6
-0.574345 0.550826 0.812489 154 129 103 19 4
-0.574994 0.537344 0.817397 167 120 106 19 4
-0.568327 0.531065 0.827036 153 126 102 1 6
-0.575458 0.534575 0.825115 160 127 104 1 6
-0.584431 0.534966 0.832114 122 57 59 1 6
-0.574974 0.558885 0.827337 144 118 96 19 4
-0.580031 0.535158 0.839236 131 101 95 1 6
-0.569124 0.540915 0.823567 110 87 72 19 4
-0.805449 0.106687 0.733883 119 59 58 1 8
-0.684379 0.510492 0.733456 123 53 53 1 6
-0.675423 0.508727 0.714654 129 63 64 1 6
-0.789358 0.432596 0.625298 168 110 93 1 8
-0.791041 0.393494 0.630048 147 85 73 1 8
-0.573316 0.519713 0.680810 133 99 83 19 4
-0.580666 0.509699 0.655681 144 102 85 1 6
-0.592977 0.510599 0.663069 146 99 86 1 6
-0.604056 0.512485 0.686591 136 77 73 1 6
-0.587653 0.569192 0.639158 129 93 77 19 4
-0.574165 0.550070 0.637719 116 83 66 19 4
-0.581435 0.560141 0.620715 140 110 87 19 4
-0.567915 0.533661 0.616852 127 96 76 19 4
-0.571014 0.540416 0.646008 111 78 70 19 4
-0.585865 0.564664 0.630573 131 100 79 19 4
-0.570317 0.538048 0.627907 138 106 86 19 4
-0.774836 0.498289 0.777647 161 119 102 1 8
-0.779722 0.487191 0.779426 163 116 101 1 8
-0.775430 0.500216 0.784875 195 157 139 1 8
-0.755871 0.509834 0.776530 107 52 51 1 6
-0.806863 0.051744 0.779937 103 50 47 1 8
-0.680600 0.510477 0.625610 147 91 84 1 6
-0.629839 0.509429 0.650216 156 106 94 1 6
-0.653067 0.507385 0.628211 156 103 92 1 6
-0.631381 0.508553 0.633530 164 117 102 1 6
-0.641313 0.509292 0.628773 184 143 113 1 6
-0.660446 0.509629 0.645146 152 99 90 1 6
-0.786679 0.454998 0.737331 147 78 79 1 8
-0.783296 0.483039 0.737771 154 106 96 1 8
-0.782484 0.470383 0.749603 145 91 87 1 8
-0.785162 0.476689 0.730126 148 92 81 1 8
-0.580400 0.571584 0.809718 123 96 80 19 4
-0.582213 0.577685 0.828658 131 106 87 19 4
-0.576829 0.562111 0.817999 134 107 87 19 4
-0.588243 0.585808 0.818349 113 94 84 19 4
-0.713717 0.515920 0.781939 149 94 89 1 6
-0.714533 0.513375 0.794684 160 112 98 1 6
-0.718778 0.513819 0.808871 191 145 130 1 6
-0.704073 0.511870 0.804563 143 91 77 1 6
-0.801911 0.154635 0.790858 166 95 92 1 8
-0.800366 0.169107 0.782191 160 92 88 1 8
-0.788962 0.418409 0.678048 138 69 61 1 8
-0.698368 0.509240 0.842149 110 62 56 1 6
-0.790570 0.342674 0.746055 171 102 101 1 8
-0.789941 0.338962 0.765365 171 102 98 1 8
-0.741656 0.510824 0.803435 162 109 102 1 6
-0.752728 0.512009 0.791608 138 85 74 1 6
-0.803974 0.179374 0.626047 151 88 84 1 8
-0.802643 0.190809 0.637047 183 137 122 1 8
-0.639295 0.512379 0.773272 167 113 103 1 6
-0.652123 0.511091 0.752460 160 110 92 1 6
-0.634583 0.511456 0.752593 162 112 89 1 6
-0.657964 0.507631 0.766075 163 105 95 1 6
-0.642480 0.510443 0.763602 162 115 95 1 6
-0.566854 0.540986 0.731771 119 96 78 19 4
-0.576869 0.558855 0.751091 111 80 68 19 4
-0.570102 0.532944 0.721833 112 82 73 19 4
-0.574938 0.560736 0.733731 98 72 66 19 4
-0.586376 0.563628 0.728048 126 94 78 19 4
-0.580880 0.553820 0.710475 107 75 69 19 4
-0.572578 0.544857 0.713990 113 81 70 19 4
-0.812845 -0.016683 0.688287 82 38 36 1 8
-0.795290 0.329836 0.674824 153 92 89 1 8
-0.792736 0.339731 0.697297 160 99 82 1 8
-0.789919 0.326210 0.814881 177 123 114 1 8
-0.807732 0.085710 0.763450 135 86 78 1 8
-0.808860 0.070805 0.749673 128 77 68 1 8
-0.809475 0.061161 0.767428 128 77 68 1 8
-0.798192 0.283071 0.714677 170 102 91 1 8
-0.797839 0.285700 0.735599 171 104 95 1 8
-0.796857 0.257426 0.717946 155 81 77 1 8
-0.796222 0.286324 0.748077 155 78 75 1 8
-0.594274 0.593643 0.737785 134 110 96 19 4
-0.582521 0.570542 0.733578 113 86 78 19 4
-0.581654 0.571317 0.740175 118 87 70 19 4
-0.806894 0.102040 0.679407 118 55 49 1 8
-0.619172 0.508786 0.679098 120 55 49 1 6
-0.809203 0.088518 0.660048 161 113 103 1 8
-0.789086 0.312821 0.766438 183 112 107 1 8
-0.790963 0.303240 0.754452 175 110 95 1 8
-0.720927 0.512129 0.818220 166 116 102 1 6
-0.725284 0.512771 0.829514 155 104 89 1 6
-0.712753 0.509404 0.846088 164 114 103 1 6
-0.814022 -0.031939 0.634297 92 50 49 1 8
-0.814267 -0.047961 0.648047 105 72 66 1 8
-0.654485 0.518589 0.849237 146 92 81 1 6
-0.641813 0.513997 0.848320 142 105 89 1 6
-0.676785 0.510192 0.645020 134 77 67 1 6
-0.690105 0.509254 0.633978 135 80 50 1 6
-0.804012 0.102555 0.765491 125 66 58 1 8
-0.802786 0.114851 0.752719 126 62 53 1 8
-0.802685 0.155544 0.800470 190 141 125 1 8
-0.802477 0.144464 0.807807 172 127 110 1 8
-0.801723 0.139612 0.794800 153 89 83 1 8
-0.596228 0.580014 0.732331 123 98 68 19 4
-0.603097 0.591789 0.734122 113 88 62 19 4
-0.805268 0.152148 0.622048 132 65 60 1 8
-0.806745 0.110901 0.655048 166 120 106 1 8
-0.574646 0.516970 0.710520 137 101 84 1 6
-0.575998 0.519442 0.722874 142 99 84 1 6
-0.591907 0.514761 0.712527 140 86 78 1 6
-0.572306 0.519993 0.747295 150 107 81 1 6
-0.590277 0.515149 0.722982 150 96 79 1 6
-0.593096 0.512133 0.732229 145 81 77 1 6
-0.593493 0.515562 0.745994 145 81 77 1 6
-0.565573 0.524006 0.732637 140 115 95 19 4
-0.574075 0.518763 0.731231 157 109 96 1 6
-0.684561 0.504857 0.831553 121 58 59 1 6
-0.805646 0.084633 0.734143 139 88 77 1 8
-0.805328 0.092764 0.747861 136 86 83 1 8
-0.809527 0.070375 0.719251 135 86 71 1 8
-0.566976 0.527481 0.841934 121 99 86 19 4
-0.774184 0.501808 0.686743 157 110 95 1 6
-0.772353 0.501387 0.700623 151 98 92 1 6
-0.784855 0.483789 0.715844 152 102 90 1 8
-0.781068 0.495675 0.690348 155 107 98 1 6
-0.744966 0.509158 0.694193 113 49 41 1 6
-0.781049 0.493551 0.697870 150 103 90 1 8
-0.662779 0.509626 0.714573 156 104 93 1 6
-0.662683 0.510406 0.735003 157 109 96 1 6
-0.645335 0.511419 0.728898 162 102 95 1 6
-0.800041 0.168968 0.810245 187 140 127 1 8
-0.799972 0.194200 0.822654 150 91 88 1 8
-0.800083 0.177947 0.820807 149 90 86 1 8
-0.758213 0.507078 0.634141 133 78 68 1 6
-0.743389 0.508454 0.634204 148 97 84 1 6
-0.752057 0.509224 0.625630 109 52 48 1 6
-0.786032 0.425760 0.736531 155 88 84 1 8
-0.787339 0.424812 0.719547 157 91 89 1 8
-0.690478 0.512664 0.780177 130 62 58 1 6
-0.666337 0.510073 0.744987 126 58 58 1 6
-0.677717 0.509705 0.766371 131 60 56 1 6
-0.682729 0.507624 0.744735 127 55 56 1 6
-0.686569 0.509921 0.760062 123 59 55 1 6
-0.802809 0.154550 0.776304 156 95 95 1 8
-0.803288 0.146991 0.753106 154 91 83 1 8
-0.801380 0.125253 0.767827 156 89 83 1 8
-0.768083 0.504786 0.626093 118 64 57 1 6
-0.780304 0.499711 0.621299 209 173 149 1 6
-0.776175 0.500895 0.646212 206 167 148 1 6
-0.784003 0.488842 0.639703 167 114 99 1 8
-0.781895 0.494828 0.666689 179 132 116 1 6
-0.774992 0.501661 0.634773 201 164 141 1 6
-0.798470 0.238509 0.740672 162 103 90 1 8
-0.799395 0.230516 0.728134 156 87 76 1 8
-0.797223 0.254490 0.736745 154 70 71 1 8
-0.602494 0.593316 0.701362 107 70 60 19 4
-0.608215 0.603064 0.710088 82 53 46 19 4
-0.718015 0.508359 0.702750 140 85 77 1 6
-0.789507 0.336833 0.781700 174 112 96 1 8
-0.788279 0.359912 0.794222 185 120 113 1 8
-0.788810 0.354563 0.812469 217 165 148 1 8
-0.791817 0.330467 0.799876 209 157 139 1 8
-0.671483 0.512157 0.781320 126 64 57 1 6
-0.674140 0.511622 0.796437 150 96 81 1 6
-0.688449 0.509786 0.795485 147 93 80 1 6
-0.694127 0.507964 0.813423 163 118 108 1 6
-0.695510 0.509825 0.823552 120 59 52 1 6
-0.667848 0.507655 0.809998 126 77 70 1 6
-0.675354 0.508881 0.822975 129 61 60 1 6
-0.670377 0.515500 0.839988 122 58 51 1 6
-0.678487 0.513074 0.844231 124 60 58 1 6
-0.800263 0.239245 0.805092 178 125 117 1 8
-0.793858 0.251646 0.825225 161 91 87 1 8
-0.796294 0.253852 0.809972 159 99 93 1 8
-0.806634 0.087493 0.689500 131 83 63 1 8
-0.806270 0.091474 0.710508 136 84 84 1 8
-0.727199 0.510238 0.683303 139 86 75 1 6
-0.802517 0.236955 0.647812 183 137 120 1 8
-0.788552 0.359080 0.758664 173 106 101 1 8
-0.787551 0.388920 0.763757 172 103 96 1 8
-0.786593 0.380888 0.770974 175 112 102 1 8
-0.808895 0.029208 0.732741 99 47 36 1 8
-0.808952 0.056505 0.735235 104 50 44 1 8
-0.712955 0.507998 0.690308 142 86 71 1 6
-0.723231 0.510339 0.715235 141 87 66 1 6
-0.681073 0.509324 0.678782 114 53 47 1 6
-0.699074 0.511017 0.706301 117 52 51 1 6
-0.660464 0.511912 0.694909 141 81 75 1 6
-0.680475 0.509617 0.695783 129 67 66 1 6
-0.674166 0.510595 0.705574 129 67 66 1 6
-0.799627 0.219757 0.815616 177 123 115 1 8
-0.565865 0.518646 0.760581 148 107 93 1 6
-0.587063 0.513252 0.759016 154 92 82 1 6
-0.586758 0.515270 0.771412 138 64 61 1 6
-0.566586 0.521797 0.775170 154 111 95 1 6
-0.577302 0.517839 0.775411 158 109 92 1 6
-0.568085 0.533927 0.746603 148 113 100 19 4
-0.760750 0.507029 0.656815 107 53 49 1 6
-0.767945 0.504978 0.649392 109 55 53 1 6
-0.780863 0.496182 0.638715 193 148 136 1 6
-0.774613 0.503388 0.670621 121 69 63 1 6
-0.784995 0.484145 0.690972 154 108 93 1 8
-0.785320 0.474413 0.668547 154 107 91 1 8
-0.787416 0.433338 0.698047 155 90 89 1 8
-0.728788 0.514482 0.786142 150 95 84 1 6
-0.700595 0.511926 0.764627 140 76 72 1 6
-0.730321 0.514586 0.767692 149 93 83 1 6
-0.712625 0.513049 0.752586 149 91 89 1 6
-0.713651 0.515639 0.765624 154 95 79 1 6
-0.813458 -0.022205 0.670297 76 36 31 1 8
-0.567874 0.551748 0.841513 63 46 36 19 4
-0.561962 0.533680 0.834564 105 87 75 19 4
-0.800561 0.166486 0.755987 157 89 83 1 8
-0.717734 0.509969 0.621639 123 65 60 1 6
-0.802619 0.139200 0.690572 146 88 76 1 8
-0.800445 0.158206 0.712522 148 92 81 1 8
-0.802884 0.142208 0.708547 147 92 74 1 8
-0.595309 0.582004 0.697875 120 84 70 19 4
-0.589633 0.570644 0.702579 121 81 69 19 4
-0.592432 0.566856 0.717242 122 79 72 19 4
-0.756665 0.507639 0.706710 114 50 49 1 6
-0.743829 0.509300 0.710390 132 77 71 1 6
-0.786894 0.409243 0.722047 157 89 83 1 8
-0.785811 0.396282 0.742025 154 86 77 1 8
-0.787486 0.393746 0.733547 159 90 87 1 8
-0.789107 0.375315 0.719048 150 79 77 1 8
-0.813772 -0.053549 0.719831 77 36 41 1 8
-0.813498 -0.038851 0.696956 73 33 34 1 8
-0.787460 0.414630 0.765424 160 90 85 1 8
-0.785987 0.395285 0.750195 151 80 77 1 8
-0.739794 0.509226 0.661033 118 60 57 1 6
-0.745330 0.511027 0.684787 119 57 48 1 6
-0.757314 0.507040 0.675148 112 45 54 1 6
-0.809454 0.028807 0.773371 99 50 41 1 8
-0.807941 0.066545 0.799113 129 84 79 1 8
-0.806623 0.039923 0.794552 99 53 53 1 8
-0.800680 0.211163 0.729297 161 98 99 1 8
-0.800613 0.205156 0.741099 164 98 87 1 8
-0.645923 0.510559 0.653245 155 104 95 1 6
-0.662745 0.509347 0.656873 150 97 79 1 6
-0.644483 0.512228 0.667780 154 101 91 1 6
-0.628547 0.511559 0.667901 148 95 79 1 6
-0.801328 0.177529 0.708297 136 74 70 1 8
-0.802135 0.162563 0.695770 136 69 65 1 8
-0.812187 -0.056297 0.756314 87 46 40 1 8
-0.812547 -0.046202 0.741797 92 51 53 1 8
-0.798581 0.270721 0.670297 153 91 83 1 8
-0.797251 0.278146 0.690047 160 92 83 1 8
-0.799262 0.272773 0.649798 186 139 122 1 8
-0.796240 0.315166 0.631297 179 123 109 1 8
-0.795392 0.347360 0.612931 143 79 70 1 8
-0.794814 0.337808 0.631798 141 78 69 1 8
-0.795150 0.331254 0.650547 188 139 123 1 8
-0.813071 0.014945 0.640573 129 91 81 1 8
-0.812995 0.000568 0.670047 121 87 78 1 8
-0.793367 0.355689 0.683948 157 97 90 1 8
-0.818917 -0.173178 -0.397166 36 25 21 1 8
-0.818393 -0.170636 -0.407896 37 25 21 1 8
-0.816474 -0.170789 -0.369263 41 26 20 1 8
-0.821005 -0.181620 -0.377053 37 26 21 1 8
-0.046048 -0.114190 -0.844828 51 41 27 2 10
-0.049834 -0.125464 -0.845636 61 47 30 2 10
-0.036969 -0.153423 -0.845533 60 42 31 2 10
-0.270840 -0.174599 -0.843182 63 58 31 2 10
-0.280595 -0.190746 -0.844001 74 60 33 2 10
-0.424474 -0.092177 -0.837694 42 26 15 2 10
-0.402535 -0.115895 -0.838578 40 25 22 2 10
-0.389332 -0.076476 -0.837208 42 27 15 2 10
-0.389941 -0.097679 -0.838418 40 25 29 2 10
-0.411857 -0.087542 -0.837733 38 31 19 2 10
-0.309942 -0.122854 -0.840123 43 40 15 2 10
-0.317298 -0.154217 -0.841725 60 49 44 2 10
-0.815417 -0.149062 -0.421731 34 26 10 1 8
-0.816796 -0.144634 -0.433520 30 26 14 1 8
-0.816887 -0.159315 -0.423114 33 25 21 1 8
-0.815780 -0.154441 -0.500652 35 28 13 1 8
-0.816677 -0.165129 -0.490222 34 26 12 1 8
-0.817515 -0.126184 -0.513734 25 24 15 1 8
-0.811245 -0.068973 -0.385203 27 14 8 1 8
-0.812967 -0.093413 -0.385578 27 13 15 1 8
-0.812790 -0.098145 -0.416630 25 15 2 1 8
-0.421682 -0.123269 -0.839679 40 25 23 2 10
-0.448454 -0.131933 -0.840202 40 31 19 2 10
-0.075355 -0.124540 -0.845107 57 45 34 2 10
-0.066689 -0.150224 -0.846348 60 46 35 2 10
-0.088504 -0.159601 -0.846656 58 44 27 2 10
-0.304571 -0.212839 -0.843840 68 57 33 2 10
-0.327361 -0.205073 -0.844694 67 60 34 2 10
-0.316735 -0.195918 -0.842891 65 58 33 2 10
-0.814925 -0.115330 -0.458953 19 12 13 1 8
-0.813925 -0.098929 -0.439702 20 12 12 1 8
-0.817335 -0.126054 -0.443718 23 14 9 1 8
-0.370108 -0.101023 -0.839221 37 28 13 2 10
-0.376544 -0.117914 -0.840769 43 25 16 2 10
-0.053589 -0.164346 -0.846700 66 43 35 2 10
-0.140111 -0.239561 -0.850530 121 101 63 2 10
-0.145844 -0.255327 -0.851259 184 168 112 2 10
-0.118901 -0.270564 -0.852855 251 234 180 2 10
-0.812703 -0.094183 -0.501703 23 11 10 1 8
-0.114906 -0.100942 -0.844700 60 50 20 2 10
-0.093573 -0.139695 -0.846663 60 48 20 2 10
-0.812560 -0.090685 -0.546953 20 13 9 1 8
-0.814933 -0.113575 -0.535203 20 12 9 1 8
-0.812406 -0.098214 -0.509953 23 13 10 1 8
-0.810950 -0.055484 -0.409953 27 18 18 1 8
-0.814643 -0.108800 -0.424203 29 17 12 1 8
-0.815945 -0.125439 -0.420546 26 16 12 1 8
-0.152167 -0.127703 -0.845137 61 48 17 2 10
-0.263583 -0.095765 -0.839229 57 43 36 2 10
-0.241980 -0.236651 -0.846866 228 215 161 2 10
-0.037954 -0.205109 -0.849858 61 45 27 2 10
-0.063753 -0.179915 -0.847666 67 45 16 2 10
-0.050917 -0.200090 -0.849579 57 45 28 2 10
-0.063518 -0.218214 -0.850971 56 40 30 2 10
-0.828151 -0.197343 -0.394145 38 32 18 1 8
-0.833781 -0.197324 -0.404517 42 32 18 1 8
-0.825230 -0.190050 -0.385697 41 28 26 1 8
-0.214592 -0.109192 -0.842370 59 53 30 2 10
-0.067437 -0.293024 -0.854127 243 220 160 2 10
-0.813237 -0.100161 -0.457953 23 13 13 1 8
-0.811490 -0.060283 -0.490453 23 12 12 1 8
-0.811649 -0.062179 -0.474953 20 14 13 1 8
-0.816610 -0.127993 -0.461953 27 19 15 1 8
-0.815579 -0.157291 -0.455279 32 23 17 1 8
-0.815430 -0.152583 -0.439646 33 25 19 1 8
-0.816828 -0.132756 -0.537977 25 21 22 1 8
-0.811325 -0.064707 -0.529953 22 12 8 1 8
-0.811870 -0.073566 -0.509953 24 11 10 1 8
-0.336877 -0.126671 -0.839789 38 30 21 2 10
-0.323069 -0.084365 -0.839257 41 27 29 2 10
-0.245097 -0.099273 -0.839514 53 50 32 2 10
-0.264645 -0.138352 -0.840435 57 51 34 2 10
-0.243519 -0.117512 -0.840614 59 57 30 2 10
-0.360067 -0.128842 -0.840516 42 29 12 2 10
-0.813362 -0.100988 -0.398927 20 14 11 1 8
-0.813590 -0.112783 -0.395428 29 21 13 1 8
-0.290260 -0.099721 -0.837872 63 46 28 2 10
-0.290413 -0.119295 -0.839231 55 49 28 2 10
-0.281434 -0.142183 -0.840161 67 53 20 2 10
-0.338392 -0.212859 -0.845822 70 58 33 2 10
-0.823915 -0.194794 -0.472279 44 33 17 1 8
-0.819168 -0.179881 -0.491808 41 31 19 1 8
-0.822762 -0.191126 -0.493654 41 33 20 1 8
-0.817133 -0.169525 -0.469387 37 28 20 1 8
-0.821272 -0.179062 -0.466370 35 32 17 1 8
-0.422222 -0.159096 -0.842330 33 34 27 2 10
-0.814524 -0.110095 -0.482453 22 11 9 1 8
-0.158224 -0.201495 -0.848131 60 51 26 2 10
-0.134331 -0.196411 -0.849499 66 50 39 2 10
-0.147209 -0.175091 -0.847177 71 50 31 2 10
-0.205679 -0.182780 -0.845106 63 52 32 2 10
-0.211425 -0.166036 -0.843297 72 52 35 2 10
-0.474956 -0.077504 -0.839266 42 27 24 2 10
-0.461026 -0.069359 -0.838617 47 30 16 2 10
-0.455993 -0.110105 -0.839918 31 30 12 2 10
-0.357786 -0.184818 -0.843824 53 34 25 2 10
-0.346750 -0.151906 -0.840355 44 36 12 2 10
-0.383135 -0.168342 -0.844213 37 36 21 2 10
-0.357876 -0.165933 -0.842201 44 35 13 2 10
-0.336960 -0.175320 -0.843119 70 61 34 2 10
-0.103070 -0.261502 -0.851849 253 236 184 2 10
-0.348053 -0.220494 -0.845996 72 58 43 2 10
-0.255345 -0.271059 -0.848635 254 238 182 2 10
-0.403830 -0.144736 -0.841245 39 32 19 2 10
-0.159962 -0.150355 -0.845764 63 50 38 2 10
-0.139580 -0.146885 -0.845428 67 54 39 2 10
-0.390215 -0.142928 -0.842344 44 32 13 2 10
-0.373896 -0.155157 -0.843165 37 29 27 2 10
-0.377015 -0.132766 -0.841706 37 30 13 2 10
-0.205933 -0.146637 -0.843572 60 47 32 2 10
-0.219593 -0.143008 -0.843391 67 54 25 2 10
-0.379928 -0.185229 -0.844791 50 34 16 2 10
-0.362436 -0.208696 -0.845275 48 33 21 2 10
-0.228559 -0.253354 -0.846879 130 109 76 2 10
-0.815885 -0.158102 -0.398026 39 22 11 1 8
-0.814768 -0.135640 -0.394953 31 21 14 1 8
-0.810523 -0.132874 -0.371502 27 19 14 1 8
-0.084984 -0.225131 -0.850869 67 50 33 2 10
-0.099851 -0.233391 -0.851563 61 48 25 2 10
-0.813820 -0.151784 -0.485378 31 24 14 1 8
-0.816578 -0.123354 -0.491520 28 24 15 1 8
-0.815354 -0.150644 -0.468817 30 24 14 1 8
-0.824296 -0.189213 -0.464412 44 31 20 1 8
-0.827132 -0.191851 -0.446513 42 30 27 1 8
-0.406997 -0.161280 -0.842075 50 34 12 2 10
-0.108165 -0.156326 -0.846313 58 51 29 2 10
-0.122969 -0.142490 -0.846240 59 53 26 2 10
-0.221442 -0.212460 -0.847472 70 52 33 2 10
-0.185386 -0.146696 -0.844895 53 50 31 2 10
-0.160543 -0.168225 -0.847233 64 47 37 2 10
-0.185172 -0.165131 -0.845975 56 51 23 2 10
-0.066362 -0.237861 -0.851536 68 50 39 2 10
-0.051131 -0.248892 -0.851447 75 57 29 2 10
-0.125936 -0.172161 -0.847430 66 51 34 2 10
-0.117155 -0.196420 -0.848539 64 51 30 2 10
-0.046624 -0.335064 -0.856297 243 214 177 2 10
-0.190700 -0.177776 -0.846285 62 49 32 2 10
-0.119674 -0.289130 -0.853031 253 236 183 2 10
-0.137448 -0.280425 -0.852514 255 241 191 2 10
-0.172269 -0.200002 -0.848194 57 54 30 2 10
-0.196251 -0.198501 -0.846259 65 50 30 2 10
-0.176066 -0.215159 -0.848191 61 52 32 2 10
-0.206335 -0.232554 -0.847602 63 53 33 2 10
-0.180745 -0.239270 -0.849239 72 58 39 2 10
-0.074504 -0.263942 -0.852241 235 219 166 2 10
-0.055099 -0.269463 -0.853444 254 238 187 2 10
-0.289000 -0.226771 -0.844082 65 56 31 2 10
-0.271104 -0.221841 -0.845901 69 63 29 2 10
-0.832154 -0.196127 -0.461574 48 31 28 1 8
-0.832123 -0.201449 -0.438985 48 31 28 1 8
-0.045068 -0.286751 -0.853829 248 220 165 2 10
-0.229943 -0.187213 -0.845033 65 56 33 2 10
-0.259423 -0.203845 -0.844097 67 56 39 2 10
-0.152330 -0.284237 -0.853100 252 240 188 2 10
-0.167696 -0.305716 -0.853682 253 240 189 2 10
-0.168697 -0.247453 -0.849804 229 211 159 2 10
-0.159444 -0.236221 -0.849985 109 96 61 2 10
-0.834066 -0.199151 -0.416906 45 32 24 1 8
-0.833857 -0.196976 -0.434025 46 36 26 1 8
-0.830693 -0.193831 -0.411064 41 35 24 1 8
-0.291014 -0.172875 -0.842440 72 55 44 2 10
-0.298339 -0.152623 -0.842246 78 55 40 2 10
-0.186654 -0.128477 -0.844737 55 47 25 2 10
-0.318852 -0.230264 -0.846488 80 61 43 2 10
-0.279800 -0.259242 -0.846951 107 87 68 2 10
-0.295100 -0.251146 -0.846332 159 139 98 2 10
-0.202772 -0.115783 -0.843913 52 48 36 2 10
-0.197208 -0.278534 -0.849625 250 230 177 2 10
-0.178597 -0.282021 -0.850195 252 238 183 2 10
-0.825245 -0.187031 -0.405737 38 28 23 1 8
-0.819723 -0.172545 -0.424586 39 27 21 1 8
-0.819287 -0.172296 -0.441897 37 26 22 1 8
-0.824131 -0.184801 -0.432539 36 28 23 1 8
-0.829781 -0.189351 -0.422976 42 30 19 1 8
-0.811608 -0.065753 -0.452578 23 14 5 1 8
