ply
format ascii 1.0
element vertex 1099
property float x
property float y
property float z
property uchar red
property uchar green
property uchar blue
property uchar semantic_label
property uchar instance_label
end_header
0.223224 0.071347 -0.103756 144 111 80 7 4
0.233293 0.058992 -0.098476 182 166 117 7 4
0.245711 0.071443 -0.104273 169 157 118 7 4
0.211894 0.073050 -0.100641 122 108 76 7 4
-0.292813 0.188522 0.413796 35 30 23 3 2
-0.296931 0.159067 0.396768 82 55 26 3 2
-0.293961 0.173349 0.391952 57 41 23 3 2
-0.292816 0.168123 0.400601 44 29 21 3 2
-0.290758 0.170354 0.417316 36 30 25 3 2
-0.290297 0.176613 0.408619 43 32 26 3 2
-0.298077 0.187171 0.397064 23 18 15 3 2
-0.096086 0.283298 0.234448 180 161 135 1 7
-0.114078 0.283337 0.249481 183 158 126 1 7
-0.331486 0.268816 0.407566 176 156 123 1 7
-0.333639 0.270509 0.391391 181 161 126 1 7
-0.312203 0.275441 0.384193 182 155 125 1 7
-0.332601 0.270515 0.418593 174 152 114 1 7
-0.322413 0.265920 0.423175 160 140 104 1 7
-0.330173 0.272659 0.399818 183 164 128 1 7
-0.319522 0.271158 0.395534 159 139 111 1 7
-0.299103 0.015915 0.429758 51 39 26 3 2
-0.287194 0.000461 0.424279 54 37 39 3 2
-0.650358 -0.119160 -0.047846 18 13 18 39 3
-0.090208 0.283991 0.174591 193 167 143 1 7
-0.069431 0.283807 0.204590 190 169 137 1 7
-0.633502 0.281240 -0.250713 65 62 51 1 7
-0.645107 -0.020860 -0.013429 118 109 85 39 3
-0.664129 -0.008017 -0.017922 103 96 69 39 3
-0.680452 -0.021392 -0.018048 115 105 91 39 3
-0.665113 -0.022652 -0.015390 111 106 85 39 3
-0.666057 0.002300 -0.015744 98 91 67 39 3
-0.663126 0.007409 -0.017103 102 94 70 39 3
-0.650081 -0.010445 -0.013210 98 88 78 39 3
-0.655250 0.016624 -0.015907 93 87 78 39 3
-0.644956 0.001325 -0.012266 105 98 86 39 3
0.212725 -0.048761 -0.095152 111 98 66 7 4
0.227867 -0.089081 -0.117679 111 104 76 3 5
0.219147 -0.059272 -0.100632 95 81 52 3 5
0.207857 -0.042761 -0.100259 79 69 49 3 5
0.214324 -0.052160 -0.116359 68 57 30 3 5
-0.257171 0.237084 0.436292 48 48 32 3 2
-0.243213 0.234802 0.438386 54 55 48 3 2
-0.247066 0.238390 0.431346 55 53 48 3 2
-0.259343 0.232071 0.424421 59 52 54 3 2
-0.245479 0.231267 0.424441 53 49 44 3 2
-0.248289 0.236170 0.419638 68 57 37 3 2
0.091245 -0.215352 -0.435409 179 114 41 3 5
-0.316324 0.050600 -0.124291 112 101 78 3 5
-0.308421 0.060230 -0.122517 108 99 72 3 5
-0.573609 0.270023 0.436251 218 200 161 1 7
-0.537178 0.181628 -0.087748 89 105 97 39 3
-0.540282 0.187038 -0.091487 99 113 108 39 3
-0.549280 0.269868 0.442090 219 193 174 1 7
-0.515021 0.162878 -0.026316 125 145 137 39 3
-0.504973 0.152943 -0.005699 132 149 146 39 3
-0.506149 0.156541 -0.027515 124 138 125 39 3
-0.515033 0.151169 -0.020392 124 144 137 39 3
-0.504094 0.159099 -0.017286 126 144 137 39 3
-0.521634 0.151175 -0.014571 126 146 144 39 3
-0.047056 0.281091 0.349662 167 147 114 1 7
-0.029255 0.281548 0.354219 168 147 119 1 7
0.001754 0.281992 0.338891 166 147 117 1 7
-0.038224 0.283458 0.320237 170 150 119 1 7
-0.023784 0.282733 0.335836 165 146 127 1 7
-0.010291 0.282149 0.349364 168 146 116 1 7
0.025732 -0.216497 -0.501909 175 109 51 3 5
0.010253 -0.217309 -0.492409 178 113 42 3 5
-0.278618 -0.070750 -0.123662 78 76 64 3 5
-0.309502 -0.224142 -0.240533 95 83 66 3 5
-0.301639 -0.221065 -0.246365 163 144 109 3 5
-0.293883 -0.220829 -0.249910 169 131 99 3 5
-0.281053 -0.223168 -0.239469 173 123 80 3 5
-0.309743 -0.223005 -0.276940 57 49 33 3 5
-0.305111 -0.222804 -0.269059 114 98 77 3 5
-0.289847 -0.221582 -0.266659 171 122 72 3 5
-0.088104 0.260534 0.390466 94 70 49 3 2
-0.098180 0.246095 0.391192 65 50 43 3 2
-0.088591 0.238327 0.405410 55 42 29 3 2
-0.096096 0.239953 0.395840 69 50 36 3 2
-0.081382 0.243424 0.391519 69 49 32 3 2
-0.082912 0.235409 0.395374 64 45 39 3 2
-0.078956 0.239426 0.399597 64 45 40 3 2
-0.113449 0.238229 0.406800 53 48 33 3 2
-0.104341 0.236857 0.406318 53 45 35 3 2
-0.077828 0.236822 0.407952 46 37 28 3 2
-0.088105 -0.222329 -0.166640 116 73 32 3 5
-0.116253 -0.223557 -0.166732 104 69 33 3 5
-0.451552 0.272289 -0.424929 185 166 140 1 7
-0.461579 0.272083 -0.409288 184 167 129 1 7
-0.557542 -0.044464 -0.156956 28 30 18 39 3
-0.555057 -0.033930 -0.153943 32 26 32 39 3
-0.555357 -0.019295 -0.159755 34 33 24 39 3
0.218296 -0.213750 -0.388659 183 113 58 3 5
0.215261 0.199644 -0.115422 58 52 48 3 5
0.188275 0.219289 -0.115514 58 53 29 3 5
0.229807 0.235916 -0.113208 60 52 45 3 5
-0.311669 -0.133127 -0.124623 116 102 82 3 5
-0.274585 -0.135541 -0.123828 84 78 64 3 5
-0.564445 0.038782 -0.247216 55 47 29 39 3
-0.565123 0.044009 -0.232210 51 40 39 39 3
-0.281683 -0.222617 -0.551493 160 91 50 3 5
-0.286609 -0.221640 -0.533004 161 89 54 3 5
-0.265317 -0.221719 -0.526409 162 92 46 3 5
-0.250636 0.078207 -0.122470 62 56 50 3 5
-0.114263 0.247992 -0.059399 33 28 33 3 5
-0.135431 0.247997 -0.060409 32 29 33 3 5
-0.131723 0.248075 -0.035227 34 28 18 3 5
-0.106487 0.249227 -0.035456 32 28 33 3 5
-0.293254 0.121745 0.435955 54 45 32 3 2
-0.294184 0.093474 0.435798 45 41 28 3 2
-0.292816 0.114821 0.425394 63 49 29 3 2
-0.291675 0.104975 0.425034 58 48 21 3 2
-0.412254 0.272151 -0.550654 167 154 130 1 7
-0.561273 0.011504 -0.214889 44 34 27 39 3
-0.234226 -0.183636 0.400569 235 178 92 3 2
-0.230860 -0.189523 0.403197 57 46 31 3 2
-0.255161 -0.186925 0.399821 57 42 31 3 2
-0.234358 -0.180123 0.390274 211 174 137 3 2
-0.190668 0.135158 -0.121668 48 38 25 3 5
-0.506992 0.108944 -0.232450 140 134 125 39 3
-0.508402 0.111247 -0.247338 150 138 117 39 3
-0.599896 0.266480 0.178459 245 229 200 1 7
-0.613246 0.266586 0.176070 248 233 202 1 7
-0.593493 0.262421 0.163593 237 227 194 1 7
-0.636971 0.267165 0.195337 248 232 205 1 7
-0.084059 -0.217951 -0.513910 178 113 54 3 5
0.177497 -0.214897 -0.385157 176 109 50 3 5
0.186908 -0.214156 -0.402160 178 107 52 3 5
-0.554089 0.129907 -0.264705 119 102 84 39 3
-0.555269 0.143364 -0.253824 114 96 83 39 3
-0.386848 0.269962 -0.476709 149 131 109 1 7
-0.373216 0.269132 -0.492455 137 122 89 1 7
-0.309902 0.275594 0.113761 187 170 137 1 7
-0.326602 0.275306 0.116607 188 170 144 1 7
-0.064241 -0.218379 -0.259221 181 118 56 3 5
0.220733 0.251365 -0.031277 47 42 29 3 5
0.000722 -0.216822 -0.440409 179 112 48 3 5
-0.020784 -0.216662 -0.446323 172 109 48 3 5
0.035243 -0.216551 -0.406410 179 117 37 3 5
0.007105 -0.216862 -0.409535 177 112 49 3 5
-0.585653 0.151629 -0.086429 60 62 49 39 3
-0.613103 0.147393 -0.056638 83 79 61 39 3
-0.592634 0.140859 -0.073125 57 54 47 39 3
-0.607568 0.152574 -0.080353 58 56 43 39 3
-0.611647 0.152975 -0.068856 67 64 47 39 3
-0.622276 -0.121182 -0.135819 63 59 52 39 3
-0.628965 -0.122064 -0.140712 27 19 27 39 3
-0.631702 -0.123511 -0.122786 30 22 22 39 3
-0.698564 -0.125069 -0.028706 60 56 50 39 3
-0.733286 -0.100701 -0.505718 33 35 27 39 3
-0.258768 -0.222701 -0.241409 180 113 58 3 5
-0.279788 -0.222712 -0.275410 178 109 62 3 5
-0.559213 -0.008424 -0.394818 43 36 33 39 3
-0.561610 0.000262 -0.420750 42 39 26 39 3
-0.559710 -0.009554 -0.378469 46 35 32 39 3
-0.574269 0.263637 -0.499920 179 156 130 1 7
-0.579993 0.264237 -0.489151 171 151 120 1 7
0.220430 -0.203374 0.391779 225 156 79 3 2
0.165553 -0.184954 0.407566 72 46 23 3 2
0.185367 -0.181223 0.405184 68 49 23 3 2
0.184614 -0.203427 0.394489 253 198 106 3 2
0.170972 -0.199329 0.400559 69 42 22 3 2
0.169501 -0.205819 0.394620 80 39 27 3 2
-0.492752 0.113067 -0.033830 117 132 130 39 3
-0.500527 0.099135 -0.062254 119 132 116 39 3
-0.501247 0.101385 -0.049761 119 132 116 39 3
-0.519013 0.108305 -0.057347 124 139 142 39 3
-0.516460 0.119918 -0.036637 120 142 134 39 3
-0.488512 0.116382 -0.049048 108 127 120 39 3
-0.497437 0.110663 -0.041864 117 135 124 39 3
-0.492151 0.104879 -0.051923 110 122 116 39 3
-0.511806 0.109635 -0.047077 119 136 136 39 3
-0.316739 0.276138 0.222984 195 174 139 1 7
-0.287790 0.277240 0.235529 197 171 137 1 7
-0.285839 0.277167 0.215452 193 171 146 1 7
-0.730070 -0.091722 -0.344432 169 126 103 39 3
-0.722352 -0.092107 -0.324795 27 27 18 39 3
-0.737199 -0.099134 -0.333772 27 21 17 39 3
-0.712090 -0.091665 -0.317501 32 29 18 39 3
-0.717271 -0.085576 -0.315485 48 40 33 39 3
-0.533649 0.092860 -0.086312 99 109 110 39 3
-0.524738 0.095783 -0.075543 103 119 105 39 3
-0.531291 0.102076 -0.055681 95 113 109 39 3
-0.547799 0.101439 -0.082260 92 109 102 39 3
-0.514948 0.098988 -0.074170 107 122 113 39 3
-0.499642 0.263212 -0.559063 172 155 141 1 7
-0.526012 0.258017 -0.534000 57 47 35 1 7
-0.290968 0.250830 0.394502 67 51 40 3 2
-0.292753 0.278502 0.391298 91 73 61 1 7
-0.293632 0.266363 0.390888 101 76 64 3 2
-0.277766 0.265202 0.390974 164 137 99 3 2
-0.305044 0.269519 0.390564 160 131 87 1 7
-0.283133 0.270080 0.393403 153 126 104 3 2
-0.578231 0.053678 -0.530619 43 36 43 39 3
-0.580861 0.060569 -0.523369 46 40 31 39 3
-0.578031 0.059520 -0.514309 47 43 31 39 3
-0.581912 0.051108 -0.539094 37 30 32 39 3
-0.575864 0.051711 -0.536308 44 37 44 39 3
-0.571707 0.053155 -0.526116 47 40 29 39 3
-0.183434 -0.195816 0.405700 70 56 33 3 2
-0.175720 -0.192418 0.408614 68 57 39 3 2
-0.183692 -0.216001 0.395868 74 47 37 3 2
-0.152760 -0.216118 0.396640 66 43 31 3 2
-0.162097 -0.200144 0.404321 75 49 36 3 2
0.125599 0.281644 0.238591 192 161 129 1 7
0.131373 0.281344 0.257219 190 162 118 1 7
0.079818 -0.123350 0.411550 62 52 26 40 6
0.097915 -0.131870 0.414642 60 44 43 40 6
0.090923 -0.123941 0.411768 71 44 42 40 6
0.080662 -0.138981 0.417735 49 48 30 40 6
-0.303332 0.272734 -0.376858 119 106 81 1 7
-0.308272 0.275400 -0.371136 131 116 103 1 7
-0.318314 0.277911 -0.351892 132 119 92 1 7
-0.291809 0.067238 0.436343 57 44 42 3 2
-0.298830 0.082566 0.445151 51 36 30 3 2
-0.035574 0.283935 0.058459 191 172 141 1 7
-0.023671 0.284574 0.043590 186 170 139 1 7
-0.668576 -0.075570 -0.384409 28 22 20 39 3
-0.659816 -0.073675 -0.393543 27 22 17 39 3
-0.005723 0.283963 -0.004348 181 164 138 1 7
-0.001625 0.278712 -0.014110 147 133 100 3 5
0.017183 0.282366 -0.007526 174 161 127 1 7
-0.014295 0.283163 -0.008365 175 161 125 1 7
0.015958 0.278110 -0.012976 70 60 38 3 5
-0.069237 -0.218546 -0.204190 145 89 41 3 5
-0.302799 -0.083442 0.388171 178 127 60 3 2
-0.291701 -0.126777 0.388192 192 138 65 3 2
-0.289223 -0.112017 0.389291 186 134 61 3 2
-0.483076 0.271108 0.180803 192 187 154 1 7
-0.496610 0.272775 0.168560 182 179 157 1 7
-0.481802 0.274240 0.165885 192 186 163 1 7
-0.472551 0.272916 0.195422 228 214 174 1 7
0.063237 -0.215789 -0.209159 179 116 54 3 5
0.082762 -0.215912 -0.194409 154 98 47 3 5
-0.236798 0.270120 0.386437 82 71 42 3 2
-0.242041 0.273200 0.388801 136 116 67 3 2
-0.294201 0.030871 0.425332 59 46 22 3 2
-0.299127 0.030167 0.434812 55 39 36 3 2
-0.304927 0.028265 0.439444 55 37 29 3 2
-0.300795 0.044450 0.441920 22 15 10 3 2
-0.291734 0.053437 0.435743 48 37 19 3 2
-0.459624 0.271586 -0.291939 175 156 138 1 7
-0.283858 0.099778 -0.122800 95 82 66 3 5
-0.310946 0.097775 -0.123478 119 111 84 3 5
-0.318687 0.172663 -0.135624 114 104 77 3 5
-0.308862 0.171989 -0.143925 67 60 55 0 0
-0.315927 0.160804 -0.140360 91 82 73 0 0
-0.659558 0.264966 0.212976 254 241 212 1 7
-0.689189 0.263028 0.216216 252 242 210 1 7
-0.671819 0.264931 0.224368 254 240 209 1 7
-0.558310 0.260120 0.157904 159 160 151 1 7
-0.547317 0.257257 0.136903 155 167 147 1 7
-0.545404 0.251761 0.148740 130 139 122 1 7
-0.543105 0.265930 0.158840 178 173 151 1 7
-0.536771 0.269761 0.148948 166 169 152 1 7
-0.544666 0.261971 0.151269 147 161 147 1 7
-0.553059 0.255341 0.149452 106 115 91 1 7
0.006009 -0.183408 -0.120908 112 106 84 3 5
-0.021958 -0.174497 -0.121710 108 102 74 3 5
-0.701331 -0.145197 -0.520297 20 18 12 39 3
-0.711527 -0.130746 -0.516496 38 34 30 39 3
-0.723333 -0.126213 -0.517572 55 51 43 39 3
-0.699778 -0.148538 -0.533058 19 16 22 39 3
-0.726122 -0.144074 -0.533233 24 21 15 39 3
-0.715752 -0.145225 -0.523614 18 17 17 39 3
-0.731271 -0.136675 -0.522842 23 18 20 39 3
-0.196688 0.275236 0.354680 169 146 124 1 7
-0.187713 0.275477 0.338267 171 151 118 1 7
-0.178736 0.278932 0.327642 169 148 126 1 7
-0.169626 0.278467 0.340777 169 147 120 1 7
-0.664222 0.264955 -0.007487 234 209 179 1 7
-0.697332 0.262110 0.001591 242 217 187 1 7
0.216241 -0.003109 -0.107834 101 83 54 3 5
0.214173 0.024622 -0.108401 70 59 40 3 5
0.210469 0.010183 -0.098665 72 54 30 3 5
0.213652 0.024477 -0.113531 76 67 47 3 5
0.214172 -0.008639 -0.100432 191 161 118 3 5
0.216220 -0.000540 -0.095159 80 63 39 7 4
0.218730 -0.016546 -0.097622 185 165 122 7 4
-0.422797 0.272678 0.121162 207 185 150 1 7
-0.397696 0.274813 0.111335 201 181 143 1 7
-0.402960 0.273871 0.088124 202 183 143 1 7
-0.376486 0.274095 0.118606 198 177 150 1 7
-0.163960 0.281398 0.021620 179 162 125 1 7
-0.145150 0.280412 0.007845 179 162 126 1 7
0.232106 -0.214835 -0.557035 178 109 46 3 5
-0.638688 -0.072349 -0.364410 26 21 17 39 3
-0.618543 -0.072629 -0.357539 30 19 20 39 3
-0.267205 0.276096 0.392656 93 71 44 3 2
-0.269021 0.257480 0.389527 140 114 94 3 2
-0.262463 0.270085 0.390295 133 111 89 3 2
-0.518768 0.270525 0.357068 222 202 158 1 7
-0.504974 0.268942 0.381211 221 199 169 1 7
-0.497654 0.273607 0.392824 217 198 156 1 7
-0.285719 0.275597 0.348429 175 153 122 1 7
-0.279638 0.274537 0.339125 184 165 137 1 7
0.115651 0.282667 0.229214 195 161 143 1 7
0.110398 0.282260 0.241540 186 163 125 1 7
-0.554839 0.003960 -0.134300 75 76 72 39 3
-0.552706 -0.019056 -0.124678 63 55 55 39 3
-0.553037 -0.019278 -0.142757 40 39 29 39 3
-0.029773 -0.217605 -0.184995 140 84 42 3 5
0.004278 -0.218406 -0.168472 126 76 35 3 5
-0.047575 -0.223743 -0.163670 99 65 34 3 5
-0.641984 -0.009333 -0.008683 111 107 89 39 3
-0.630723 -0.016818 -0.012978 108 95 74 39 3
-0.624102 0.002401 -0.011403 90 87 47 39 3
-0.628634 0.018344 -0.016241 101 99 76 39 3
-0.619005 -0.008169 -0.014404 85 80 54 39 3
-0.634345 -0.017415 -0.007541 104 96 90 39 3
-0.639720 0.008574 -0.014978 113 100 79 39 3
-0.628601 0.012897 -0.011892 116 101 83 39 3
-0.622560 0.005630 -0.016187 114 105 80 39 3
-0.629569 0.000195 -0.013748 115 102 77 39 3
-0.380467 0.272986 -0.050602 192 173 139 1 7
0.229812 0.251538 -0.099352 43 46 31 3 5
0.216045 0.251297 -0.103842 47 43 40 3 5
0.230424 0.247631 -0.108917 47 40 41 3 5
0.118429 0.241819 0.419915 48 35 28 3 2
0.138403 0.245029 0.418498 63 43 42 3 2
-0.114973 -0.110242 -0.122478 102 100 87 3 5
-0.563244 -0.051561 -0.101632 23 21 24 39 3
-0.571659 -0.062183 -0.102058 24 21 11 39 3
-0.595832 0.134694 -0.224238 50 42 38 39 3
-0.307980 -0.221421 -0.444887 155 122 104 3 5
-0.310204 -0.219611 -0.460280 135 105 78 3 5
-0.300351 -0.219809 -0.456452 149 106 60 3 5
-0.192739 0.279669 0.003903 177 157 129 1 7
-0.421089 0.274024 0.208590 216 199 174 1 7
-0.399229 0.274084 0.223041 214 193 164 1 7
0.124372 -0.125650 0.397335 250 192 108 3 2
0.117928 -0.114057 0.396923 177 133 86 3 2
0.109182 -0.115922 0.399484 93 64 42 3 2
0.114112 -0.142133 0.400969 127 100 54 3 2
0.117442 -0.141692 0.397037 236 183 100 3 2
0.126916 -0.141243 0.397281 237 184 101 3 2
0.114775 -0.116334 0.412438 53 40 21 40 6
0.103919 -0.140216 0.419849 53 38 37 40 6
-0.458574 0.271436 -0.270784 185 160 128 1 7
-0.491534 0.271228 -0.260409 179 166 123 1 7
-0.485512 0.270839 -0.272409 183 164 127 1 7
-0.503509 0.099010 -0.095836 121 132 123 39 3
-0.241794 -0.221707 -0.345410 170 95 40 3 5
-0.227734 -0.092150 0.399625 108 77 48 3 2
-0.292832 -0.240392 -0.157368 130 112 94 3 5
-0.277701 -0.237593 -0.156672 102 73 57 3 5
-0.301136 -0.227529 -0.177088 129 113 86 3 5
-0.306300 -0.232590 -0.178845 63 61 47 3 5
-0.315328 -0.228255 -0.177014 63 61 47 3 5
-0.307951 -0.246122 -0.158773 127 112 86 3 5
-0.135264 -0.219624 -0.177200 145 85 52 3 5
-0.561734 0.002214 -0.353499 58 49 39 39 3
-0.558785 -0.011740 -0.314072 54 48 45 39 3
-0.559796 -0.001714 -0.336751 58 50 40 39 3
0.010897 0.285211 0.273537 176 155 124 1 7
0.023388 0.284257 0.259090 181 155 131 1 7
-0.018742 0.285038 0.275667 179 152 116 1 7
-0.282034 -0.059790 0.451014 27 20 10 3 2
-0.283572 -0.057450 0.434771 27 20 10 3 2
-0.285217 -0.040915 0.434822 30 21 20 3 2
-0.282274 -0.052864 0.419524 30 21 16 3 2
0.186395 -0.226569 -0.151999 64 44 32 3 5
0.167575 -0.229743 -0.148206 63 53 39 3 5
0.171997 -0.231972 -0.143542 65 58 43 3 5
-0.528494 0.269493 0.396591 215 197 166 1 7
-0.503649 0.268228 0.415293 217 194 169 1 7
-0.518869 0.269999 0.416601 217 193 168 1 7
-0.330174 -0.168015 -0.132406 113 108 88 3 5
-0.333548 -0.183552 -0.139495 122 105 85 3 5
-0.324244 -0.185068 -0.126553 161 145 119 3 5
-0.334450 -0.193894 -0.142428 134 116 104 3 5
-0.312690 -0.205691 -0.125078 133 126 96 3 5
-0.561775 -0.043962 -0.309676 22 18 9 39 3
-0.574721 -0.066433 -0.304183 20 15 17 39 3
-0.576583 -0.070133 -0.294353 17 15 12 39 3
-0.407428 0.272870 -0.135837 189 174 137 1 7
-0.701758 0.261873 -0.027952 237 213 188 1 7
-0.713204 0.262137 -0.011295 243 221 178 1 7
0.147656 0.243961 -0.112634 41 41 28 3 5
0.161736 0.248214 -0.108573 36 36 26 3 5
-0.584052 0.260237 -0.327900 118 104 87 1 7
-0.591134 0.263363 -0.323307 116 100 80 1 7
-0.568782 0.261243 -0.325616 127 110 91 1 7
-0.585136 0.261851 -0.343828 127 112 89 1 7
0.025738 -0.216625 -0.342910 179 115 49 3 5
-0.539848 0.125925 0.010379 130 149 132 39 3
-0.529387 0.138512 0.012868 139 152 145 39 3
-0.533508 0.118831 0.004942 126 142 132 39 3
-0.525112 0.124938 0.004749 125 144 133 39 3
-0.533291 0.131975 0.005750 121 145 131 39 3
-0.543234 0.141050 0.008944 152 161 138 39 3
-0.531530 0.146185 0.009033 138 149 144 39 3
-0.524858 0.134355 0.005874 124 145 133 39 3
-0.528211 0.140155 0.003740 127 147 139 39 3
-0.344010 0.274001 -0.021740 187 167 140 1 7
-0.490077 0.271902 0.016388 170 160 135 1 7
-0.479106 0.273128 0.006376 174 159 136 1 7
-0.458530 0.271856 0.000465 207 187 157 1 7
-0.467937 0.272384 0.027065 207 187 157 1 7
-0.352670 0.274792 0.048755 193 167 144 1 7
-0.357787 0.274858 0.079663 191 170 154 1 7
-0.364738 0.273981 0.045415 194 170 149 1 7
-0.571520 -0.058112 -0.353350 19 17 13 39 3
-0.575130 -0.066787 -0.330240 20 15 14 39 3
-0.568453 -0.053590 -0.319288 19 17 11 39 3
-0.319466 -0.209622 -0.482530 116 95 77 3 5
-0.321911 -0.200381 -0.509866 139 111 80 3 5
-0.314292 -0.217037 -0.494833 106 87 62 3 5
-0.528397 0.271618 0.202349 239 220 188 1 7
-0.499576 0.272008 0.227591 236 218 184 1 7
-0.314654 0.252612 -0.064897 90 81 70 3 5
-0.308449 0.248105 -0.035580 83 78 67 3 5
-0.005422 0.283939 0.129525 196 178 147 1 7
-0.000750 0.284603 0.150621 193 174 147 1 7
0.016932 0.284257 0.149300 198 168 140 1 7
-0.569236 0.267690 -0.364626 131 108 96 1 7
-0.584024 0.266161 -0.359806 134 99 86 1 7
-0.569964 0.266094 -0.346516 137 109 93 1 7
-0.280691 0.268985 -0.017026 52 49 34 3 5
-0.288142 0.276221 -0.005483 175 158 128 1 7
-0.305867 0.252695 -0.026715 62 55 44 3 5
-0.506338 0.268995 -0.266231 183 166 130 1 7
-0.496883 0.269578 -0.279643 181 159 132 1 7
-0.522410 0.261882 -0.279301 148 131 112 1 7
-0.518839 0.266478 -0.265243 176 154 114 1 7
-0.508277 0.262211 -0.288144 159 136 116 1 7
-0.091877 0.282818 0.304184 173 150 128 1 7
-0.101871 0.281232 0.322364 178 151 125 1 7
-0.122683 0.282607 0.296169 175 151 131 1 7
0.259811 -0.196401 0.403362 157 89 42 3 2
0.257208 -0.195374 0.398894 149 86 42 3 2
0.243292 -0.192034 0.397399 148 91 40 3 2
0.246298 -0.198610 0.391700 184 116 48 3 2
0.237584 -0.184538 0.402778 128 70 28 3 2
0.258330 -0.181226 0.408395 149 83 24 3 2
0.243661 -0.178174 0.407718 140 79 29 3 2
0.166769 -0.153049 0.403447 66 45 36 3 2
0.155266 -0.146316 0.401761 115 80 48 3 2
0.159718 -0.128389 0.403210 108 76 46 3 2
0.130575 -0.141478 0.401462 125 83 51 3 2
0.138454 -0.123428 0.402155 90 64 33 3 2
0.145897 -0.116765 0.399741 126 91 49 3 2
0.157448 -0.117318 0.402795 138 99 55 3 2
0.137494 -0.116294 0.396808 171 134 69 3 2
0.120762 -0.132183 0.415661 52 41 22 40 6
0.161283 -0.120765 0.407437 61 44 34 3 2
0.137962 -0.108390 0.413433 70 48 22 40 6
0.151052 -0.130428 0.413825 59 45 34 40 6
0.141516 -0.122836 0.411907 64 39 32 40 6
0.064350 0.283738 0.243594 183 160 122 1 7
0.079775 0.283046 0.245645 186 163 125 1 7
0.152383 -0.136310 0.397913 221 174 90 3 2
0.151256 -0.135824 0.419648 52 39 24 40 6
-0.135221 -0.164113 0.419558 75 62 45 40 6
-0.136998 -0.177887 0.397065 186 139 103 3 2
-0.120108 -0.178069 0.396951 186 141 90 3 2
-0.136388 -0.179419 0.386849 209 172 117 3 2
-0.128523 -0.181135 0.387106 206 166 137 3 2
-0.294447 0.274681 0.325674 188 165 137 1 7
-0.019938 0.004199 -0.120264 88 90 81 3 5
-0.555204 0.270858 0.300340 239 222 187 1 7
-0.524129 0.272354 0.292504 236 216 187 1 7
-0.527967 0.271188 0.309956 231 215 177 1 7
-0.514387 0.267654 -0.201931 129 122 100 1 7
-0.522924 0.267768 -0.192298 95 95 85 1 7
0.036736 0.184843 -0.117831 49 37 32 3 5
0.058995 0.202330 -0.117827 39 37 23 3 5
-0.145698 0.282547 0.081091 190 163 140 1 7
-0.026517 0.115525 -0.120055 56 51 37 3 5
-0.264374 0.203727 -0.121195 34 28 29 3 5
0.013660 -0.095622 0.421680 92 71 42 40 6
0.004559 -0.084496 0.422807 72 54 35 40 6
0.027898 -0.087686 0.427599 77 58 48 40 6
-0.549439 0.270496 0.414187 223 198 165 1 7
-0.560554 0.270178 0.395091 226 203 167 1 7
-0.577882 0.269271 0.400829 227 199 170 1 7
-0.704721 -0.008299 -0.022762 87 79 69 39 3
-0.704904 -0.015677 -0.019350 81 67 68 39 3
-0.678968 -0.001728 -0.017309 105 98 91 39 3
-0.690956 -0.015850 -0.015593 105 96 77 39 3
-0.689430 0.000858 -0.015578 92 83 60 39 3
-0.696552 0.009073 -0.015583 98 82 67 39 3
-0.199814 -0.220359 -0.415909 173 104 43 3 5
-0.225075 -0.227098 -0.124395 101 98 82 3 5
-0.484851 0.270456 -0.428008 191 173 146 1 7
-0.471507 0.270697 -0.411694 186 167 135 1 7
0.145213 -0.090946 0.432462 73 63 56 40 6
0.152505 -0.083739 0.430738 78 53 55 40 6
0.138320 -0.090415 0.421912 83 62 38 40 6
0.151487 -0.087499 0.422542 81 61 55 40 6
0.140923 -0.087038 0.435479 64 54 39 40 6
0.222366 0.097554 -0.111085 148 128 92 3 5
0.237832 0.094090 -0.110786 177 147 110 3 5
0.231594 -0.066142 -0.116455 65 52 30 3 5
0.230995 -0.059310 -0.112076 64 49 38 3 5
0.234327 -0.058325 -0.103530 250 244 193 7 4
0.244565 -0.063443 -0.114164 94 78 55 3 5
-0.717195 0.261388 0.146966 253 241 217 1 7
-0.414782 0.273533 -0.291632 167 152 119 1 7
-0.441635 0.271335 -0.291987 172 157 115 1 7
-0.469010 0.264514 -0.324597 180 163 132 1 7
-0.459617 0.269238 -0.312653 178 157 133 1 7
0.084341 0.247370 0.435008 58 48 26 3 2
0.065029 0.237998 0.423304 72 58 42 3 2
0.065765 0.238276 0.433361 69 55 30 3 2
0.075803 0.251345 0.433768 58 48 26 3 2
-0.707626 -0.105653 -0.286817 103 97 91 39 3
-0.712683 -0.092970 -0.292723 43 34 30 39 3
-0.708539 -0.092611 -0.307459 53 48 28 39 3
-0.721847 -0.101624 -0.315821 43 36 34 39 3
-0.716350 -0.093044 -0.301795 46 38 31 39 3
-0.714846 -0.104729 -0.298693 76 66 62 39 3
-0.707130 -0.107884 -0.303546 75 69 59 39 3
-0.731918 -0.109267 -0.315242 29 23 12 39 3
-0.722954 -0.112274 -0.310080 31 24 16 39 3
-0.713865 -0.112697 -0.310452 29 25 19 39 3
-0.717024 -0.106958 -0.310938 31 24 22 39 3
-0.708057 -0.091703 -0.289672 37 28 24 39 3
-0.504942 0.268128 -0.411454 195 176 145 1 7
-0.534755 0.268535 -0.453232 196 179 144 1 7
-0.513557 0.268407 -0.417534 198 175 165 1 7
-0.169381 -0.239015 -0.128390 50 45 45 3 5
-0.177600 -0.241350 -0.137892 51 43 41 3 5
-0.171439 -0.240742 -0.132070 47 50 27 3 5
-0.158348 -0.234469 -0.125430 50 47 41 3 5
-0.589943 -0.079701 -0.207624 28 22 16 39 3
-0.581931 -0.077027 -0.199818 24 18 20 39 3
0.083976 -0.173929 0.386506 201 169 113 3 2
0.032504 -0.216208 -0.237315 174 110 54 3 5
0.097259 -0.215549 -0.207410 177 115 59 3 5
0.054243 -0.216127 -0.225410 173 111 61 3 5
0.055514 -0.217086 -0.243262 172 110 58 3 5
0.042681 -0.216400 -0.243629 180 116 50 3 5
-0.455383 0.272085 0.405675 205 186 145 1 7
-0.433661 0.273130 0.420095 204 184 151 1 7
-0.624489 -0.075113 -0.278980 25 23 17 39 3
-0.636944 -0.082282 -0.254113 29 26 37 39 3
-0.626128 -0.076342 -0.256315 21 23 38 39 3
-0.632641 -0.074023 -0.270095 20 24 38 39 3
-0.637084 -0.077909 -0.270463 34 26 18 39 3
-0.494025 0.144453 -0.049817 116 130 123 39 3
-0.489574 0.139346 -0.063658 103 122 108 39 3
-0.505611 0.115371 -0.033642 122 141 124 39 3
-0.492702 0.144320 -0.036516 123 133 122 39 3
0.181010 -0.213749 -0.205721 179 115 64 3 5
-0.292459 0.288230 -0.280477 93 77 62 1 7
0.106869 0.280423 0.370887 163 136 117 1 7
0.130286 0.282160 0.375128 160 141 104 1 7
0.126178 0.280859 0.357727 168 137 121 1 7
0.119051 0.285944 0.378951 165 141 107 3 2
0.115887 0.264302 0.386038 162 131 99 3 2
0.126397 0.279186 0.380171 160 129 98 3 2
0.039881 0.284105 0.245964 189 159 128 1 7
0.102813 0.282855 0.013151 185 167 135 1 7
0.018373 0.009375 -0.120007 98 91 78 3 5
0.023535 0.249952 -0.079821 35 37 29 3 5
-0.119045 0.262449 0.387822 74 53 42 3 2
-0.329560 -0.205050 0.427471 181 164 126 3 2
-0.332720 -0.188753 0.429213 204 183 141 3 2
-0.217313 0.278290 0.297288 180 157 127 1 7
-0.221875 0.276059 0.322100 175 157 126 1 7
0.100917 0.100437 -0.118089 65 63 50 3 5
-0.045884 -0.193295 0.375351 246 192 112 3 2
-0.039055 -0.204829 0.379298 254 204 104 3 2
-0.062078 -0.199030 0.375956 246 193 116 3 2
-0.062135 -0.186416 0.381592 212 180 125 3 2
0.084721 -0.220728 -0.120744 117 115 105 3 5
0.102852 -0.219313 -0.120665 116 114 96 3 5
0.070454 -0.218760 -0.121081 119 115 94 3 5
0.084583 -0.177415 -0.120108 113 115 91 3 5
-0.568210 0.039424 -0.513074 49 39 32 39 3
-0.566096 0.028807 -0.537421 49 42 33 39 3
-0.568575 0.038684 -0.527762 52 42 35 39 3
-0.558499 -0.010713 -0.364255 49 44 33 39 3
-0.354585 0.273361 0.323844 203 184 142 1 7
-0.372117 0.274211 0.341173 205 182 151 1 7
-0.348068 0.273975 0.336134 199 181 147 1 7
-0.351993 0.273702 0.356829 204 178 148 1 7
0.019035 -0.123284 -0.121216 105 102 79 3 5
-0.571460 0.061408 -0.456348 56 53 38 39 3
-0.581152 0.072250 -0.463500 39 38 34 39 3
-0.580675 0.068071 -0.467032 19 21 18 39 3
-0.576012 0.065035 -0.437805 56 46 34 39 3
-0.570304 0.057057 -0.461706 42 40 27 39 3
-0.577035 0.052058 -0.467604 42 40 27 39 3
-0.577840 0.062586 -0.448345 22 19 15 39 3
-0.642003 -0.072438 -0.349369 24 25 16 39 3
-0.649910 -0.074121 -0.321321 24 21 24 39 3
0.016888 0.284111 0.238841 186 156 128 1 7
-0.031395 -0.193942 0.409594 76 61 45 3 2
-0.058997 -0.196192 0.410067 73 56 43 3 2
-0.031951 -0.211937 0.396699 67 58 24 3 2
-0.049655 -0.215649 0.395865 218 167 88 3 2
-0.037896 -0.214619 0.391221 216 169 87 3 2
-0.060973 -0.211961 0.403459 54 41 34 3 2
-0.046668 -0.208393 0.401056 56 40 25 3 2
-0.035768 -0.210687 0.384890 252 207 109 3 2
0.133999 0.283679 0.022576 192 175 145 1 7
0.121459 0.283294 0.009584 190 172 132 1 7
-0.176546 -0.220259 -0.311660 184 116 51 3 5
-0.144139 -0.219560 -0.316846 189 113 57 3 5
-0.187302 0.271592 0.376800 166 137 105 1 7
-0.186905 0.268145 0.383058 148 115 69 3 2
-0.202307 0.273483 0.383660 189 153 111 3 2
-0.173433 0.276311 0.383143 170 137 89 1 7
-0.198411 0.276089 0.366167 162 144 118 1 7
-0.707201 -0.131766 -0.237822 181 66 50 39 3
-0.711646 -0.130268 -0.235497 143 51 32 39 3
-0.727329 -0.144527 -0.247999 176 66 46 39 3
-0.727304 -0.126341 -0.241219 85 27 22 39 3
-0.719274 -0.126123 -0.236291 164 63 47 39 3
-0.711163 -0.146981 -0.248258 223 79 74 39 3
-0.705019 -0.145769 -0.255920 208 68 62 39 3
-0.214808 -0.220819 -0.454409 172 99 43 3 5
-0.253054 -0.221763 -0.454660 166 98 49 3 5
-0.659798 -0.135301 -0.103863 46 40 40 39 3
-0.594641 -0.076020 -0.432935 25 22 19 39 3
-0.587812 -0.077065 -0.419828 24 22 20 39 3
-0.580092 -0.071123 -0.420402 20 19 10 39 3
-0.706230 -0.088299 -0.174652 27 25 16 39 3
-0.701885 -0.100467 -0.162145 27 23 20 39 3
-0.685080 -0.094271 -0.164828 26 24 23 39 3
-0.703608 -0.091431 -0.168566 23 22 19 39 3
-0.674334 -0.086191 -0.167059 26 25 20 39 3
0.229818 -0.214011 -0.370409 184 118 43 3 5
-0.047119 0.284297 0.253966 182 157 125 1 7
-0.023425 0.284667 0.244841 182 157 133 1 7
-0.570451 0.070552 -0.210311 52 45 40 39 3
-0.575515 0.074902 -0.200526 55 45 44 39 3
-0.568469 0.057680 -0.218759 47 41 29 39 3
-0.574929 0.075702 -0.214499 37 31 25 39 3
-0.567191 0.059967 -0.199652 46 42 32 39 3
0.004358 0.284531 0.093591 190 171 145 1 7
0.001696 0.284919 0.108442 188 172 146 1 7
0.244307 -0.214151 -0.531972 183 112 39 3 5
-0.716604 0.261397 0.300675 248 230 198 1 7
-0.180170 0.279226 0.036311 178 167 129 1 7
-0.181901 0.281083 0.062455 178 167 129 1 7
-0.198176 0.280234 0.060211 182 159 141 1 7
-0.199025 0.278298 0.023861 182 163 129 1 7
-0.700741 -0.101340 -0.024082 78 67 67 39 3
-0.697814 -0.116210 -0.025799 65 63 57 39 3
-0.704864 -0.095820 -0.021023 69 58 50 39 3
-0.669458 -0.091609 -0.023001 88 78 66 39 3
-0.714908 -0.090578 -0.016049 91 81 65 39 3
0.088130 0.240315 0.404432 71 56 37 3 2
0.095158 0.237425 0.416822 77 59 48 3 2
0.106811 0.234707 0.414151 82 60 38 3 2
0.078167 0.232897 0.416243 68 61 43 3 2
0.102857 0.237073 0.420186 71 58 44 3 2
0.182034 -0.106792 -0.118277 116 112 84 3 5
-0.312284 0.033491 -0.123047 110 99 77 3 5
-0.745727 0.257804 -0.084529 112 101 89 1 7
-0.734920 0.256082 -0.071473 109 101 85 1 7
-0.719421 0.255849 -0.079220 101 92 84 1 7
-0.720147 0.254443 -0.084745 47 40 24 1 7
-0.733467 0.253900 -0.085476 45 36 20 1 7
-0.741362 0.252808 -0.089669 104 91 77 1 7
-0.718962 0.256970 -0.056008 118 106 81 1 7
-0.325521 0.276291 0.273222 197 177 146 1 7
-0.698147 -0.140557 -0.106869 33 32 30 39 3
-0.679709 -0.139789 -0.113259 40 35 26 39 3
-0.193793 -0.220717 -0.297409 172 104 54 3 5
-0.576989 0.068899 -0.421456 63 54 45 39 3
-0.569991 0.057425 -0.434352 69 60 54 39 3
-0.570178 0.057360 -0.416965 64 54 43 39 3
-0.568106 0.049718 -0.441409 58 51 39 39 3
-0.584573 0.077708 -0.411074 46 39 31 39 3
-0.582504 0.074312 -0.430466 47 35 31 39 3
-0.552398 0.172242 -0.105258 99 123 105 39 3
-0.558772 0.190117 -0.111905 94 110 105 39 3
-0.248394 -0.099555 0.395775 116 89 58 3 2
-0.228094 -0.109949 0.412924 56 43 30 3 2
-0.233399 -0.102051 0.408989 62 42 31 3 2
-0.229847 -0.115589 0.418688 71 48 30 3 2
-0.240270 -0.119282 0.395176 143 108 68 3 2
-0.235756 -0.106887 0.405075 74 58 39 3 2
-0.567375 0.041047 -0.469697 48 45 47 39 3
-0.569287 0.047176 -0.464176 51 45 32 39 3
0.050707 0.283647 0.286679 177 155 113 1 7
0.079615 0.283831 0.273263 179 155 123 1 7
-0.661390 0.246183 -0.103594 81 73 55 1 7
-0.662853 0.260730 -0.115870 76 73 56 1 7
-0.667571 0.256934 -0.100356 85 76 65 1 7
-0.661271 0.257597 -0.104484 79 72 54 1 7
-0.658661 0.262310 -0.093794 91 82 63 1 7
-0.479026 0.271549 -0.076544 187 170 132 1 7
-0.404953 0.272687 -0.043909 201 179 145 1 7
0.123261 0.283606 0.075965 198 176 148 1 7
-0.117132 0.086788 -0.121071 81 79 68 3 5
-0.004784 -0.216800 -0.218409 183 118 33 3 5
0.007692 -0.220770 -0.253857 177 126 71 3 5
0.018630 -0.216642 -0.244147 172 122 74 3 5
0.076494 -0.234897 -0.142326 64 61 38 3 5
0.062829 -0.235489 -0.133361 62 58 49 3 5
0.103411 -0.231555 -0.148286 60 50 44 3 5
0.059553 -0.234611 -0.128538 59 57 50 3 5
0.012777 0.285486 0.068736 194 174 150 1 7
0.032801 0.284659 0.086840 193 174 144 1 7
-0.304553 0.275742 0.028591 186 166 140 1 7
-0.281552 0.276220 0.037591 184 164 131 1 7
-0.270406 0.277006 0.031817 187 166 129 1 7
-0.617370 -0.073362 -0.473297 23 19 15 39 3
-0.638813 -0.075256 -0.499506 41 42 41 39 3
-0.638423 -0.077821 -0.506450 47 47 50 39 3
-0.622676 -0.076148 -0.509034 55 44 46 39 3
-0.338647 -0.216081 -0.143983 127 112 93 3 5
-0.336130 -0.204556 -0.160186 131 115 100 3 5
-0.319735 -0.237926 -0.127589 140 124 102 3 5
-0.318897 -0.230297 -0.124454 138 125 101 3 5
-0.319201 -0.186841 -0.124476 148 134 105 3 5
-0.333839 -0.207477 -0.135318 160 143 109 3 5
-0.327321 -0.223418 -0.129277 131 112 86 3 5
-0.004655 0.284614 0.045090 187 170 136 1 7
0.027344 0.283868 0.055455 191 173 142 1 7
-0.016671 0.284715 0.061590 191 171 144 1 7
-0.265816 -0.222101 -0.339297 167 103 53 3 5
-0.284312 -0.222247 -0.303909 171 109 56 3 5
-0.268400 -0.222746 -0.315534 178 107 47 3 5
-0.049797 -0.217483 -0.360409 180 113 34 3 5
0.168432 0.217619 -0.115516 51 49 38 3 5
-0.692285 -0.082750 -0.476409 25 26 19 39 3
-0.679980 -0.079511 -0.497752 39 40 33 39 3
0.197790 0.280246 0.181222 213 181 156 1 7
0.186673 0.281512 0.192239 201 176 126 1 7
0.183799 0.281689 0.156889 209 180 140 1 7
-0.058947 0.284442 0.266053 184 157 136 1 7
-0.085667 0.283133 0.262590 181 158 147 1 7
-0.568181 0.066274 -0.186554 52 44 35 39 3
-0.564535 0.068612 -0.160542 63 55 50 39 3
-0.564062 0.066827 -0.172881 45 44 51 39 3
-0.238471 0.242710 0.391488 139 114 92 3 2
-0.248788 0.261784 0.388835 101 83 54 3 2
-0.254552 0.229809 0.395742 108 84 71 3 2
-0.244310 0.238525 0.394671 74 58 39 3 2
-0.251619 0.239688 0.412595 54 42 35 3 2
-0.263656 0.242701 0.393645 131 101 82 3 2
-0.270624 0.236583 0.400619 62 50 29 3 2
-0.245735 0.234342 0.402482 67 50 39 3 2
-0.256372 0.224144 0.399715 45 26 26 3 2
-0.264186 0.234931 0.414812 57 45 24 3 2
0.076490 0.249419 -0.107684 35 33 25 3 5
0.072295 0.239228 -0.115209 40 33 28 3 5
0.070766 0.245616 -0.112650 37 32 29 3 5
-0.563084 0.017179 -0.403912 44 45 34 39 3
-0.564628 0.022578 -0.396704 54 46 37 39 3
-0.295249 0.088201 0.400299 54 41 21 3 2
-0.295654 0.108094 0.402814 54 40 23 3 2
-0.292015 0.124309 0.413212 60 43 30 3 2
-0.292237 0.108719 0.412396 47 33 27 3 2
-0.292541 0.107905 0.393063 110 78 41 3 2
0.025510 -0.019403 -0.120026 103 99 81 3 5
0.011704 -0.012687 -0.119933 102 93 82 3 5
-0.524775 0.267553 -0.068549 123 143 141 1 7
-0.515637 0.270929 -0.063197 129 137 125 1 7
-0.509790 0.269504 -0.075552 108 119 109 1 7
-0.497241 0.271750 -0.059673 146 144 117 1 7
-0.561792 0.019517 -0.226897 45 40 25 39 3
-0.563571 0.031546 -0.198858 52 46 29 39 3
-0.298105 0.208802 -0.147659 42 39 35 0 0
-0.493736 0.271610 0.378818 218 196 163 1 7
-0.477502 0.271746 0.361941 214 196 163 1 7
-0.479782 0.274056 0.378712 215 195 170 1 7
-0.456257 0.275165 0.380266 212 196 156 1 7
-0.668588 0.253395 -0.513138 94 82 58 1 7
-0.666284 0.245621 -0.538705 95 85 82 1 7
-0.662858 0.255045 -0.541405 107 94 76 1 7
-0.667642 0.260307 -0.509061 108 96 84 1 7
-0.494844 0.271294 0.367693 224 202 170 1 7
-0.529637 0.270859 0.331492 227 208 172 1 7
-0.504990 0.270816 0.338286 224 203 174 1 7
-0.490871 0.124332 -0.157705 83 87 97 39 3
-0.494797 0.127983 -0.194645 85 96 91 39 3
-0.602552 0.265486 -0.064785 143 133 95 1 7
-0.494550 0.147267 -0.162642 72 83 71 39 3
-0.494030 0.141624 -0.177119 75 87 76 39 3
-0.617175 0.262865 -0.093988 111 99 85 1 7
-0.493726 0.116312 -0.171317 89 99 105 39 3
-0.604495 0.263294 -0.087299 141 132 97 1 7
-0.273704 0.277379 0.069554 187 164 140 1 7
-0.301523 0.277479 0.105812 186 167 136 1 7
-0.294387 0.276482 0.077606 185 166 139 1 7
-0.285758 0.277599 0.066515 188 164 143 1 7
-0.342408 0.274479 0.140403 191 174 138 1 7
-0.308066 0.275954 0.151841 191 169 147 1 7
-0.310342 0.275503 0.132057 191 170 147 1 7
0.236738 -0.176277 0.403492 109 59 30 3 2
0.250286 -0.172545 0.403637 143 80 38 3 2
0.233630 -0.165253 0.392917 204 153 81 3 2
0.239104 -0.167819 0.397682 140 78 23 3 2
0.256286 -0.167996 0.391157 255 251 222 3 2
-0.006471 -0.216836 -0.408159 179 111 55 3 5
0.027741 -0.216659 -0.374910 180 113 49 3 5
-0.596548 -0.091050 -0.143364 16 19 12 39 3
-0.580913 -0.078504 -0.111413 24 16 19 39 3
-0.591015 -0.080892 -0.155900 30 25 20 39 3
-0.611225 -0.090262 -0.153233 30 24 24 39 3
-0.582889 -0.079318 -0.141580 27 24 14 39 3
-0.064039 0.282900 0.097112 186 170 134 1 7
-0.072260 0.283837 0.120205 190 177 148 1 7
0.014032 -0.115684 0.414817 76 59 43 40 6
0.025043 -0.102713 0.425288 82 66 47 40 6
-0.050042 -0.180232 0.385197 190 159 117 3 2
-0.515283 0.169182 -0.197757 126 123 102 39 3
-0.509843 0.157607 -0.204664 121 122 101 39 3
-0.513289 0.146763 -0.227408 141 128 105 39 3
-0.515877 0.161526 -0.208641 133 125 102 39 3
-0.522824 0.158066 -0.212151 135 132 119 39 3
-0.491996 0.265205 -0.526358 199 176 160 1 7
-0.481126 0.268179 -0.519909 194 176 148 1 7
-0.481263 0.268491 -0.549260 199 174 153 1 7
-0.468591 0.269333 -0.532849 194 170 152 1 7
0.011605 -0.156578 -0.121742 94 92 80 3 5
-0.670817 -0.078708 -0.184012 25 22 24 39 3
-0.680648 -0.080735 -0.174021 26 24 24 39 3
-0.660507 -0.080566 -0.171297 28 23 20 39 3
-0.648615 -0.078490 -0.171192 28 20 30 39 3
-0.308922 -0.188993 0.384152 210 183 141 3 2
-0.296406 -0.183024 0.387729 214 182 145 3 2
-0.079058 0.131742 -0.120444 47 39 19 3 5
-0.111365 0.138089 -0.120477 46 43 35 3 5
0.092603 0.284201 0.100306 196 174 143 1 7
0.095425 0.282730 0.119402 199 179 149 1 7
-0.322161 -0.203373 -0.411478 144 121 110 3 5
-0.310958 -0.220651 -0.400548 111 94 74 3 5
-0.322217 -0.205843 -0.388903 120 109 91 3 5
-0.316865 -0.214593 -0.411120 114 92 74 3 5
0.081655 -0.215467 -0.361160 179 110 47 3 5
0.097918 0.282929 0.137531 203 179 141 1 7
0.130107 0.281553 0.154591 200 176 139 1 7
0.128718 0.281873 0.138279 203 183 137 1 7
-0.577978 -0.072423 -0.065708 26 19 19 39 3
-0.396826 0.273468 -0.000099 203 179 154 1 7
-0.394808 0.274033 0.016177 199 179 139 1 7
-0.374639 0.274467 0.022921 188 174 143 1 7
-0.335152 0.278123 -0.214357 137 126 109 1 7
-0.352930 0.276993 -0.237494 143 126 111 1 7
-0.332354 0.277772 -0.235726 137 126 106 1 7
-0.091519 -0.219035 -0.242033 186 114 45 3 5
-0.107902 -0.219208 -0.275284 183 114 47 3 5
-0.281350 -0.221167 0.430528 198 157 79 3 2
-0.277621 -0.203917 0.421305 74 46 32 3 2
-0.385546 0.273814 -0.146410 184 162 138 1 7
-0.394291 0.272863 -0.129175 185 165 141 1 7
-0.326470 0.270319 0.434984 140 119 97 1 7
-0.110543 -0.234974 -0.153551 110 68 35 3 5
-0.247322 -0.176201 0.436984 78 74 54 40 6
-0.231359 -0.176023 0.439187 152 139 129 40 6
-0.244216 -0.175530 0.430142 90 82 75 40 6
0.212138 -0.031977 -0.111560 72 60 45 3 5
0.213639 -0.010570 -0.112967 76 65 47 3 5
0.209260 -0.008194 -0.115753 98 92 74 3 5
0.208511 -0.032550 -0.115843 109 106 87 3 5
0.216954 -0.047164 -0.111893 77 67 50 3 5
0.214403 -0.026908 -0.096621 140 120 88 7 4
-0.232072 -0.170608 0.423899 74 70 54 40 6
0.129276 0.031233 -0.118379 102 94 81 3 5
-0.565704 0.032774 -0.423985 48 44 28 39 3
-0.564797 0.028539 -0.438977 50 48 37 39 3
-0.185871 0.241852 0.408194 61 50 32 3 2
-0.183053 0.239216 0.392517 70 54 37 3 2
-0.199656 0.242232 0.414735 60 45 31 3 2
-0.191915 0.245376 0.415924 61 49 42 3 2
-0.193705 0.234114 0.399486 55 45 29 3 2
-0.198831 0.238743 0.404646 55 45 29 3 2
-0.200216 0.234777 0.392685 69 53 39 3 2
-0.195775 0.248272 0.389654 104 83 63 3 2
-0.179803 0.244210 0.389509 69 54 36 3 2
-0.177172 0.237311 0.400027 64 47 47 3 2
-0.175104 0.240423 0.422108 60 55 31 3 2
-0.227634 -0.242483 -0.138894 50 44 40 3 5
-0.214168 -0.241138 -0.146850 47 43 41 3 5
-0.257486 -0.239620 -0.127886 51 43 38 3 5
-0.196650 -0.231123 -0.124642 55 48 39 3 5
-0.632659 0.263620 -0.065494 110 98 79 1 7
-0.640547 0.263975 -0.075316 100 93 65 1 7
-0.631867 0.262995 -0.081258 68 63 54 1 7
-0.654511 0.263931 -0.077883 96 92 67 1 7
-0.470347 0.272981 0.220885 232 213 193 1 7
-0.504762 0.272443 0.200028 232 218 179 1 7
-0.262145 0.129754 -0.121587 33 33 30 3 5
-0.030827 -0.078994 0.405144 65 47 46 3 2
-0.022749 -0.069573 0.403274 60 51 39 3 2
-0.025832 -0.062233 0.398778 60 49 34 3 2
-0.016936 -0.081550 0.403982 57 42 30 3 2
-0.022333 -0.080546 0.418907 78 66 36 40 6
-0.006308 -0.081808 0.418238 71 61 34 40 6
-0.032625 -0.078153 0.396763 169 127 77 3 2
-0.021109 -0.077907 0.396982 66 46 30 3 2
-0.413724 0.271951 0.403982 206 184 142 1 7
-0.402527 0.271659 0.406328 200 179 146 1 7
-0.438877 0.275759 0.396738 207 183 149 1 7
-0.423864 0.271362 0.407309 203 181 150 1 7
0.037225 -0.216083 -0.384409 181 115 44 3 5
0.203109 0.099677 -0.108670 93 84 61 3 5
0.196723 0.120797 -0.114231 72 67 48 3 5
0.188146 0.095463 -0.114154 78 76 59 3 5
0.211097 0.088977 -0.106707 111 100 73 3 5
0.039149 0.282529 0.331170 170 148 111 1 7
0.078818 0.282993 0.322964 168 149 118 1 7
0.061749 0.281688 0.356082 168 146 109 1 7
0.061479 0.281809 0.341603 166 148 105 1 7
-0.150874 0.281801 0.320124 176 154 120 1 7
-0.171528 0.281641 0.299661 174 157 125 1 7
0.177944 0.281944 0.320942 181 153 115 1 7
0.234825 0.283163 0.028956 226 205 180 1 7
-0.004912 -0.223047 -0.121917 110 108 90 3 5
-0.015710 -0.195807 -0.121602 109 103 90 3 5
-0.072525 0.283032 0.039591 180 162 142 1 7
-0.045137 0.283475 0.029610 174 165 125 1 7
-0.749510 -0.119657 -0.032221 50 43 31 39 3
0.198796 -0.214197 -0.380534 186 116 51 3 5
-0.606306 -0.074799 -0.370393 22 22 14 39 3
-0.580068 -0.070672 -0.354397 23 17 15 39 3
-0.584536 -0.074638 -0.346910 25 19 19 39 3
-0.593977 -0.077825 -0.335334 26 23 13 39 3
-0.090544 0.272580 0.388236 104 83 66 3 2
-0.318414 0.276334 -0.511663 130 116 101 1 7
-0.328817 0.278158 -0.541982 131 114 108 1 7
-0.316110 0.278378 -0.540839 132 118 103 1 7
-0.332657 0.275495 -0.520995 127 119 103 1 7
-0.302253 0.276476 -0.530587 118 104 85 1 7
-0.300829 0.272379 -0.509170 118 104 89 1 7
-0.573022 0.065403 -0.406408 62 52 33 39 3
-0.571623 0.061136 -0.386981 58 52 33 39 3
-0.567397 0.044687 -0.383955 69 62 42 39 3
-0.580016 0.064041 -0.379371 52 45 44 39 3
-0.582181 0.073971 -0.403260 45 43 40 39 3
-0.066025 -0.218448 -0.173757 139 88 35 3 5
-0.071950 -0.221779 -0.167167 104 64 27 3 5
-0.559873 0.016284 -0.174689 51 47 39 39 3
-0.564265 0.047541 -0.182567 53 44 33 39 3
-0.021163 -0.217054 -0.349909 177 109 45 3 5
-0.016262 -0.217528 -0.331410 167 101 47 3 5
0.007737 -0.217006 -0.322410 162 101 49 3 5
-0.270627 0.278182 0.253591 183 168 137 1 7
-0.243932 0.278206 0.279326 183 166 137 1 7
0.057368 -0.216053 -0.294285 172 108 56 3 5
0.039228 -0.216098 -0.321410 162 101 44 3 5
0.132285 -0.215359 -0.331410 185 118 46 3 5
-0.697119 0.017724 -0.018426 54 49 34 39 3
-0.681149 0.012281 -0.020709 80 75 52 39 3
-0.326335 -0.026583 -0.134867 117 102 85 3 5
-0.490391 0.143110 -0.103703 106 119 111 39 3
-0.498477 0.153561 -0.125468 103 108 109 39 3
-0.676716 0.264089 0.323252 243 223 194 1 7
-0.661847 0.266091 0.344840 237 217 190 1 7
-0.671203 0.264970 0.313688 237 218 181 1 7
-0.686386 0.263572 0.343466 238 215 185 1 7
-0.098077 0.283515 0.202885 188 165 137 1 7
-0.713253 -0.086280 -0.391093 31 26 21 39 3
0.138970 0.250501 -0.057159 37 38 26 3 5
0.126204 0.251746 -0.030559 36 37 21 3 5
-0.310317 0.276812 0.292152 200 178 144 1 7
-0.322490 0.275657 0.311870 199 179 143 1 7
-0.215114 -0.220960 -0.288378 179 106 41 3 5
-0.237775 -0.222077 -0.248410 183 107 52 3 5
-0.246541 -0.221921 -0.282659 176 106 42 3 5
-0.217782 -0.221491 -0.250409 177 111 44 3 5
-0.358043 0.270661 0.401051 193 171 136 1 7
-0.344645 0.271714 0.387281 194 170 141 1 7
-0.339970 0.270349 0.401398 190 165 137 1 7
-0.348075 0.270139 0.415132 181 163 127 1 7
-0.371301 0.272795 0.405652 193 173 129 1 7
-0.360876 0.270332 0.419913 187 161 126 1 7
0.184643 0.250389 -0.103790 46 43 43 3 5
0.196727 0.248588 -0.108509 40 38 27 3 5
0.193466 0.243636 -0.112225 52 41 48 3 5
-0.564889 0.028782 -0.370650 63 57 43 39 3
-0.566356 0.049669 -0.368722 64 54 52 39 3
-0.039051 -0.155154 0.419697 72 61 55 40 6
-0.038823 -0.154533 0.399332 100 72 47 3 2
-0.048225 -0.146143 0.402566 66 49 49 3 2
-0.046286 -0.188561 0.407803 64 55 30 3 2
-0.041916 -0.174808 0.392896 192 164 110 3 2
-0.050770 -0.172975 0.403128 66 56 48 3 2
-0.040425 -0.169841 0.399439 60 47 27 3 2
-0.046819 -0.155295 0.397813 150 123 68 3 2
-0.060477 -0.172984 0.396351 154 127 73 3 2
0.168130 0.281661 0.204189 199 169 144 1 7
0.145105 0.281558 0.213921 194 168 129 1 7
0.036264 0.213445 -0.117710 39 35 19 3 5
0.033223 0.232662 -0.116530 37 32 30 3 5
-0.078030 0.248570 -0.051935 33 30 26 3 5
-0.041316 0.249958 -0.035670 42 28 23 3 5
-0.066445 0.249959 -0.036228 28 32 25 3 5
-0.570002 0.262131 -0.195379 105 117 102 1 7
-0.588828 0.268453 -0.184536 102 113 92 1 7
-0.570992 0.264368 -0.152925 109 124 114 1 7
-0.572056 0.265563 -0.173546 107 111 103 1 7
0.046299 -0.148994 0.422376 55 47 40 40 6
-0.747803 0.260731 0.033163 245 222 194 1 7
0.143366 0.279818 0.357932 170 143 112 1 7
0.161840 0.282724 0.364384 167 142 116 1 7
0.163794 0.285347 0.375393 167 139 109 1 7
0.146303 0.282508 0.374572 163 134 108 1 7
0.150356 0.279193 0.379469 164 134 94 3 2
0.172324 0.275046 0.384551 158 131 98 3 2
0.162342 0.279541 0.384052 165 135 95 3 2
0.168766 0.281148 0.388058 158 124 88 1 7
0.175904 0.279747 0.376239 161 141 104 1 7
-0.028041 0.242927 0.425561 71 51 41 3 2
-0.026078 0.239424 0.439030 68 54 41 3 2
-0.022390 0.247031 0.431699 62 49 35 3 2
-0.046502 0.242003 0.439825 59 45 42 3 2
-0.018024 0.241452 0.426374 64 52 45 3 2
-0.029705 0.241332 0.442805 25 18 5 3 2
-0.021968 0.245837 0.448423 25 18 19 3 2
-0.040511 0.237712 0.437558 54 45 51 3 2
-0.015012 0.239893 0.439158 56 42 35 3 2
-0.293712 0.249951 -0.025145 29 32 17 3 5
-0.674151 -0.046267 -0.012860 113 98 76 39 3
-0.667426 -0.035678 -0.015730 111 100 75 39 3
-0.657115 -0.052259 -0.009854 101 87 82 39 3
-0.648385 -0.047433 -0.007564 103 87 78 39 3
-0.615888 0.269862 -0.344658 74 58 43 1 7
-0.659938 0.252337 -0.288746 94 83 70 1 7
-0.661540 0.255390 -0.295838 94 83 73 1 7
-0.665590 0.259603 -0.306059 73 66 41 1 7
-0.670428 0.255045 -0.330845 72 62 43 1 7
-0.663364 0.258010 -0.283504 84 71 44 1 7
-0.562252 -0.043388 -0.320689 24 21 20 39 3
-0.557568 -0.021469 -0.323674 44 37 26 39 3
-0.558844 -0.015035 -0.347736 47 43 38 39 3
-0.559178 -0.033965 -0.319362 33 26 23 39 3
-0.264370 0.277613 0.199403 189 172 147 1 7
0.174320 -0.215265 -0.428410 173 111 46 3 5
0.171547 -0.214812 -0.407409 172 111 42 3 5
-0.133819 -0.218816 -0.467910 175 109 48 3 5
-0.129250 0.239996 0.402399 54 41 36 3 2
-0.111532 0.240010 0.395889 51 41 35 3 2
-0.139534 0.248338 0.390127 65 51 41 3 2
-0.120494 0.245247 0.409126 60 47 31 3 2
-0.131499 0.245049 0.417136 69 53 42 3 2
-0.541523 0.153079 0.009883 122 150 137 39 3
-0.547732 0.153874 0.007956 147 153 138 39 3
-0.570367 0.062082 -0.369491 59 51 45 39 3
-0.575744 0.062173 -0.352291 52 45 18 39 3
-0.578659 0.069007 -0.371853 62 54 37 39 3
-0.345069 0.277034 -0.303455 133 119 102 1 7
-0.343961 0.278860 -0.276124 134 120 99 1 7
0.161763 -0.214241 -0.291409 182 112 54 3 5
0.142087 -0.214938 -0.305910 182 115 49 3 5
-0.425799 0.272811 -0.496446 174 154 135 1 7
-0.549870 0.034167 -0.104576 92 109 104 39 3
0.003414 0.284851 0.179638 192 168 137 1 7
-0.003400 0.284537 0.193340 191 169 142 1 7
-0.019901 0.285276 0.174542 190 173 127 1 7
0.136275 -0.215084 -0.285410 185 121 50 3 5
-0.050461 0.248132 -0.107276 36 27 29 3 5
-0.318914 -0.207419 -0.220343 154 137 112 3 5
-0.321008 -0.199934 -0.227163 147 135 109 3 5
-0.315337 -0.217568 -0.240282 130 115 94 3 5
-0.008364 0.256376 -0.024496 31 34 14 3 5
-0.022158 0.262558 -0.020740 40 31 23 3 5
0.007073 0.261025 -0.020757 37 33 21 3 5
0.018484 0.251577 -0.031249 36 31 29 3 5
-0.323529 -0.238588 -0.150012 173 152 123 3 5
-0.332119 -0.235389 -0.141851 136 120 95 3 5
-0.319546 -0.170026 -0.479569 68 48 39 3 5
-0.319296 -0.189726 -0.467005 168 137 110 3 5
-0.317905 -0.182087 -0.460819 68 46 26 3 5
-0.320310 -0.170678 -0.460180 91 69 49 3 5
-0.319449 -0.185647 -0.453210 47 33 32 3 5
-0.321812 -0.202115 -0.449054 169 136 106 3 5
-0.596077 0.263321 -0.477601 154 137 104 1 7
-0.608094 0.262355 -0.503785 133 119 87 1 7
0.011976 -0.216654 -0.289660 168 103 48 3 5
-0.318897 0.153754 -0.132475 120 108 92 3 5
-0.312708 0.139655 -0.144314 54 50 33 0 0
-0.317730 0.130250 -0.140391 92 83 70 0 0
-0.303218 0.160635 -0.143677 58 48 47 0 0
-0.309642 0.152033 -0.145151 66 51 50 0 0
-0.658880 -0.083635 -0.289739 24 21 17 39 3
-0.651268 -0.108328 -0.263012 25 22 14 39 3
-0.663405 -0.082306 -0.280783 25 23 11 39 3
-0.647560 -0.107249 -0.291840 37 33 29 39 3
-0.659184 -0.088303 -0.266944 24 21 18 39 3
-0.642880 -0.122174 -0.257958 30 27 20 39 3
-0.314180 0.003631 -0.123873 117 100 79 3 5
-0.296962 0.041000 -0.123044 79 73 68 3 5
-0.023246 0.284321 0.303590 174 152 124 1 7
-0.173473 0.276811 0.374952 166 142 115 1 7
-0.159366 0.276027 0.374322 161 145 114 1 7
-0.152003 0.276250 0.383290 161 136 112 3 2
-0.170802 0.252646 0.389522 168 132 107 3 2
-0.163316 0.263513 0.386115 138 110 67 3 2
-0.317240 -0.182816 -0.220605 144 127 104 3 5
-0.319374 -0.200830 -0.184961 124 100 90 3 5
-0.317244 -0.186705 -0.192985 128 105 95 3 5
-0.647461 0.261764 -0.505956 96 89 75 1 7
-0.625277 0.262388 -0.499269 77 68 47 1 7
-0.651581 0.261471 -0.471098 136 126 104 1 7
-0.641573 0.264376 -0.488370 147 127 102 1 7
-0.628455 0.262613 -0.473298 78 68 51 1 7
0.205345 -0.215168 -0.501409 175 107 53 3 5
0.220332 -0.214535 -0.512285 179 115 39 3 5
-0.583515 0.089822 -0.254517 46 39 34 39 3
-0.041890 0.046970 -0.120435 88 85 86 3 5
