ply
format ascii 1.0
element vertex 1111
property float x
property float y
property float z
property uchar red
property uchar green
property uchar blue
property uchar semantic_label
property uchar instance_label
end_header
0.387847 -0.475164 -0.882028 0 255 0 54 10
0.239156 -0.395524 -0.809142 0 255 0 54 10
0.263911 -0.538786 -0.885991 0 255 0 54 10
0.272473 -0.479266 -0.883052 0 255 0 54 10
0.194193 -0.530101 -0.881113 0 255 0 54 10
0.448299 -0.421625 -0.875142 0 255 0 54 10
0.199599 -0.504669 -0.881010 0 255 0 54 10
0.227204 -0.557565 -0.885980 0 255 0 54 10
0.333531 -0.374778 -0.745142 0 255 0 54 10
0.399810 -0.409260 -0.841142 0 255 0 54 10
0.295485 -0.457576 -0.888118 0 255 0 54 10
0.371195 -0.457311 -0.886002 0 255 0 54 10
0.403683 -0.381421 -0.769142 0 255 0 54 10
0.288634 -0.422471 -0.879142 0 255 0 54 10
0.353230 -0.368676 -0.727142 0 255 0 54 10
0.451505 -0.416164 -0.861142 0 255 0 54 10
0.289299 -0.400106 -0.815142 0 255 0 54 10
0.328718 -0.416661 -0.861142 0 255 0 54 10
0.459982 -0.496630 -0.889142 0 255 0 54 10
0.384288 -0.395714 -0.807142 0 255 0 54 10
0.229510 -0.431285 -0.886043 0 255 0 54 10
0.259384 -0.588941 -0.888047 0 255 0 54 10
0.284851 -0.411413 -0.849142 0 255 0 54 10
0.442222 -0.373260 -0.743142 0 255 0 54 10
0.301628 -0.419059 -0.869142 0 255 0 54 10
0.448388 -0.594356 -0.882038 0 255 0 54 10
0.310369 -0.377935 -0.757142 0 255 0 54 10
0.253136 -0.406708 -0.839142 0 255 0 54 10
0.248472 -0.370934 -0.737142 0 255 0 54 10
0.428558 -0.420432 -0.843142 0 255 0 54 10
0.278200 -0.394606 -0.804126 0 255 0 54 10
0.293346 -0.390683 -0.795142 0 255 0 54 10
0.464171 -0.423912 -0.882108 0 255 0 54 10
0.436026 -0.383170 -0.770122 0 255 0 54 10
0.434978 -0.388100 -0.783142 0 255 0 54 10
0.196359 -0.365998 -0.723142 0 255 0 54 10
0.252020 -0.402339 -0.829142 0 255 0 54 10
0.364890 -0.410015 -0.845142 0 255 0 54 10
0.390310 -0.377543 -0.723142 0 255 0 54 10
0.182214 -0.394651 -0.789142 0 255 0 54 10
0.310531 -0.396411 -0.805142 0 255 0 54 10
0.428401 -0.380565 -0.763142 0 255 0 54 10
0.447549 -0.386679 -0.779142 0 255 0 54 10
0.356060 -0.393844 -0.797142 0 255 0 54 10
0.417372 -0.384355 -0.773142 0 255 0 54 10
0.463913 -0.479064 -0.881142 0 255 0 54 10
0.381244 -0.419651 -0.871142 0 255 0 54 10
0.440963 -0.379184 -0.757142 0 255 0 54 10
0.342831 -0.417602 -0.869142 0 255 0 54 10
0.305919 -0.600877 -0.890070 0 255 0 54 10
0.405262 -0.412472 -0.853142 0 255 0 54 10
0.239740 -0.412011 -0.853142 0 255 0 54 10
0.226939 -0.366425 -0.721142 0 255 0 54 10
0.249877 -0.383562 -0.771142 0 255 0 54 10
0.255807 -0.413382 -0.857142 0 255 0 54 10
0.434210 -0.612960 -0.899142 0 255 0 54 10
0.458131 -0.404226 -0.798396 0 255 0 54 10
0.354392 -0.517125 -0.881768 0 255 0 54 10
0.347721 -0.404213 -0.797142 0 255 0 54 10
0.452564 -0.391940 -0.763142 0 255 0 54 10
0.184799 -0.593534 -0.888137 0 255 0 54 10
0.267039 -0.572166 -0.887853 0 255 0 54 10
0.332192 -0.438798 -0.887910 0 255 0 54 10
0.442888 -0.562516 -0.885928 0 255 0 54 10
0.390315 -0.612682 -0.897142 0 255 0 54 10
0.323261 -0.528910 -0.881638 0 255 0 54 10
0.248525 -0.611169 -0.902156 0 255 0 54 10
0.180514 -0.406558 -0.811142 0 255 0 54 10
0.210820 -0.374921 -0.715142 0 255 0 54 10
0.366763 -0.564737 -0.886080 0 255 0 54 10
0.261388 -0.617992 -0.901690 0 255 0 54 10
0.289758 -0.542236 -0.888100 0 255 0 54 10
0.414439 -0.398155 -0.779142 0 255 0 54 10
0.191517 -0.384360 -0.771142 0 255 0 54 10
0.450226 -0.402939 -0.795142 0 255 0 54 10
0.376081 -0.540137 -0.886010 0 255 0 54 10
0.453065 -0.620453 -0.897142 0 255 0 54 10
0.345565 -0.500936 -0.880808 0 255 0 54 10
0.247136 -0.531131 -0.888075 0 255 0 54 10
0.300087 -0.368588 -0.706514 0 255 0 54 10
0.458118 -0.615920 -0.891142 0 255 0 54 10
0.281459 -0.573186 -0.883142 0 255 0 54 10
0.306051 -0.461867 -0.881142 0 255 0 54 10
0.398564 -0.367029 -0.708380 0 255 0 54 10
0.288217 -0.424434 -0.855142 0 255 0 54 10
0.347911 -0.614949 -0.889142 0 255 0 54 10
0.242816 -0.368683 -0.706594 0 255 0 54 10
0.189230 -0.428857 -0.867142 0 255 0 54 10
0.252482 -0.515599 -0.881142 0 255 0 54 10
0.329918 -0.382157 -0.767142 0 255 0 54 10
0.404511 -0.454480 -0.881142 0 255 0 54 10
0.256331 -0.516728 -0.888115 0 255 0 54 10
0.279314 -0.509345 -0.887142 0 255 0 54 10
0.407050 -0.394439 -0.801142 0 255 0 54 10
0.426283 -0.573300 -0.881301 0 255 0 54 10
0.284493 -0.379587 -0.761142 0 255 0 54 10
0.293051 -0.382455 -0.737142 0 255 0 54 10
0.394037 -0.417184 -0.835433 0 255 0 54 10
0.443045 -0.369386 -0.731142 0 255 0 54 10
0.274656 -0.363183 -0.716133 0 255 0 54 10
0.282737 -0.604128 -0.882268 0 255 0 54 10
0.195932 -0.483443 -0.886091 0 255 0 54 10
0.294636 -0.374996 -0.717142 0 255 0 54 10
0.225720 -0.420256 -0.878142 0 255 0 54 10
0.209238 -0.420842 -0.842241 0 255 0 54 10
0.263004 -0.581532 -0.880967 0 255 0 54 10
0.283227 -0.385452 -0.777142 0 255 0 54 10
0.235861 -0.555316 -0.886093 0 255 0 54 10
0.406313 -0.407525 -0.838129 0 255 0 54 10
0.391391 -0.506587 -0.881747 0 255 0 54 10
0.428145 -0.516444 -0.888104 0 255 0 54 10
0.194614 -0.412688 -0.853142 0 255 0 54 10
0.418890 -0.386832 -0.749142 0 255 0 54 10
0.445771 -0.616291 -0.888155 0 255 0 54 10
0.377848 -0.426011 -0.858780 0 255 0 54 10
0.374890 -0.411069 -0.818941 0 255 0 54 10
0.240946 -0.589111 -0.881445 0 255 0 54 10
0.299581 -0.403240 -0.795142 0 255 0 54 10
0.445902 -0.442521 -0.886034 0 255 0 54 10
0.234756 -0.401729 -0.791142 0 255 0 54 10
0.313054 -0.610572 -0.905142 0 255 0 54 10
0.293624 -0.514432 -0.888051 0 255 0 54 10
0.414139 -0.409188 -0.844121 0 255 0 54 10
0.253681 -0.394526 -0.803142 0 255 0 54 10
0.367122 -0.615931 -0.889142 0 255 0 54 10
0.337861 -0.604516 -0.889142 0 255 0 54 10
0.294531 -0.471686 -0.881743 0 255 0 54 10
0.337658 -0.422700 -0.849142 0 255 0 54 10
0.388443 -0.376163 -0.751142 0 255 0 54 10
0.295901 -0.455620 -0.880852 0 255 0 54 10
0.314291 -0.474917 -0.881142 0 255 0 54 10
0.455027 -0.515027 -0.905142 0 255 0 54 10
0.462072 -0.395307 -0.771142 0 255 0 54 10
0.314978 -0.385108 -0.745142 0 255 0 54 10
0.236305 -0.485891 -0.882442 0 255 0 54 10
0.383226 -0.468047 -0.888111 0 255 0 54 10
0.242032 -0.401231 -0.822135 0 255 0 54 10
0.356943 -0.370450 -0.734104 0 255 0 54 10
0.327854 -0.603495 -0.890112 0 255 0 54 10
0.404981 -0.615799 -0.888180 0 255 0 54 10
0.448899 -0.409186 -0.811142 0 255 0 54 10
0.344298 -0.410701 -0.846124 0 255 0 54 10
0.320519 -0.416757 -0.833142 0 255 0 54 10
0.324385 -0.581341 -0.887142 0 255 0 54 10
0.205538 -0.385296 -0.777142 0 255 0 54 10
0.320945 -0.395513 -0.804113 0 255 0 54 10
0.440346 -0.545618 -0.888113 0 255 0 54 10
0.442037 -0.470325 -0.881371 0 255 0 54 10
0.300615 -0.505694 -0.887142 0 255 0 54 10
0.356910 -0.620708 -0.897142 0 255 0 54 10
0.212394 -0.386753 -0.780110 0 255 0 54 10
0.353200 -0.388057 -0.786135 0 255 0 54 10
0.313444 -0.420500 -0.845142 0 255 0 54 10
0.308015 -0.413212 -0.855142 0 255 0 54 10
0.394963 -0.470542 -0.882288 0 255 0 54 10
0.234902 -0.391537 -0.795142 0 255 0 54 10
0.459739 -0.531338 -0.888149 0 255 0 54 10
0.468595 -0.460815 -0.885142 0 255 0 54 10
0.325121 -0.423964 -0.853142 0 255 0 54 10
0.292395 -0.616405 -0.881519 0 255 0 54 10
0.303793 -0.582023 -0.888118 0 255 0 54 10
0.454869 -0.496531 -0.905142 0 255 0 54 10
0.232069 -0.611636 -0.881142 0 255 0 54 10
0.292589 -0.625113 -0.883142 0 255 0 54 10
0.357921 -0.404326 -0.797142 0 255 0 54 10
0.213198 -0.399192 -0.783142 0 255 0 54 10
0.439202 -0.445186 -0.882421 0 255 0 54 10
0.245476 -0.404267 -0.799142 0 255 0 54 10
0.410553 -0.387578 -0.751142 0 255 0 54 10
0.297193 -0.420685 -0.843142 0 255 0 54 10
0.442916 -0.495048 -0.885961 0 255 0 54 10
0.225435 -0.402360 -0.791142 0 255 0 54 10
0.350990 -0.571608 -0.881656 0 255 0 54 10
0.454171 -0.624867 -0.889142 0 255 0 54 10
0.323431 -0.547348 -0.881908 0 255 0 54 10
0.325189 -0.596794 -0.888103 0 255 0 54 10
0.380120 -0.396082 -0.775142 0 255 0 54 10
0.415263 -0.413517 -0.824841 0 255 0 54 10
0.324375 -0.571768 -0.883142 0 255 0 54 10
0.431131 -0.463917 -0.888119 0 255 0 54 10
0.233658 -0.411770 -0.819142 0 255 0 54 10
0.455086 -0.380076 -0.763142 0 255 0 54 10
0.334885 -0.378030 -0.725177 0 255 0 54 10
0.455614 -0.367971 -0.725142 0 255 0 54 10
0.284610 -0.436863 -0.887142 0 255 0 54 10
0.435318 -0.386501 -0.747142 0 255 0 54 10
0.417872 -0.555154 -0.888110 0 255 0 54 10
0.299611 -0.553601 -0.889142 0 255 0 54 10
0.274448 -0.575786 -0.890095 0 255 0 54 10
0.431120 -0.425494 -0.857142 0 255 0 54 10
0.356987 -0.610731 -0.899142 0 255 0 54 10
0.220041 -0.533551 -0.881163 0 255 0 54 10
0.185835 -0.386651 -0.745142 0 255 0 54 10
0.328005 -0.525829 -0.888107 0 255 0 54 10
0.468030 -0.373616 -0.717142 0 255 0 54 10
0.238208 -0.409601 -0.813142 0 255 0 54 10
0.365681 -0.377439 -0.723142 0 255 0 54 10
0.183491 -0.390833 -0.757142 0 255 0 54 10
0.325991 -0.419871 -0.841142 0 255 0 54 10
0.348687 -0.399672 -0.785142 0 255 0 54 10
0.233740 -0.421002 -0.845142 0 255 0 54 10
0.359523 -0.507992 -0.887142 0 255 0 54 10
0.448766 -0.400191 -0.788481 0 255 0 54 10
0.329628 -0.464834 -0.887142 0 255 0 54 10
0.416406 -0.398519 -0.809142 0 255 0 54 10
0.206327 -0.434536 -0.880696 0 255 0 54 10
0.408610 -0.444817 -0.881759 0 255 0 54 10
0.269194 -0.523552 -0.888092 0 255 0 54 10
0.451961 -0.558311 -0.885946 0 255 0 54 10
0.402643 -0.501746 -0.887142 0 255 0 54 10
0.390872 -0.614845 -0.886012 0 255 0 54 10
0.388892 -0.441389 -0.887142 0 255 0 54 10
0.354958 -0.437503 -0.881345 0 255 0 54 10
0.456623 -0.372843 -0.737142 0 255 0 54 10
0.311941 -0.409015 -0.839142 0 255 0 54 10
0.289674 -0.436820 -0.881142 0 255 0 54 10
0.372124 -0.395221 -0.801142 0 255 0 54 10
0.216667 -0.520565 -0.888053 0 255 0 54 10
0.421444 -0.519109 -0.881651 0 255 0 54 10
0.333163 -0.414989 -0.827142 0 255 0 54 10
0.411615 -0.488395 -0.888125 0 255 0 54 10
0.255793 -0.528882 -0.881550 0 255 0 54 10
0.261274 -0.464617 -0.881776 0 255 0 54 10
0.302752 -0.375289 -0.717199 0 255 0 54 10
0.305200 -0.383012 -0.769142 0 255 0 54 10
0.232071 -0.544287 -0.881824 0 255 0 54 10
0.295041 -0.527001 -0.882421 0 255 0 54 10
0.336860 -0.474549 -0.881806 0 255 0 54 10
0.378944 -0.497808 -0.882136 0 255 0 54 10
0.295429 -0.592513 -0.881912 0 255 0 54 10
0.337078 -0.521623 -0.881207 0 255 0 54 10
0.184786 -0.401208 -0.787142 0 255 0 54 10
0.328883 -0.380843 -0.731142 0 255 0 54 10
0.440199 -0.623267 -0.889142 0 255 0 54 10
0.435139 -0.377724 -0.723142 0 255 0 54 10
0.327740 -0.450120 -0.881171 0 255 0 54 10
0.456623 -0.551123 -0.899142 0 255 0 54 10
0.386250 -0.607729 -0.886087 0 255 0 54 10
0.268390 -0.459996 -0.888102 0 255 0 54 10
0.214342 -0.550741 -0.881711 0 255 0 54 10
0.187663 -0.551205 -0.882001 0 255 0 54 10
0.464700 -0.575331 -0.881742 0 255 0 54 10
0.269099 -0.466280 -0.881614 0 255 0 54 10
0.217772 -0.428790 -0.886140 0 255 0 54 10
0.340896 -0.465184 -0.881646 0 255 0 54 10
0.251062 -0.426086 -0.859142 0 255 0 54 10
0.379048 -0.391506 -0.762583 0 255 0 54 10
0.309955 -0.591511 -0.882436 0 255 0 54 10
0.230512 -0.445810 -0.882282 0 255 0 54 10
0.409678 -0.584083 -0.881472 0 255 0 54 10
0.247811 -0.422142 -0.847142 0 255 0 54 10
0.392695 -0.365781 -0.722115 0 255 0 54 10
0.462111 -0.529798 -0.881508 0 255 0 54 10
0.352463 -0.449240 -0.881442 0 255 0 54 10
0.244206 -0.448721 -0.881223 0 255 0 54 10
0.364863 -0.429385 -0.885917 0 255 0 54 10
0.336955 -0.531821 -0.881878 0 255 0 54 10
0.232222 -0.466621 -0.887951 0 255 0 54 10
0.383831 -0.580633 -0.885964 0 255 0 54 10
0.414233 -0.466459 -0.887921 0 255 0 54 10
0.354193 -0.566155 -0.886098 0 255 0 54 10
0.352095 -0.479832 -0.887936 0 255 0 54 10
0.359211 -0.475211 -0.888001 0 255 0 54 10
0.329328 -0.481127 -0.888059 0 255 0 54 10
0.262635 -0.612124 -0.881259 0 255 0 54 10
0.401315 -0.594573 -0.881564 0 255 0 54 10
0.458274 -0.490133 -0.885999 0 255 0 54 10
0.387478 -0.505756 -0.888140 0 255 0 54 10
0.459370 -0.561930 -0.890147 0 255 0 54 10
0.381211 -0.429426 -0.869142 0 255 0 54 10
0.199107 -0.545459 -0.885999 0 255 0 54 10
0.209277 -0.613050 -0.881416 0 255 0 54 10
0.398214 -0.493725 -0.888133 0 255 0 54 10
0.203246 -0.429792 -0.886131 0 255 0 54 10
0.285846 -0.541404 -0.881710 0 255 0 54 10
0.342729 -0.475797 -0.888136 0 255 0 54 10
0.324045 -0.496362 -0.888080 0 255 0 54 10
0.219114 -0.480192 -0.888047 0 255 0 54 10
0.231191 -0.404137 -0.829142 0 255 0 54 10
0.269808 -0.472565 -0.888016 0 255 0 54 10
0.396973 -0.384133 -0.769142 0 255 0 54 10
0.218793 -0.539420 -0.888136 0 255 0 54 10
0.395453 -0.381663 -0.735142 0 255 0 54 10
0.240223 -0.371262 -0.737142 0 255 0 54 10
0.409128 -0.384665 -0.773142 0 255 0 54 10
0.403913 -0.476534 -0.888138 0 255 0 54 10
0.380657 -0.403175 -0.825142 0 255 0 54 10
0.344903 -0.407855 -0.837142 0 255 0 54 10
0.462507 -0.431737 -0.886111 0 255 0 54 10
0.244316 -0.390485 -0.793142 0 255 0 54 10
0.455427 -0.416951 -0.867142 0 255 0 54 10
0.303066 -0.364197 -0.715142 0 255 0 54 10
0.447411 -0.396947 -0.807142 0 255 0 54 10
0.248166 -0.478188 -0.888025 0 255 0 54 10
0.401050 -0.518864 -0.882107 0 255 0 54 10
0.355818 -0.414222 -0.855142 0 255 0 54 10
0.351571 -0.376485 -0.755142 0 255 0 54 10
0.387526 -0.534391 -0.882139 0 255 0 54 10
0.205978 -0.561232 -0.886053 0 255 0 54 10
0.318715 -0.482961 -0.887967 0 255 0 54 10
0.399414 -0.459220 -0.888120 0 255 0 54 10
0.210921 -0.393686 -0.799142 0 255 0 54 10
0.302662 -0.366093 -0.723142 0 255 0 54 10
0.198817 -0.421769 -0.879142 0 255 0 54 10
0.348230 -0.507636 -0.888140 0 255 0 54 10
0.249017 -0.570380 -0.881414 0 255 0 54 10
0.451791 -0.539872 -0.881706 0 255 0 54 10
0.326132 -0.428829 -0.867142 0 255 0 54 10
0.381364 -0.524903 -0.888134 0 255 0 54 10
0.399679 -0.534930 -0.888042 0 255 0 54 10
0.231996 -0.583120 -0.886088 0 255 0 54 10
0.343855 -0.364685 -0.719142 0 255 0 54 10
0.291544 -0.399161 -0.783142 0 255 0 54 10
0.438991 -0.373577 -0.709142 0 255 0 54 10
0.308197 -0.542065 -0.881465 0 255 0 54 10
0.208794 -0.490267 -0.881472 0 255 0 54 10
0.421425 -0.423005 -0.882121 0 255 0 54 10
0.243932 -0.536584 -0.881990 0 255 0 54 10
0.390068 -0.551289 -0.888034 0 255 0 54 10
0.427071 -0.415681 -0.831142 0 255 0 54 10
0.431150 -0.384179 -0.741142 0 255 0 54 10
0.199551 -0.476034 -0.881504 0 255 0 54 10
0.460309 -0.504879 -0.887142 0 255 0 54 10
0.432792 -0.436864 -0.881142 0 255 0 54 10
0.370334 -0.553228 -0.887142 0 255 0 54 10
0.288692 -0.566491 -0.881142 0 255 0 54 10
0.259563 -0.443807 -0.886072 0 255 0 54 10
0.346859 -0.523703 -0.888015 0 255 0 54 10
0.250169 -0.507240 -0.881984 0 255 0 54 10
0.390720 -0.432788 -0.879142 0 255 0 54 10
0.468792 -0.431029 -0.876028 0 255 0 54 10
0.419714 -0.402195 -0.791258 0 255 0 54 10
0.411417 -0.537425 -0.887993 0 255 0 54 10
0.329839 -0.536442 -0.888141 0 255 0 54 10
0.439977 -0.576210 -0.885942 0 255 0 54 10
0.348079 -0.585302 -0.881799 0 255 0 54 10
0.364992 -0.390297 -0.759142 0 255 0 54 10
0.315207 -0.403269 -0.795142 0 255 0 54 10
0.460111 -0.378066 -0.751142 0 255 0 54 10
0.446088 -0.383930 -0.741142 0 255 0 54 10
0.358352 -0.546592 -0.887999 0 255 0 54 10
0.283030 -0.612369 -0.882430 0 255 0 54 10
0.420716 -0.459659 -0.887142 0 255 0 54 10
0.461307 -0.466242 -0.886009 0 255 0 54 10
0.184043 -0.558614 -0.881754 0 255 0 54 10
0.444966 -0.427688 -0.863142 0 255 0 54 10
0.463557 -0.577133 -0.899142 0 255 0 54 10
0.429690 -0.403360 -0.825142 0 255 0 54 10
0.429052 -0.473699 -0.887934 0 255 0 54 10
0.278137 -0.419129 -0.871142 0 255 0 54 10
0.215057 -0.383845 -0.741142 0 255 0 54 10
0.382133 -0.381938 -0.765142 0 255 0 54 10
0.221739 -0.625922 -0.891142 0 255 0 54 10
0.231967 -0.378645 -0.725142 0 255 0 54 10
0.256265 -0.377676 -0.755142 0 255 0 54 10
0.254504 -0.390652 -0.791142 0 255 0 54 10
0.466448 -0.618641 -0.891142 0 255 0 54 10
0.324782 -0.435178 -0.881320 0 255 0 54 10
0.277414 -0.619550 -0.901142 0 255 0 54 10
0.290380 -0.375779 -0.749142 0 255 0 54 10
0.342833 -0.369496 -0.734140 0 255 0 54 10
0.297092 -0.584688 -0.882281 0 255 0 54 10
0.375986 -0.386671 -0.749142 0 255 0 54 10
0.282405 -0.403679 -0.828131 0 255 0 54 10
0.220465 -0.423228 -0.851142 0 255 0 54 10
0.388531 -0.371030 -0.737142 0 255 0 54 10
0.456582 -0.565427 -0.904054 0 255 0 54 10
0.180425 -0.421725 -0.861142 0 255 0 54 10
0.381276 -0.385846 -0.779142 0 255 0 54 10
0.200986 -0.373091 -0.743142 0 255 0 54 10
0.421823 -0.406732 -0.837142 0 255 0 54 10
0.466823 -0.416297 -0.859142 0 255 0 54 10
0.223226 -0.412748 -0.821142 0 255 0 54 10
0.415453 -0.528059 -0.888141 0 255 0 54 10
0.464535 -0.407632 -0.837142 0 255 0 54 10
0.468407 -0.424813 -0.861142 0 255 0 54 10
0.194204 -0.611891 -0.899142 0 255 0 54 10
0.212518 -0.424652 -0.883142 0 255 0 54 10
0.463944 -0.540411 -0.881239 0 255 0 54 10
0.303017 -0.383665 -0.739142 0 255 0 54 10
0.259558 -0.525593 -0.887142 0 255 0 54 10
0.260877 -0.562678 -0.881029 0 255 0 54 10
0.180295 -0.364618 -0.711142 0 255 0 54 10
0.293548 -0.553265 -0.882219 0 255 0 54 10
0.223925 -0.601851 -0.885965 0 255 0 54 10
0.202490 -0.394871 -0.802113 0 255 0 54 10
0.324102 -0.399900 -0.785142 0 255 0 54 10
0.325293 -0.490493 -0.882228 0 255 0 54 10
0.448104 -0.422542 -0.882134 0 255 0 54 10
0.273853 -0.612463 -0.905142 0 255 0 54 10
0.262287 -0.363655 -0.715142 0 255 0 54 10
0.462820 -0.364330 -0.715142 0 255 0 54 10
0.316547 -0.374132 -0.713142 0 255 0 54 10
0.289513 -0.562630 -0.888008 0 255 0 54 10
0.428192 -0.545080 -0.882341 0 255 0 54 10
0.451761 -0.414957 -0.829142 0 255 0 54 10
0.268492 -0.594190 -0.887142 0 255 0 54 10
0.382441 -0.500595 -0.888116 0 255 0 54 10
0.236372 -0.610630 -0.902160 0 255 0 54 10
0.209012 -0.537340 -0.886037 0 255 0 54 10
0.289125 -0.497118 -0.886093 0 255 0 54 10
0.187597 -0.379438 -0.725142 0 255 0 54 10
0.303165 -0.421445 -0.877142 0 255 0 54 10
0.239604 -0.537709 -0.888083 0 255 0 54 10
0.233470 -0.460752 -0.881457 0 255 0 54 10
0.379209 -0.573517 -0.885984 0 255 0 54 10
0.217480 -0.507117 -0.881142 0 255 0 54 10
0.245516 -0.615705 -0.887142 0 255 0 54 10
0.271594 -0.454543 -0.880751 0 255 0 54 10
0.358692 -0.583469 -0.885997 0 255 0 54 10
0.466451 -0.605572 -0.889142 0 255 0 54 10
0.212168 -0.503252 -0.885967 0 255 0 54 10
0.286139 -0.549645 -0.888084 0 255 0 54 10
0.260362 -0.459289 -0.887142 0 255 0 54 10
0.358766 -0.429207 -0.867142 0 255 0 54 10
0.222365 -0.503375 -0.886127 0 255 0 54 10
0.378902 -0.613440 -0.897142 0 255 0 54 10
0.235284 -0.375261 -0.716511 0 255 0 54 10
0.289711 -0.513600 -0.881173 0 255 0 54 10
0.267257 -0.619240 -0.881274 0 255 0 54 10
0.244130 -0.487554 -0.882649 0 255 0 54 10
0.245406 -0.414217 -0.824445 0 255 0 54 10
0.460522 -0.390422 -0.785142 0 255 0 54 10
0.456828 -0.545032 -0.881237 0 255 0 54 10
0.181208 -0.533475 -0.882462 0 255 0 54 10
0.361659 -0.434838 -0.880720 0 255 0 54 10
0.429705 -0.614920 -0.881188 0 255 0 54 10
0.279236 -0.389731 -0.793142 0 255 0 54 10
0.330262 -0.419019 -0.869142 0 255 0 54 10
0.186501 -0.402758 -0.823142 0 255 0 54 10
0.457886 -0.424621 -0.855339 0 255 0 54 10
0.229271 -0.562093 -0.881142 0 255 0 54 10
0.460872 -0.539758 -0.903142 0 255 0 54 10
0.325123 -0.472055 -0.888041 0 255 0 54 10
0.415403 -0.624149 -0.889142 0 255 0 54 10
0.306042 -0.590680 -0.888098 0 255 0 54 10
0.301845 -0.427655 -0.863142 0 255 0 54 10
0.284107 -0.405294 -0.801142 0 255 0 54 10
0.194533 -0.566978 -0.886076 0 255 0 54 10
0.367726 -0.387055 -0.750846 0 255 0 54 10
0.312081 -0.610366 -0.882953 0 255 0 54 10
0.270319 -0.422063 -0.847142 0 255 0 54 10
0.354972 -0.386389 -0.749142 0 255 0 54 10
0.468137 -0.443727 -0.885142 0 255 0 54 10
0.317118 -0.615526 -0.882363 0 255 0 54 10
0.412617 -0.502920 -0.881801 0 255 0 54 10
0.246337 -0.400217 -0.787142 0 255 0 54 10
0.394084 -0.445819 -0.886026 0 255 0 54 10
0.455348 -0.407705 -0.809142 0 255 0 54 10
0.405605 -0.401240 -0.790928 0 255 0 54 10
0.296041 -0.416485 -0.831142 0 255 0 54 10
0.442470 -0.381714 -0.735142 0 255 0 54 10
0.433547 -0.625703 -0.885142 0 255 0 54 10
0.393574 -0.390504 -0.760276 0 255 0 54 10
0.237921 -0.449430 -0.885979 0 255 0 54 10
0.467278 -0.534344 -0.881142 0 255 0 54 10
0.406871 -0.491476 -0.881787 0 255 0 54 10
0.269666 -0.386658 -0.746638 0 255 0 54 10
0.455552 -0.618370 -0.881267 0 255 0 54 10
0.382687 -0.480201 -0.882752 0 255 0 54 10
0.444627 -0.515858 -0.881306 0 255 0 54 10
0.351556 -0.491986 -0.888135 0 255 0 54 10
0.246899 -0.387953 -0.753471 0 255 0 54 10
0.427009 -0.510069 -0.881142 0 255 0 54 10
0.203710 -0.456471 -0.880873 0 255 0 54 10
0.179331 -0.410395 -0.823142 0 255 0 54 10
0.320513 -0.387926 -0.751142 0 255 0 54 10
0.447594 -0.367227 -0.706557 0 255 0 54 10
0.438928 -0.533049 -0.881839 0 255 0 54 10
0.461469 -0.417383 -0.833142 0 255 0 54 10
0.236465 -0.389825 -0.757142 0 255 0 54 10
0.467511 -0.586152 -0.889142 0 255 0 54 10
0.278579 -0.623691 -0.881628 0 255 0 54 10
0.198438 -0.423555 -0.853142 0 255 0 54 10
0.464772 -0.623092 -0.881142 0 255 0 54 10
0.203591 -0.615931 -0.887142 0 255 0 54 10
0.425567 -0.393901 -0.769142 0 255 0 54 10
0.326050 -0.409973 -0.815142 0 255 0 54 10
0.295476 -0.621149 -0.894846 0 255 0 54 10
0.246141 -0.410284 -0.813142 0 255 0 54 10
0.204806 -0.528268 -0.886083 0 255 0 54 10
0.393593 -0.486608 -0.888075 0 255 0 54 10
0.281796 -0.399460 -0.785142 0 255 0 54 10
0.184392 -0.431918 -0.871102 0 255 0 54 10
0.421055 -0.530558 -0.883142 0 255 0 54 10
0.385248 -0.593203 -0.886071 0 255 0 54 10
0.259588 -0.424449 -0.855142 0 255 0 54 10
0.222825 -0.385779 -0.747142 0 255 0 54 10
0.419458 -0.432261 -0.877142 0 255 0 54 10
0.294325 -0.430749 -0.871142 0 255 0 54 10
0.237317 -0.418631 -0.839142 0 255 0 54 10
0.287629 -0.407960 -0.839142 0 255 0 54 10
0.359539 -0.396715 -0.777142 0 255 0 54 10
0.336640 -0.408249 -0.809142 0 255 0 54 10
0.332579 -0.504310 -0.881605 0 255 0 54 10
0.413089 -0.366027 -0.706390 0 255 0 54 10
0.306505 -0.617359 -0.901570 0 255 0 54 10
0.266323 -0.614011 -0.895142 0 255 0 54 10
0.349494 -0.549785 -0.887142 0 255 0 54 10
0.394220 -0.416323 -0.859142 0 255 0 54 10
0.371050 -0.419513 -0.869142 0 255 0 54 10
0.321321 -0.426264 -0.859142 0 255 0 54 10
0.238602 -0.523183 -0.880841 0 255 0 54 10
0.460207 -0.471418 -0.881142 0 255 0 54 10
0.298368 -0.511351 -0.881731 0 255 0 54 10
0.189893 -0.463757 -0.886128 0 255 0 54 10
0.248983 -0.426244 -0.887142 0 255 0 54 10
0.305773 -0.380318 -0.731142 0 255 0 54 10
0.433994 -0.421588 -0.876113 0 255 0 54 10
0.280477 -0.383891 -0.769142 0 255 0 54 10
0.337117 -0.492583 -0.881142 0 255 0 54 10
0.467195 -0.563594 -0.881875 0 255 0 54 10
0.372518 -0.412610 -0.852105 0 255 0 54 10
0.428078 -0.391704 -0.794122 0 255 0 54 10
0.184340 -0.614933 -0.887142 0 255 0 54 10
0.432407 -0.390580 -0.759881 0 255 0 54 10
0.345388 -0.434432 -0.887142 0 255 0 54 10
0.224486 -0.440440 -0.889142 0 255 0 54 10
0.352535 -0.458524 -0.887142 0 255 0 54 10
0.293381 -0.419381 -0.871142 0 255 0 54 10
0.253266 -0.396476 -0.811142 0 255 0 54 10
0.462998 -0.390948 -0.792132 0 255 0 54 10
0.365428 -0.397869 -0.809142 0 255 0 54 10
0.299965 -0.378786 -0.760131 0 255 0 54 10
0.322022 -0.371206 -0.738133 0 255 0 54 10
0.405063 -0.399081 -0.815142 0 255 0 54 10
0.402060 -0.369817 -0.732125 0 255 0 54 10
0.200012 -0.387290 -0.781142 0 255 0 54 10
0.345581 -0.385425 -0.779142 0 255 0 54 10
0.425290 -0.395201 -0.802124 0 255 0 54 10
0.293473 -0.414210 -0.859142 0 255 0 54 10
0.367556 -0.368617 -0.730118 0 255 0 54 10
0.221904 -0.390110 -0.759142 0 255 0 54 10
0.206196 -0.608306 -0.885975 0 255 0 54 10
0.414832 -0.401157 -0.821142 0 255 0 54 10
0.432236 -0.372141 -0.738126 0 255 0 54 10
0.187330 -0.398859 -0.813142 0 255 0 54 10
0.331899 -0.430557 -0.888073 0 255 0 54 10
0.233347 -0.470949 -0.882597 0 255 0 54 10
0.371025 -0.438873 -0.890129 0 255 0 54 10
0.462337 -0.413299 -0.819307 0 255 0 54 10
0.226170 -0.398902 -0.819142 0 255 0 54 10
0.436991 -0.614424 -0.893142 0 255 0 54 10
0.191631 -0.417099 -0.866106 0 255 0 54 10
0.233472 -0.378965 -0.759142 0 255 0 54 10
0.222386 -0.613792 -0.895142 0 255 0 54 10
0.317932 -0.563599 -0.887142 0 255 0 54 10
0.179427 -0.373612 -0.721142 0 255 0 54 10
0.356183 -0.383643 -0.769142 0 255 0 54 10
0.467358 -0.404143 -0.827142 0 255 0 54 10
0.459058 -0.457585 -0.886132 0 255 0 54 10
0.421534 -0.586024 -0.881142 0 255 0 54 10
0.390337 -0.571793 -0.881142 0 255 0 54 10
0.434363 -0.390996 -0.790121 0 255 0 54 10
0.379709 -0.369155 -0.730122 0 255 0 54 10
0.300562 -0.493415 -0.881142 0 255 0 54 10
0.197832 -0.618796 -0.901221 0 255 0 54 10
0.350734 -0.461141 -0.881142 0 255 0 54 10
0.266253 -0.431570 -0.873142 0 255 0 54 10
0.256420 -0.598534 -0.887142 0 255 0 54 10
0.278710 -0.449921 -0.880648 0 255 0 54 10
0.333288 -0.510594 -0.888124 0 255 0 54 10
0.249310 -0.578621 -0.886113 0 255 0 54 10
0.268566 -0.362973 -0.711142 0 255 0 54 10
0.430746 -0.456111 -0.881142 0 255 0 54 10
0.343201 -0.555640 -0.883142 0 255 0 54 10
0.420707 -0.580293 -0.886000 0 255 0 54 10
0.338783 -0.382948 -0.739142 0 255 0 54 10
0.213436 -0.431957 -0.875142 0 255 0 54 10
0.222091 -0.427710 -0.863142 0 255 0 54 10
0.264261 -0.426403 -0.861142 0 255 0 54 10
0.439272 -0.454476 -0.881142 0 255 0 54 10
0.302202 -0.469227 -0.887142 0 255 0 54 10
0.249900 -0.412312 -0.819142 0 255 0 54 10
0.421217 -0.616374 -0.893142 0 255 0 54 10
0.329641 -0.585472 -0.882317 0 255 0 54 10
0.240170 -0.458087 -0.880944 0 255 0 54 10
0.307318 -0.517342 -0.888113 0 255 0 54 10
0.254526 -0.438647 -0.888116 0 255 0 54 10
0.393311 -0.362880 -0.709142 0 255 0 54 10
0.407605 -0.545738 -0.887142 0 255 0 54 10
0.461794 -0.421362 -0.845142 0 255 0 54 10
0.185609 -0.614153 -0.899142 0 255 0 54 10
0.289912 -0.384828 -0.743142 0 255 0 54 10
0.356888 -0.399565 -0.785142 0 255 0 54 10
0.309048 -0.456370 -0.887142 0 255 0 54 10
0.389214 -0.383444 -0.741142 0 255 0 54 10
0.465987 -0.386506 -0.763142 0 255 0 54 10
0.304817 -0.480007 -0.883142 0 255 0 54 10
0.197002 -0.382214 -0.737142 0 255 0 54 10
0.180184 -0.592553 -0.883142 0 255 0 54 10
0.404669 -0.511454 -0.885890 0 255 0 54 10
0.194894 -0.491401 -0.881142 0 255 0 54 10
0.308253 -0.407128 -0.806733 0 255 0 54 10
0.220730 -0.443731 -0.882508 0 255 0 54 10
0.447831 -0.510405 -0.886043 0 255 0 54 10
0.223783 -0.419749 -0.841142 0 255 0 54 10
0.434742 -0.620080 -0.881114 0 255 0 54 10
0.186075 -0.520197 -0.886000 0 255 0 54 10
0.179053 -0.582090 -0.882479 0 255 0 54 10
0.439297 -0.502457 -0.881704 0 255 0 54 10
0.462063 -0.501162 -0.881469 0 255 0 54 10
0.335185 -0.572338 -0.883142 0 255 0 54 10
0.468453 -0.488208 -0.885142 0 255 0 54 10
0.292527 -0.442635 -0.885880 0 255 0 54 10
0.250368 -0.458210 -0.886016 0 255 0 54 10
0.242450 -0.429946 -0.869142 0 255 0 54 10
0.246701 -0.436983 -0.881836 0 255 0 54 10
0.342852 -0.465600 -0.888086 0 255 0 54 10
0.346243 -0.478506 -0.883142 0 255 0 54 10
0.463925 -0.444307 -0.892123 0 255 0 54 10
0.386880 -0.373898 -0.713142 0 255 0 54 10
0.459540 -0.580369 -0.886013 0 255 0 54 10
0.421107 -0.424503 -0.855142 0 255 0 54 10
0.287331 -0.428602 -0.867142 0 255 0 54 10
0.407904 -0.390425 -0.759142 0 255 0 54 10
0.355857 -0.558330 -0.886053 0 255 0 54 10
0.325775 -0.613276 -0.898192 0 255 0 54 10
0.262758 -0.601926 -0.888003 0 255 0 54 10
0.415282 -0.509621 -0.886024 0 255 0 54 10
0.219508 -0.372527 -0.707142 0 255 0 54 10
0.265812 -0.375931 -0.717142 0 255 0 54 10
0.311457 -0.401675 -0.822135 0 255 0 54 10
0.329253 -0.519960 -0.881907 0 255 0 54 10
0.262059 -0.481142 -0.883142 0 255 0 54 10
0.216791 -0.394927 -0.803142 0 255 0 54 10
0.364128 -0.375123 -0.747142 0 255 0 54 10
0.420494 -0.417768 -0.863142 0 255 0 54 10
0.384941 -0.373403 -0.743142 0 255 0 54 10
0.358871 -0.438334 -0.888112 0 255 0 54 10
0.227321 -0.364626 -0.707142 0 255 0 54 10
0.411098 -0.519689 -0.881142 0 255 0 54 10
0.411315 -0.374376 -0.713142 0 255 0 54 10
0.408758 -0.415262 -0.859142 0 255 0 54 10
0.356939 -0.418567 -0.867142 0 255 0 54 10
0.442895 -0.610581 -0.901142 0 255 0 54 10
0.253203 -0.483348 -0.882680 0 255 0 54 10
0.275941 -0.549522 -0.888024 0 255 0 54 10
0.301868 -0.398690 -0.815142 0 255 0 54 10
0.252589 -0.534335 -0.886033 0 255 0 54 10
0.268614 -0.391604 -0.793142 0 255 0 54 10
0.335647 -0.461018 -0.887142 0 255 0 54 10
0.377285 -0.390181 -0.789142 0 255 0 54 10
0.355105 -0.407953 -0.837142 0 255 0 54 10
0.274022 -0.366164 -0.723142 0 255 0 54 10
0.403766 -0.376313 -0.751142 0 255 0 54 10
0.392777 -0.413489 -0.823142 0 255 0 54 10
0.380836 -0.421572 -0.879142 0 255 0 54 10
0.312607 -0.386646 -0.777142 0 255 0 54 10
0.276106 -0.616084 -0.889142 0 255 0 54 10
0.416237 -0.495511 -0.888015 0 255 0 54 10
0.318308 -0.369444 -0.729142 0 255 0 54 10
0.403771 -0.390627 -0.792126 0 255 0 54 10
0.368681 -0.372945 -0.742115 0 255 0 54 10
0.391665 -0.418724 -0.872138 0 255 0 54 10
0.368505 -0.402627 -0.823142 0 255 0 54 10
0.202973 -0.402219 -0.823142 0 255 0 54 10
0.363036 -0.404460 -0.831142 0 255 0 54 10
0.291802 -0.388328 -0.787142 0 255 0 54 10
0.347610 -0.375879 -0.719142 0 255 0 54 10
0.281487 -0.398381 -0.815142 0 255 0 54 10
0.320906 -0.414939 -0.861142 0 255 0 54 10
0.260885 -0.610739 -0.903142 0 255 0 54 10
0.442311 -0.382462 -0.768108 0 255 0 54 10
0.435938 -0.373968 -0.747142 0 255 0 54 10
0.274873 -0.410257 -0.846112 0 255 0 54 10
0.439816 -0.394199 -0.802133 0 255 0 54 10
0.454464 -0.383000 -0.770100 0 255 0 54 10
0.280729 -0.363469 -0.713142 0 255 0 54 10
0.227844 -0.429501 -0.869142 0 255 0 54 10
0.204796 -0.417853 -0.867142 0 255 0 54 10
0.186578 -0.363920 -0.715142 0 255 0 54 10
0.433195 -0.406111 -0.835142 0 255 0 54 10
0.368763 -0.382175 -0.769142 0 255 0 54 10
0.337040 -0.377509 -0.757142 0 255 0 54 10
0.226121 -0.370271 -0.737142 0 255 0 54 10
0.366223 -0.365269 -0.723142 0 255 0 54 10
0.456411 -0.498894 -0.899142 0 255 0 54 10
0.265782 -0.366454 -0.725142 0 255 0 54 10
0.213549 -0.371700 -0.739142 0 255 0 54 10
0.225460 -0.392621 -0.799142 0 255 0 54 10
0.247348 -0.366603 -0.725142 0 255 0 54 10
0.275091 -0.457331 -0.888129 0 255 0 54 10
0.291212 -0.371866 -0.739142 0 255 0 54 10
0.457624 -0.396994 -0.811142 0 255 0 54 10
0.306497 -0.405768 -0.833142 0 255 0 54 10
0.412216 -0.389375 -0.789142 0 255 0 54 10
0.240112 -0.381405 -0.767142 0 255 0 54 10
0.268378 -0.411953 -0.855142 0 255 0 54 10
0.290559 -0.394178 -0.803142 0 255 0 54 10
0.238616 -0.407680 -0.841142 0 255 0 54 10
0.424197 -0.371484 -0.739142 0 255 0 54 10
0.247637 -0.374859 -0.749142 0 255 0 54 10
0.422134 -0.429290 -0.867966 0 255 0 54 10
0.220010 -0.389404 -0.791142 0 255 0 54 10
0.205011 -0.623500 -0.889142 0 255 0 54 10
0.207518 -0.611706 -0.897142 0 255 0 54 10
0.298533 -0.611575 -0.889142 0 255 0 54 10
0.304577 -0.549475 -0.881032 0 255 0 54 10
0.230852 -0.482687 -0.888080 0 255 0 54 10
0.444930 -0.408617 -0.839142 0 255 0 54 10
0.350705 -0.399794 -0.816134 0 255 0 54 10
0.229485 -0.383304 -0.771142 0 255 0 54 10
0.203282 -0.410384 -0.849142 0 255 0 54 10
0.303049 -0.431610 -0.887142 0 255 0 54 10
0.321258 -0.384423 -0.773142 0 255 0 54 10
0.335428 -0.413954 -0.857142 0 255 0 54 10
0.468915 -0.420831 -0.872129 0 255 0 54 10
0.425499 -0.605848 -0.881152 0 255 0 54 10
0.258331 -0.388338 -0.753142 0 255 0 54 10
0.282444 -0.595887 -0.882864 0 255 0 54 10
0.429515 -0.500378 -0.887926 0 255 0 54 10
0.194644 -0.412547 -0.821142 0 255 0 54 10
0.460488 -0.373900 -0.713142 0 255 0 54 10
0.228253 -0.600726 -0.881003 0 255 0 54 10
0.440223 -0.555816 -0.881146 0 255 0 54 10
0.457981 -0.481892 -0.881759 0 255 0 54 10
0.396534 -0.405434 -0.803142 0 255 0 54 10
0.388500 -0.616385 -0.903748 0 255 0 54 10
0.315681 -0.506852 -0.886086 0 255 0 54 10
0.407587 -0.420770 -0.845142 0 255 0 54 10
0.421745 -0.411881 -0.819142 0 255 0 54 10
0.431301 -0.482355 -0.882806 0 255 0 54 10
0.283127 -0.409903 -0.813142 0 255 0 54 10
0.349419 -0.415468 -0.831142 0 255 0 54 10
0.217328 -0.498215 -0.888129 0 255 0 54 10
0.419613 -0.416486 -0.833142 0 255 0 54 10
0.361650 -0.598410 -0.885962 0 255 0 54 10
0.373274 -0.447530 -0.885930 0 255 0 54 10
0.375381 -0.370280 -0.706673 0 255 0 54 10
0.241832 -0.498365 -0.885142 0 255 0 54 10
0.187964 -0.395873 -0.771864 0 255 0 54 10
0.359476 -0.550921 -0.882009 0 255 0 54 10
0.183069 -0.476620 -0.880917 0 255 0 54 10
0.338920 -0.368664 -0.706473 0 255 0 54 10
0.321187 -0.394375 -0.771142 0 255 0 54 10
0.377998 -0.406064 -0.803142 0 255 0 54 10
0.428747 -0.388558 -0.753142 0 255 0 54 10
0.321107 -0.577524 -0.882166 0 255 0 54 10
0.372716 -0.504662 -0.881142 0 255 0 54 10
0.301033 -0.518051 -0.882345 0 255 0 54 10
0.397165 -0.450564 -0.881209 0 255 0 54 10
0.322355 -0.624817 -0.887142 0 255 0 54 10
0.185101 -0.438203 -0.880887 0 255 0 54 10
0.189131 -0.387942 -0.751142 0 255 0 54 10
0.403762 -0.554200 -0.888074 0 255 0 54 10
0.278083 -0.520209 -0.881142 0 255 0 54 10
0.184582 -0.546460 -0.887932 0 255 0 54 10
0.466032 -0.367057 -0.706487 0 255 0 54 10
0.454103 -0.413557 -0.823142 0 255 0 54 10
0.226561 -0.416301 -0.831142 0 255 0 54 10
0.363077 -0.447407 -0.881182 0 255 0 54 10
0.281097 -0.380973 -0.733142 0 255 0 54 10
0.284368 -0.413682 -0.825142 0 255 0 54 10
0.412839 -0.396065 -0.773142 0 255 0 54 10
0.348286 -0.372699 -0.707026 0 255 0 54 10
0.323953 -0.621848 -0.893142 0 255 0 54 10
0.226259 -0.408102 -0.807695 0 255 0 54 10
0.443550 -0.540165 -0.880861 0 255 0 54 10
0.213491 -0.458550 -0.881215 0 255 0 54 10
0.371897 -0.422701 -0.849142 0 255 0 54 10
0.362387 -0.537227 -0.882053 0 255 0 54 10
0.466474 -0.573664 -0.889142 0 255 0 54 10
0.301908 -0.408123 -0.809142 0 255 0 54 10
0.257260 -0.396923 -0.777142 0 255 0 54 10
0.397569 -0.410186 -0.815142 0 255 0 54 10
0.205218 -0.567204 -0.881142 0 255 0 54 10
0.235370 -0.596105 -0.880765 0 255 0 54 10
0.357794 -0.462642 -0.881895 0 255 0 54 10
0.464277 -0.515945 -0.895142 0 255 0 54 10
0.405466 -0.411511 -0.817142 0 255 0 54 10
0.447887 -0.375468 -0.718321 0 255 0 54 10
0.209087 -0.498508 -0.881305 0 255 0 54 10
0.190390 -0.380031 -0.759142 0 255 0 54 10
0.454852 -0.448512 -0.886101 0 255 0 54 10
0.459247 -0.461715 -0.897142 0 255 0 54 10
0.415848 -0.391528 -0.763142 0 255 0 54 10
0.376641 -0.383593 -0.741142 0 255 0 54 10
0.466444 -0.384356 -0.741142 0 255 0 54 10
0.408146 -0.398901 -0.783142 0 255 0 54 10
0.467713 -0.408308 -0.807142 0 255 0 54 10
0.273452 -0.513137 -0.887142 0 255 0 54 10
0.284048 -0.510352 -0.881142 0 255 0 54 10
0.378159 -0.616939 -0.903142 0 255 0 54 10
0.339810 -0.599902 -0.883142 0 255 0 54 10
0.467373 -0.400057 -0.783142 0 255 0 54 10
0.443039 -0.484850 -0.886098 0 255 0 54 10
0.219511 -0.611136 -0.881142 0 255 0 54 10
0.428883 -0.551451 -0.881142 0 255 0 54 10
0.400123 -0.465505 -0.881793 0 255 0 54 10
0.419932 -0.449269 -0.886058 0 255 0 54 10
0.243885 -0.507949 -0.886024 0 255 0 54 10
0.294182 -0.598382 -0.888138 0 255 0 54 10
0.430413 -0.621205 -0.898404 0 255 0 54 10
0.230238 -0.533673 -0.881338 0 255 0 54 10
0.300305 -0.415662 -0.860106 0 255 0 54 10
0.358470 -0.382504 -0.737142 0 255 0 54 10
0.278833 -0.439724 -0.888071 0 255 0 54 10
0.464993 -0.583572 -0.898441 0 255 0 54 10
0.282235 -0.385241 -0.745569 0 255 0 54 10
0.215344 -0.565267 -0.881297 0 255 0 54 10
0.253667 -0.375352 -0.717142 0 255 0 54 10
0.265560 -0.545271 -0.887142 0 255 0 54 10
0.217886 -0.582165 -0.881307 0 255 0 54 10
0.365496 -0.474502 -0.881922 0 255 0 54 10
0.314358 -0.436123 -0.887142 0 255 0 54 10
0.250641 -0.524262 -0.881142 0 255 0 54 10
0.314149 -0.552539 -0.889142 0 255 0 54 10
0.259116 -0.408952 -0.811142 0 255 0 54 10
0.190413 -0.374733 -0.713142 0 255 0 54 10
0.182579 -0.382730 -0.733142 0 255 0 54 10
0.375561 -0.562518 -0.881142 0 255 0 54 10
0.275472 -0.494216 -0.881142 0 255 0 54 10
0.221979 -0.485953 -0.887142 0 255 0 54 10
0.212310 -0.589159 -0.886089 0 255 0 54 10
0.201952 -0.407025 -0.838135 0 255 0 54 10
0.194789 -0.368698 -0.731142 0 255 0 54 10
0.336662 -0.523580 -0.888102 0 255 0 54 10
0.268575 -0.584178 -0.883142 0 255 0 54 10
0.422088 -0.419887 -0.843142 0 255 0 54 10
0.391574 -0.409531 -0.845142 0 255 0 54 10
0.397189 -0.373494 -0.709142 0 255 0 54 10
0.426822 -0.561146 -0.880897 0 255 0 54 10
0.271077 -0.380020 -0.729142 0 255 0 54 10
0.266297 -0.383268 -0.737142 0 255 0 54 10
0.203234 -0.415476 -0.861142 0 255 0 54 10
0.278793 -0.391816 -0.763142 0 255 0 54 10
0.456698 -0.432547 -0.879142 0 255 0 54 10
0.296693 -0.538468 -0.887142 0 255 0 54 10
0.397184 -0.546668 -0.888006 0 255 0 54 10
0.272584 -0.407726 -0.807142 0 255 0 54 10
0.390543 -0.385523 -0.747142 0 255 0 54 10
0.449806 -0.606925 -0.881298 0 255 0 54 10
0.401166 -0.566415 -0.881142 0 255 0 54 10
0.241581 -0.552442 -0.887142 0 255 0 54 10
0.392363 -0.376962 -0.757142 0 255 0 54 10
0.350076 -0.465090 -0.887142 0 255 0 54 10
0.463663 -0.416680 -0.865142 0 255 0 54 10
0.316529 -0.387433 -0.785142 0 255 0 54 10
0.313329 -0.604497 -0.888129 0 255 0 54 10
0.439439 -0.588364 -0.881389 0 255 0 54 10
0.333001 -0.386893 -0.779142 0 255 0 54 10
0.424393 -0.380185 -0.731142 0 255 0 54 10
0.448411 -0.379669 -0.729142 0 255 0 54 10
0.369637 -0.426160 -0.861142 0 255 0 54 10
0.233008 -0.397269 -0.777142 0 255 0 54 10
0.275327 -0.600509 -0.890089 0 255 0 54 10
0.205617 -0.510038 -0.887142 0 255 0 54 10
0.211233 -0.401835 -0.791142 0 255 0 54 10
0.335102 -0.425103 -0.857978 0 255 0 54 10
0.310805 -0.414361 -0.827142 0 255 0 54 10
0.304133 -0.618900 -0.881742 0 255 0 54 10
0.288692 -0.614590 -0.903142 0 255 0 54 10
0.308118 -0.369285 -0.735142 0 255 0 54 10
0.419686 -0.469663 -0.882538 0 255 0 54 10
0.457453 -0.542092 -0.897142 0 255 0 54 10
0.205206 -0.591738 -0.881142 0 255 0 54 10
0.360138 -0.528570 -0.882638 0 255 0 54 10
0.390912 -0.369492 -0.731142 0 255 0 54 10
0.333158 -0.410377 -0.847142 0 255 0 54 10
0.429950 -0.594526 -0.886026 0 255 0 54 10
0.284532 -0.422533 -0.850179 0 255 0 54 10
0.416917 -0.391377 -0.793142 0 255 0 54 10
0.321508 -0.364008 -0.717142 0 255 0 54 10
0.369297 -0.533576 -0.887142 0 255 0 54 10
0.371815 -0.571945 -0.881142 0 255 0 54 10
0.306363 -0.531452 -0.888049 0 255 0 54 10
0.341868 -0.410184 -0.815142 0 255 0 54 10
0.338551 -0.397211 -0.777142 0 255 0 54 10
0.180381 -0.421930 -0.871142 0 255 0 54 10
0.184639 -0.459617 -0.887142 0 255 0 54 10
0.182247 -0.408971 -0.835142 0 255 0 54 10
0.421494 -0.384204 -0.743142 0 255 0 54 10
0.445884 -0.625380 -0.885142 0 255 0 54 10
0.413988 -0.486854 -0.882311 0 255 0 54 10
0.184471 -0.503499 -0.887142 0 255 0 54 10
0.288076 -0.453957 -0.881383 0 255 0 54 10
0.260623 -0.429199 -0.869142 0 255 0 54 10
0.332381 -0.553340 -0.881675 0 255 0 54 10
0.469228 -0.525177 -0.883142 0 255 0 54 10
0.184282 -0.384867 -0.765142 0 255 0 54 10
0.458614 -0.527010 -0.901844 0 255 0 54 10
0.201105 -0.362909 -0.715142 0 255 0 54 10
0.402429 -0.387322 -0.781142 0 255 0 54 10
0.242269 -0.544409 -0.888105 0 255 0 54 10
0.383420 -0.409416 -0.813142 0 255 0 54 10
0.294604 -0.391959 -0.763142 0 255 0 54 10
0.241058 -0.367333 -0.723142 0 255 0 54 10
0.344412 -0.564076 -0.885786 0 255 0 54 10
0.269345 -0.445886 -0.886125 0 255 0 54 10
0.199897 -0.397453 -0.777142 0 255 0 54 10
0.333372 -0.616015 -0.889142 0 255 0 54 10
0.372375 -0.403662 -0.795142 0 255 0 54 10
0.228942 -0.424337 -0.855142 0 255 0 54 10
0.243195 -0.597768 -0.881449 0 255 0 54 10
0.440591 -0.525224 -0.886000 0 255 0 54 10
0.278484 -0.566420 -0.881085 0 255 0 54 10
0.220135 -0.590822 -0.881404 0 255 0 54 10
0.274524 -0.536953 -0.886074 0 255 0 54 10
0.196839 -0.440698 -0.886092 0 255 0 54 10
0.431594 -0.490596 -0.881370 0 255 0 54 10
0.350694 -0.611478 -0.901142 0 255 0 54 10
0.273815 -0.377317 -0.723142 0 255 0 54 10
0.314049 -0.408717 -0.809142 0 255 0 54 10
0.332490 -0.427774 -0.865142 0 255 0 54 10
0.294898 -0.449273 -0.881142 0 255 0 54 10
0.220995 -0.519441 -0.881060 0 255 0 54 10
0.240360 -0.572629 -0.886049 0 255 0 54 10
0.373029 -0.492461 -0.887142 0 255 0 54 10
0.259078 -0.378751 -0.727142 0 255 0 54 10
0.237650 -0.431467 -0.873142 0 255 0 54 10
0.222803 -0.376265 -0.721142 0 255 0 54 10
0.387998 -0.397498 -0.778807 0 255 0 54 10
0.352076 -0.383728 -0.741159 0 255 0 54 10
0.323652 -0.402019 -0.793142 0 255 0 54 10
0.248553 -0.543701 -0.881808 0 255 0 54 10
0.339308 -0.434176 -0.880129 0 255 0 54 10
0.465212 -0.532502 -0.893142 0 255 0 54 10
0.213605 -0.611925 -0.886030 0 255 0 54 10
0.450862 -0.531496 -0.881142 0 255 0 54 10
0.424818 -0.532095 -0.888112 0 255 0 54 10
0.454361 -0.489302 -0.880977 0 255 0 54 10
0.264307 -0.440726 -0.882543 0 255 0 54 10
0.467905 -0.396725 -0.793142 0 255 0 54 10
0.217640 -0.602560 -0.881444 0 255 0 54 10
0.210251 -0.579609 -0.881142 0 255 0 54 10
0.340201 -0.458835 -0.881142 0 255 0 54 10
0.256965 -0.561846 -0.886117 0 255 0 54 10
0.391193 -0.555617 -0.882625 0 255 0 54 10
0.410180 -0.437429 -0.881142 0 255 0 54 10
0.421257 -0.375700 -0.719142 0 255 0 54 10
0.468380 -0.547488 -0.883142 0 255 0 54 10
0.202956 -0.469635 -0.885142 0 255 0 54 10
0.281016 -0.419741 -0.841142 0 255 0 54 10
0.189340 -0.399021 -0.783142 0 255 0 54 10
0.352067 -0.547301 -0.881529 0 255 0 54 10
0.460060 -0.472111 -0.901846 0 255 0 54 10
0.240334 -0.607383 -0.881142 0 255 0 54 10
0.377401 -0.399253 -0.785142 0 255 0 54 10
0.379681 -0.436624 -0.882118 0 255 0 54 10
0.381018 -0.420714 -0.845142 0 255 0 54 10
0.414128 -0.409238 -0.811142 0 255 0 54 10
0.330124 -0.592817 -0.887142 0 255 0 54 10
0.419868 -0.565001 -0.881142 0 255 0 54 10
0.299593 -0.390153 -0.759142 0 255 0 54 10
0.398507 -0.501966 -0.881251 0 255 0 54 10
0.329643 -0.393070 -0.767142 0 255 0 54 10
0.296364 -0.482299 -0.888027 0 255 0 54 10
0.400266 -0.397498 -0.779142 0 255 0 54 10
0.379311 -0.485618 -0.883142 0 255 0 54 10
0.260994 -0.577015 -0.887142 0 255 0 54 10
0.455700 -0.502240 -0.881142 0 255 0 54 10
0.288020 -0.588894 -0.888115 0 255 0 54 10
0.389417 -0.419681 -0.841142 0 255 0 54 10
0.444069 -0.431908 -0.876967 0 255 0 54 10
0.321990 -0.446853 -0.881142 0 255 0 54 10
0.371440 -0.436917 -0.881799 0 255 0 54 10
0.288606 -0.533812 -0.881142 0 255 0 54 10
0.187766 -0.444903 -0.881077 0 255 0 54 10
0.315012 -0.596577 -0.883142 0 255 0 54 10
0.186211 -0.586895 -0.881142 0 255 0 54 10
0.466950 -0.583988 -0.881936 0 255 0 54 10
0.391949 -0.590538 -0.886005 0 255 0 54 10
0.195570 -0.456288 -0.881142 0 255 0 54 10
0.414309 -0.427627 -0.864515 0 255 0 54 10
0.248904 -0.407378 -0.805142 0 255 0 54 10
0.246656 -0.417954 -0.835142 0 255 0 54 10
0.328223 -0.572903 -0.888103 0 255 0 54 10
0.338769 -0.446330 -0.886075 0 255 0 54 10
0.293160 -0.487752 -0.882758 0 255 0 54 10
0.372901 -0.430046 -0.871142 0 255 0 54 10
0.394824 -0.423099 -0.851142 0 255 0 54 10
0.203595 -0.408911 -0.811142 0 255 0 54 10
0.414621 -0.531972 -0.883174 0 255 0 54 10
0.319812 -0.554758 -0.881933 0 255 0 54 10
0.408333 -0.600033 -0.881142 0 255 0 54 10
0.261123 -0.542283 -0.881273 0 255 0 54 10
0.393411 -0.431363 -0.873142 0 255 0 54 10
0.294052 -0.387365 -0.751142 0 255 0 54 10
0.297999 -0.541943 -0.881379 0 255 0 54 10
0.426680 -0.475239 -0.881937 0 255 0 54 10
0.390749 -0.625042 -0.885708 0 255 0 54 10
0.372953 -0.506757 -0.888131 0 255 0 54 10
0.244905 -0.378096 -0.725142 0 255 0 54 10
0.336388 -0.611443 -0.882906 0 255 0 54 10
0.322730 -0.406354 -0.805142 0 255 0 54 10
0.324041 -0.506584 -0.881142 0 255 0 54 10
0.420688 -0.484189 -0.883370 0 255 0 54 10
0.332302 -0.419038 -0.841142 0 255 0 54 10
0.266529 -0.516851 -0.881982 0 255 0 54 10
0.282009 -0.516052 -0.887142 0 255 0 54 10
0.214247 -0.493470 -0.882192 0 255 0 54 10
0.230994 -0.568594 -0.881438 0 255 0 54 10
0.356200 -0.513420 -0.887142 0 255 0 54 10
0.355055 -0.388950 -0.755142 0 255 0 54 10
0.221458 -0.546120 -0.882093 0 255 0 54 10
0.280100 -0.529959 -0.881148 0 255 0 54 10
0.362141 -0.557621 -0.881895 0 255 0 54 10
0.227525 -0.498337 -0.888070 0 255 0 54 10
0.353390 -0.502599 -0.881471 0 255 0 54 10
0.316108 -0.399032 -0.783142 0 255 0 54 10
0.191254 -0.611264 -0.886034 0 255 0 54 10
0.296194 -0.463861 -0.881477 0 255 0 54 10
0.228811 -0.410689 -0.847142 0 255 0 54 10
0.202107 -0.444771 -0.885142 0 255 0 54 10
0.329102 -0.597626 -0.882604 0 255 0 54 10
0.427375 -0.438583 -0.885142 0 255 0 54 10
0.315650 -0.410807 -0.815142 0 255 0 54 10
0.460524 -0.523327 -0.887142 0 255 0 54 10
0.315786 -0.381308 -0.733142 0 255 0 54 10
0.252207 -0.613087 -0.897142 0 255 0 54 10
0.237492 -0.403350 -0.829142 0 255 0 54 10
0.326958 -0.367227 -0.725142 0 255 0 54 10
0.280848 -0.613013 -0.897142 0 255 0 54 10
0.439986 -0.412638 -0.822892 0 255 0 54 10
0.349818 -0.538644 -0.881842 0 255 0 54 10
0.243082 -0.396292 -0.777142 0 255 0 54 10
0.303207 -0.397877 -0.781142 0 255 0 54 10
0.418921 -0.598316 -0.881184 0 255 0 54 10
0.312676 -0.463275 -0.881530 0 255 0 54 10
0.463065 -0.515688 -0.881340 0 255 0 54 10
0.264525 -0.487800 -0.882435 0 255 0 54 10
0.414470 -0.609637 -0.882072 0 255 0 54 10
0.355592 -0.482620 -0.882292 0 255 0 54 10
0.334801 -0.580435 -0.882150 0 255 0 54 10
0.429326 -0.385836 -0.780142 0 255 0 54 10
0.292934 -0.604251 -0.882526 0 255 0 54 10
0.310493 -0.579358 -0.882423 0 255 0 54 10
0.359901 -0.385392 -0.776115 0 255 0 54 10
0.415140 -0.423714 -0.884134 0 255 0 54 10
0.336009 -0.382358 -0.770138 0 255 0 54 10
0.259468 -0.386536 -0.780112 0 255 0 54 10
0.460984 -0.400427 -0.787142 0 255 0 54 10
0.313650 -0.545269 -0.881938 0 255 0 54 10
0.421671 -0.402611 -0.826139 0 255 0 54 10
0.295750 -0.533286 -0.881699 0 255 0 54 10
0.311766 -0.621467 -0.893142 0 255 0 54 10
0.252901 -0.597786 -0.881142 0 255 0 54 10
0.469305 -0.412735 -0.837142 0 255 0 54 10
0.222139 -0.619873 -0.881701 0 255 0 54 10
0.287492 -0.389369 -0.755142 0 255 0 54 10
0.356111 -0.374363 -0.715109 0 255 0 54 10
0.261246 -0.532086 -0.881175 0 255 0 54 10
0.201602 -0.533721 -0.881574 0 255 0 54 10
0.332778 -0.455280 -0.881251 0 255 0 54 10
0.183382 -0.580965 -0.888083 0 255 0 54 10
0.197222 -0.390796 -0.761142 0 255 0 54 10
0.347568 -0.529987 -0.881758 0 255 0 54 10
0.356433 -0.363229 -0.713142 0 255 0 54 10
0.280105 -0.414502 -0.857142 0 255 0 54 10
0.217469 -0.372498 -0.745142 0 255 0 54 10
0.217810 -0.409374 -0.849142 0 255 0 54 10
0.404315 -0.364162 -0.713142 0 255 0 54 10
0.389359 -0.545004 -0.881755 0 255 0 54 10
0.222753 -0.568887 -0.881060 0 255 0 54 10
0.273071 -0.620742 -0.895142 0 255 0 54 10
0.457776 -0.386660 -0.749142 0 255 0 54 10
0.370061 -0.616556 -0.903713 0 255 0 54 10
0.217574 -0.477820 -0.881601 0 255 0 54 10
0.363757 -0.521160 -0.881177 0 255 0 54 10
0.392100 -0.512872 -0.881458 0 255 0 54 10
0.395672 -0.476827 -0.882534 0 255 0 54 10
0.240123 -0.429451 -0.886064 0 255 0 54 10
0.330160 -0.477215 -0.882542 0 255 0 54 10
0.411738 -0.478197 -0.887921 0 255 0 54 10
0.275364 -0.369468 -0.708416 0 255 0 54 10
0.333732 -0.441170 -0.881875 0 255 0 54 10
0.371016 -0.602446 -0.881477 0 255 0 54 10
0.281688 -0.560967 -0.887955 0 255 0 54 10
0.386543 -0.615970 -0.881382 0 255 0 54 10
0.322552 -0.522625 -0.881442 0 255 0 54 10
0.426897 -0.522313 -0.881461 0 255 0 54 10
0.401644 -0.371773 -0.738128 0 255 0 54 10
0.402250 -0.484359 -0.883443 0 255 0 54 10
0.188201 -0.539051 -0.881394 0 255 0 54 10
0.310700 -0.366755 -0.708401 0 255 0 54 10
0.466404 -0.374925 -0.733142 0 255 0 54 10
0.289683 -0.581069 -0.882555 0 255 0 54 10
0.433891 -0.527889 -0.883321 0 255 0 54 10
0.379005 -0.410948 -0.849142 0 255 0 54 10
0.384368 -0.404957 -0.801142 0 255 0 54 10
0.270904 -0.544362 -0.881582 0 255 0 54 10
0.360039 -0.615612 -0.891142 0 255 0 54 10
0.397941 -0.581588 -0.881613 0 255 0 54 10
0.285581 -0.465694 -0.886004 0 255 0 54 10
0.449097 -0.600640 -0.881549 0 255 0 54 10
0.186368 -0.528438 -0.886115 0 255 0 54 10
0.374877 -0.363029 -0.713142 0 255 0 54 10
0.192209 -0.597154 -0.881004 0 255 0 54 10
0.377517 -0.417950 -0.837142 0 255 0 54 10
0.205266 -0.381812 -0.733142 0 255 0 54 10
0.369876 -0.386557 -0.781142 0 255 0 54 10
0.401560 -0.574179 -0.886042 0 255 0 54 10
0.333952 -0.372799 -0.739142 0 255 0 54 10
0.440148 -0.594649 -0.881459 0 255 0 54 10
0.443597 -0.568801 -0.885983 0 255 0 54 10
0.229331 -0.576419 -0.886053 0 255 0 54 10
0.251143 -0.589234 -0.886066 0 255 0 54 10
0.368766 -0.593789 -0.886056 0 255 0 54 10
0.357353 -0.426236 -0.859142 0 255 0 54 10
0.311546 -0.401255 -0.789142 0 255 0 54 10
0.196149 -0.415084 -0.859142 0 255 0 54 10
0.439325 -0.434989 -0.885952 0 255 0 54 10
0.347409 -0.396062 -0.807142 0 255 0 54 10
0.322675 -0.512428 -0.888083 0 255 0 54 10
0.307011 -0.393733 -0.767142 0 255 0 54 10
0.419790 -0.363362 -0.708190 0 255 0 54 10
0.199737 -0.378966 -0.763142 0 255 0 54 10
0.462212 -0.429630 -0.869142 0 255 0 54 10
0.418378 -0.398861 -0.815142 0 255 0 54 10
0.213680 -0.573092 -0.886042 0 255 0 54 10
