ply
format ascii 1.0
element vertex 1103
property float x
property float y
property float z
property uchar red
property uchar green
property uchar blue
property uchar semantic_label
property uchar instance_label
end_header
-0.211267 2.006325 -1.692756 142 135 135 2 5
-0.230987 2.032041 -1.693379 144 137 137 2 5
0.127955 1.977967 -1.503932 32 31 35 39 3
0.122928 1.979577 -1.505340 32 32 34 39 3
0.132301 1.971793 -1.513185 31 31 33 39 3
0.108805 1.962484 -1.494594 24 24 25 39 3
0.116354 1.969984 -1.496387 27 26 27 39 3
0.113992 1.981983 -1.489832 27 27 29 39 3
0.125307 1.958447 -1.505044 22 21 24 39 3
0.268044 1.855524 -1.428895 162 149 138 39 3
0.283591 1.857340 -1.450797 161 147 139 39 3
0.133192 1.878875 -1.616427 29 29 29 39 3
0.155398 1.867790 -1.649126 28 30 30 2 5
0.149351 1.870855 -1.647893 32 33 34 2 5
0.145280 1.862958 -1.658563 30 29 29 2 5
0.165807 1.862033 -1.635010 31 30 31 39 3
0.148649 1.874103 -1.638046 30 30 30 39 3
0.145306 1.877122 -1.628563 31 30 31 39 3
0.157714 1.885168 -1.617722 28 27 28 7 6
0.160641 1.865923 -1.641918 30 29 29 39 3
0.157617 1.881860 -1.634906 30 31 31 7 6
0.136608 1.896538 -1.628097 31 31 33 7 6
0.150872 1.877702 -1.644071 33 32 36 7 6
-0.174606 1.795940 -1.280907 195 181 166 0 0
0.096740 1.929731 -1.669186 48 48 48 2 5
0.074695 1.899505 -1.683770 47 47 45 2 5
0.096571 1.903172 -1.680446 53 52 52 2 5
0.093863 1.911740 -1.684381 56 55 55 2 5
0.112416 1.884842 -1.678573 52 50 51 2 5
0.077639 1.906185 -1.681520 62 63 63 2 5
0.081189 1.919258 -1.678171 69 68 70 2 5
-0.323266 1.839392 -1.684991 55 54 51 2 5
-0.495383 2.055956 -1.694841 148 141 139 2 5
-0.575530 2.001460 -1.692667 158 149 151 2 5
-0.236201 2.048059 -1.693614 149 142 139 2 5
-0.223741 2.072857 -1.695379 149 142 139 2 5
0.156887 2.017500 -1.687389 100 107 123 2 5
0.142671 2.032641 -1.686902 62 72 90 2 5
0.168663 2.031978 -1.687344 79 91 112 2 5
0.069937 1.829062 -1.477640 60 56 55 0 0
-0.328088 2.030644 -1.693395 150 141 141 2 5
-0.342379 2.044763 -1.693084 150 140 138 2 5
-0.321840 2.050758 -1.693089 147 139 137 2 5
-0.519789 1.781140 -1.303051 121 90 53 0 0
0.089070 2.037026 -1.687851 75 80 94 2 5
0.075521 2.041708 -1.687587 134 141 165 2 5
0.053588 2.187045 -1.696909 117 117 121 2 5
0.132481 2.206287 -1.512889 25 23 24 7 6
0.140420 2.205917 -1.503167 22 21 21 7 6
0.137411 2.208000 -1.519797 37 36 37 7 6
0.146047 2.199442 -1.514232 26 25 26 7 6
0.149630 2.209707 -1.524611 27 26 25 7 6
0.153907 2.199895 -1.517061 23 22 23 7 6
0.148903 2.208136 -1.509363 72 67 68 7 6
-0.548650 1.740579 -1.669152 33 31 34 2 5
-0.557526 1.764126 -1.670219 34 34 36 2 5
-0.660512 1.763790 -1.364052 130 93 58 0 0
-0.654512 1.764399 -1.326051 127 95 60 0 0
-0.115512 1.805964 -1.511052 157 155 160 0 0
-0.124512 1.803626 -1.475052 170 163 166 0 0
-0.215230 1.802338 -1.669806 45 43 48 2 5
-0.664090 1.764623 -1.493268 119 94 63 0 0
0.116973 2.218518 -1.509612 40 39 40 7 6
0.127607 2.214949 -1.517470 36 35 35 7 6
0.124396 2.216736 -1.504778 36 35 35 7 6
0.136392 2.224298 -1.510049 18 18 17 7 6
0.115644 2.232997 -1.512516 42 41 42 7 6
0.112076 2.228541 -1.506811 41 40 41 7 6
0.126278 2.222676 -1.515660 46 44 46 7 6
0.113441 2.222363 -1.503608 35 35 34 7 6
0.116248 2.232598 -1.503477 19 19 19 7 6
0.130261 2.242824 -1.514816 31 31 32 7 6
-0.001735 1.996893 -1.688466 132 124 117 2 5
0.271700 2.008593 -1.683288 106 102 104 2 5
0.032860 2.125230 -1.697196 118 118 121 2 5
-0.347570 1.802809 -1.498553 122 97 64 0 0
-0.405626 1.893361 -1.676022 93 89 94 7 6
0.189851 1.770446 -1.665276 27 27 26 2 5
0.182338 1.782238 -1.667636 28 27 28 2 5
0.187602 1.803022 -1.663128 30 29 30 2 5
0.122120 1.831918 -1.439008 64 60 57 39 3
-0.061457 1.813999 -1.517411 170 163 168 0 0
-0.084511 1.809383 -1.507051 165 161 165 0 0
-0.465074 1.789415 -1.398552 122 92 58 0 0
-0.458957 1.790432 -1.417052 137 105 70 0 0
-0.445785 1.791724 -1.432863 131 100 64 0 0
-0.633450 1.891449 -1.686711 111 109 114 7 6
0.117941 1.824924 -1.307403 50 46 43 39 3
0.132966 1.827560 -1.297629 51 47 43 39 3
0.198500 1.826258 -1.660248 34 33 35 2 5
0.230900 1.819922 -1.660671 30 30 35 2 5
0.205689 1.812019 -1.663133 33 33 36 2 5
-0.160557 1.737622 -1.662438 32 30 34 2 5
-0.220037 2.233505 -1.697551 143 145 151 2 5
-0.207740 2.111442 -1.695346 127 126 135 2 5
-0.025742 1.915576 -1.670179 72 71 72 2 5
-0.003183 1.895840 -1.682857 65 63 65 2 5
-0.018121 1.906884 -1.674435 67 66 67 2 5
-0.005426 1.916517 -1.674711 94 93 94 2 5
-0.009692 1.927782 -1.677377 100 100 100 2 5
-0.386441 1.799513 -1.540287 119 94 68 0 0
-0.267255 2.139642 -1.696279 135 138 140 2 5
-0.250492 2.152825 -1.695998 140 144 145 2 5
-0.144012 1.802135 -1.501801 165 160 165 0 0
-0.288512 1.804263 -1.292052 87 76 65 0 0
-0.322012 1.802494 -1.270926 101 74 48 0 0
-0.290512 1.805606 -1.261052 85 71 56 0 0
-0.012791 2.057781 -1.690621 138 129 126 2 5
0.010792 2.069138 -1.691118 141 131 129 2 5
0.235889 1.848456 -1.339528 165 154 147 39 3
0.245488 1.849556 -1.349925 168 154 143 39 3
0.239210 1.850108 -1.364022 162 148 138 39 3
0.257235 1.849411 -1.331670 182 170 163 39 3
0.201595 2.001632 -1.685117 90 95 114 2 5
0.226262 1.991333 -1.682326 57 59 74 2 5
-0.031133 1.827747 -1.669811 43 42 49 2 5
-0.004033 1.841573 -1.670507 41 39 45 2 5
0.011783 1.850067 -1.672318 45 44 45 2 5
-0.037278 1.858206 -1.678140 55 49 48 2 5
-0.173011 1.795497 -1.366552 187 177 168 0 0
-0.328405 1.733552 -1.658707 221 209 160 0 0
-0.342348 1.753819 -1.669037 227 214 163 2 5
-0.319992 1.737974 -1.662490 216 204 159 2 5
-0.311931 1.745087 -1.661808 231 219 171 2 5
-0.328446 1.744150 -1.664468 235 223 171 2 5
-0.330926 1.765911 -1.667765 221 210 170 2 5
0.104034 1.886748 -1.518721 38 39 42 39 3
0.094595 1.892014 -1.504686 62 62 65 39 3
-0.528512 1.783440 -1.466052 124 95 61 0 0
-0.529137 1.784004 -1.489177 126 97 61 0 0
-0.516512 1.783699 -1.446552 128 99 64 0 0
0.057257 2.026809 -1.686997 127 125 123 2 5
0.035270 1.820153 -1.277919 162 148 138 0 0
0.062396 1.823722 -1.286556 134 125 114 0 0
-0.198808 1.800739 -1.499927 179 173 171 0 0
0.081861 1.849082 -1.666087 39 38 43 2 5
0.102340 1.822721 -1.662730 37 37 39 2 5
-0.460695 2.174003 -1.695814 144 145 151 2 5
-0.443008 2.164396 -1.694628 139 143 148 2 5
-0.487366 2.164758 -1.694125 137 139 146 2 5
0.108845 1.970541 -1.680790 106 106 112 2 5
-0.655064 1.749277 -1.582403 111 88 64 6 1
-0.647217 1.742939 -1.588742 110 88 64 6 1
-0.634480 1.752480 -1.581526 114 91 66 6 1
-0.355518 2.078665 -1.695317 129 132 136 2 5
-0.363201 2.109427 -1.694874 133 134 139 2 5
-0.334843 2.111985 -1.695373 133 134 136 2 5
-0.368683 2.119575 -1.695516 134 137 140 2 5
-0.532809 1.886838 -1.672891 97 96 100 7 6
-0.514166 1.885552 -1.673035 95 93 98 7 6
-0.411928 2.051691 -1.694115 147 138 139 2 5
-0.428713 2.033147 -1.692512 139 135 136 2 5
0.058949 1.788316 -1.596848 76 73 70 0 0
0.070688 1.768373 -1.619444 58 56 53 0 0
0.048459 1.779248 -1.605014 82 81 78 0 0
0.115506 1.890629 -1.592059 29 29 29 39 3
0.116440 1.902879 -1.568346 29 29 30 7 6
0.112577 1.910059 -1.574465 27 28 28 7 6
0.109012 1.905648 -1.575382 28 28 29 39 3
0.130896 1.888971 -1.567950 30 30 29 7 6
0.108911 1.897454 -1.566710 31 31 31 39 3
0.125885 1.901860 -1.582731 13 14 14 7 6
-0.158805 1.728178 -1.638090 32 29 31 0 0
-0.174734 1.743550 -1.644804 32 31 32 2 5
-0.175453 1.744293 -1.631838 32 30 32 0 0
-0.160601 1.743863 -1.617280 69 66 68 0 0
-0.139187 1.745378 -1.656157 35 34 36 2 5
-0.177828 1.754702 -1.626649 31 28 29 39 3
-0.165425 1.750976 -1.645766 33 30 34 2 5
-0.169901 1.758876 -1.646331 30 29 32 39 3
-0.167965 1.739737 -1.657465 35 32 36 2 5
-0.662209 1.766490 -1.470726 131 102 61 0 0
-0.003977 1.944830 -1.683465 107 103 105 2 5
0.001209 1.957403 -1.682867 108 107 108 2 5
-0.020902 1.923556 -1.675533 97 97 99 2 5
-0.005579 1.933459 -1.679578 101 100 102 2 5
0.295761 1.805402 -1.612365 86 82 87 39 3
0.285112 1.826812 -1.594445 108 104 111 39 3
0.287165 1.798883 -1.614377 72 68 73 39 3
-0.118678 2.208721 -1.698780 134 137 140 2 5
-0.097280 2.217822 -1.698557 134 133 140 2 5
-0.113090 2.173103 -1.695982 133 135 139 2 5
-0.102386 2.187533 -1.697767 135 136 140 2 5
-0.003079 1.860976 -1.678014 56 50 47 2 5
-0.019613 1.869790 -1.680988 56 52 47 2 5
-0.028740 1.879576 -1.681362 48 47 42 2 5
0.002509 1.878862 -1.682425 52 50 46 2 5
0.004360 1.889867 -1.684556 65 64 62 2 5
0.071264 1.965520 -1.681524 61 62 74 2 5
-0.470725 1.777255 -1.670346 38 38 42 2 5
-0.507072 1.780252 -1.671918 43 41 46 2 5
-0.484241 1.786617 -1.672585 53 52 55 2 5
-0.153166 1.721756 -1.643484 29 30 29 0 0
-0.142490 1.713650 -1.650095 40 36 37 0 0
-0.476512 1.786765 -1.323052 120 89 53 0 0
-0.496512 1.783599 -1.303051 122 91 54 0 0
-0.431766 1.766086 -1.593023 74 59 43 0 0
-0.604789 2.014009 -1.692623 158 150 150 2 5
-0.607724 2.000335 -1.692648 144 142 142 2 5
0.063189 1.746390 -1.638015 53 51 52 0 0
0.055460 1.747963 -1.638405 37 32 35 0 0
0.042594 1.747452 -1.635448 39 35 36 0 0
0.058363 1.741254 -1.646267 48 44 45 0 0
0.067077 1.741707 -1.646731 35 33 31 0 0
0.070444 1.748218 -1.641754 33 32 33 0 0
0.044010 1.736236 -1.652036 47 44 44 0 0
0.059916 1.759577 -1.626894 51 48 47 0 0
0.045376 1.762186 -1.624086 42 38 40 0 0
-0.302539 1.825225 -1.680966 86 87 83 2 5
-0.294614 1.816852 -1.676740 60 60 58 2 5
0.315968 1.864446 -1.518203 147 138 138 39 3
0.309834 1.863071 -1.547590 141 134 135 39 3
0.134624 1.754959 -1.653614 26 26 29 0 0
0.148984 1.752779 -1.657333 30 30 30 0 0
0.161804 1.762652 -1.666570 29 29 27 2 5
0.152160 1.763816 -1.666061 28 27 26 2 5
-0.588653 1.936268 -1.690189 121 120 125 2 5
-0.572543 1.947777 -1.690737 122 125 129 2 5
-0.610684 1.771598 -1.432563 123 91 56 0 0
0.074090 1.826160 -1.389330 68 63 61 0 0
0.084193 1.827319 -1.402462 63 59 56 39 3
0.082845 1.825970 -1.364902 73 69 65 39 3
0.073101 1.825474 -1.366647 70 63 63 0 0
0.090127 1.828467 -1.367445 64 62 58 39 3
-0.560512 1.776921 -1.346052 126 94 54 0 0
-0.588461 2.130934 -1.696225 131 133 142 2 5
-0.554850 2.128687 -1.696524 131 132 143 2 5
-0.592329 2.143364 -1.697362 143 144 153 2 5
-0.325676 1.805137 -1.461302 121 95 63 0 0
-0.330834 1.804754 -1.495301 130 100 69 0 0
-0.316512 1.807318 -1.498052 107 85 56 0 0
-0.315512 1.806727 -1.470302 106 89 60 0 0
-0.095114 1.832833 -1.672029 38 39 41 2 5
-0.106647 1.853192 -1.681336 47 45 46 2 5
-0.095662 1.845818 -1.676483 45 43 46 2 5
-0.597970 1.725468 -1.669828 33 32 36 2 5
-0.568106 1.707636 -1.669067 33 32 36 2 5
-0.588867 1.701701 -1.669017 31 28 30 2 5
-0.608854 1.713201 -1.670390 35 30 35 2 5
0.184283 1.861155 -1.517847 123 121 130 39 3
0.198746 1.862426 -1.511543 131 126 133 39 3
0.262401 1.857754 -1.448565 153 142 136 39 3
0.244128 1.857800 -1.466725 150 140 133 39 3
0.244921 1.857610 -1.442936 151 140 135 39 3
-0.661885 1.925814 -1.690479 123 123 129 2 5
-0.634540 1.947686 -1.690212 124 124 130 2 5
-0.661956 1.948523 -1.691297 132 133 137 2 5
-0.353872 2.028352 -1.692461 148 139 138 2 5
-0.360800 2.059096 -1.693681 150 140 139 2 5
-0.383632 2.085750 -1.695134 129 131 137 2 5
-0.379422 2.103464 -1.695438 132 132 139 2 5
-0.408320 2.098085 -1.695226 132 133 138 2 5
-0.114501 1.801168 -1.391927 175 164 159 0 0
-0.140887 1.798962 -1.426552 174 166 159 0 0
-0.121512 1.800273 -1.413052 181 171 167 0 0
0.147699 1.973612 -1.680374 44 44 49 2 5
0.165403 1.980486 -1.680490 59 59 59 2 5
0.164974 1.963038 -1.680601 56 55 54 2 5
-0.085851 1.764025 -1.604787 131 127 129 0 0
-0.059379 1.751623 -1.619704 112 109 111 0 0
-0.074293 1.755201 -1.614377 111 107 110 0 0
-0.053607 1.763499 -1.611000 104 101 104 0 0
-0.087438 1.803725 -1.353371 179 169 159 0 0
-0.100512 1.801764 -1.372051 179 167 157 0 0
-0.113609 1.800009 -1.342825 184 173 165 0 0
-0.394262 1.794969 -1.321427 129 96 56 0 0
-0.423137 1.792224 -1.320177 129 97 59 0 0
-0.497512 1.786470 -1.469927 122 98 63 0 0
-0.481074 1.789296 -1.476052 127 97 64 0 0
-0.339169 1.801815 -1.368828 126 95 58 0 0
-0.322656 1.804547 -1.377737 116 87 56 0 0
-0.111456 2.078461 -1.694851 137 131 131 2 5
-0.122901 2.107191 -1.694247 140 134 135 2 5
0.121513 2.022377 -1.686839 117 124 145 2 5
0.319401 1.838297 -1.588459 125 118 118 39 3
0.195360 1.832635 -1.583690 108 105 112 39 3
0.203667 1.845982 -1.578623 116 115 120 39 3
0.216721 1.846829 -1.579026 119 115 121 39 3
0.237655 1.858092 -1.556324 122 119 127 39 3
0.209637 1.838153 -1.582798 111 108 114 39 3
-0.146347 1.849107 -1.683740 61 54 53 2 5
-0.176874 1.842183 -1.680551 58 53 52 2 5
-0.177842 1.853199 -1.685131 59 57 53 2 5
-0.484822 2.034842 -1.693601 143 138 138 2 5
-0.445836 2.021113 -1.693160 146 138 137 2 5
-0.361088 1.736750 -1.668869 40 36 41 2 5
-0.379435 1.750305 -1.669469 47 45 49 2 5
-0.365243 1.798316 -1.370347 137 105 64 0 0
-0.394512 1.795947 -1.346052 125 94 58 0 0
-0.376710 1.796155 -1.338809 137 105 66 0 0
-0.375822 1.798910 -1.673054 52 52 52 2 5
-0.330920 1.800009 -1.671663 58 57 56 2 5
-0.371306 1.809942 -1.675940 113 113 114 2 5
-0.351326 1.813122 -1.675879 130 129 131 2 5
-0.378525 1.817929 -1.680696 113 108 110 2 5
-0.653632 1.869235 -1.673428 97 98 100 7 6
-0.643708 1.880104 -1.680807 101 99 102 7 6
-0.632544 1.871806 -1.674948 101 98 102 7 6
-0.402127 1.911171 -1.683340 103 99 101 7 6
-0.419913 1.922508 -1.687991 122 121 125 7 6
-0.095557 1.994990 -1.689473 133 124 124 2 5
-0.070117 1.994514 -1.689227 138 130 128 2 5
-0.347466 2.130457 -1.696141 137 137 141 2 5
-0.379600 2.136019 -1.695127 137 139 144 2 5
-0.458682 2.058168 -1.693820 133 129 136 2 5
0.017057 1.804465 -1.669248 38 37 42 2 5
0.001612 1.781363 -1.668876 37 36 43 2 5
0.051204 1.800050 -1.668173 36 36 42 2 5
0.286312 1.923897 -1.687362 52 51 51 2 5
0.297828 1.920324 -1.686630 67 67 66 2 5
0.271529 1.921608 -1.683757 53 54 51 2 5
0.211685 1.982717 -1.682463 45 45 54 2 5
0.182026 1.954781 -1.672266 56 58 59 2 5
0.191979 1.957972 -1.676129 51 50 51 2 5
0.188799 1.967747 -1.681211 55 54 55 2 5
-0.132512 1.799846 -1.391052 175 166 158 0 0
0.311488 1.855179 -1.370552 176 158 142 39 3
0.314284 1.855618 -1.350082 192 171 153 39 3
0.304772 1.850883 -1.331460 190 172 159 39 3
-0.434545 2.104516 -1.695806 133 134 139 2 5
-0.400001 2.111159 -1.695384 134 135 140 2 5
-0.562544 1.956369 -1.690760 127 126 133 2 5
-0.542465 1.960519 -1.691755 128 128 135 2 5
-0.386706 1.755434 -1.607722 44 35 28 0 0
-0.393836 1.764240 -1.599523 50 41 31 0 0
-0.371361 1.754065 -1.604199 67 53 36 0 0
-0.375396 1.757792 -1.606547 48 38 29 0 0
-0.392397 1.747120 -1.616486 57 46 32 0 0
0.000203 1.807526 -1.573997 147 142 148 0 0
0.003217 1.794479 -1.586535 151 147 153 0 0
-0.567503 2.183124 -1.697483 148 151 160 2 5
-0.601942 2.192621 -1.694972 153 154 162 2 5
-0.584228 1.777099 -1.465060 124 93 59 0 0
-0.584627 1.775625 -1.443695 130 101 60 0 0
-0.091947 2.175011 -1.696591 133 133 139 2 5
-0.063957 2.184574 -1.698708 132 132 137 2 5
-0.084146 2.222527 -1.698027 131 132 136 2 5
0.148785 1.893006 -1.605265 31 31 32 7 6
0.153498 1.898445 -1.596251 30 30 30 7 6
0.144319 1.898165 -1.615023 32 30 32 7 6
-0.564401 1.696629 -1.652431 33 26 28 2 5
-0.441241 1.911249 -1.684877 106 105 108 7 6
-0.475988 1.915939 -1.687563 138 137 142 7 6
-0.449416 1.920873 -1.688171 131 129 134 7 6
-0.492634 2.215041 -1.696352 149 151 155 2 5
-0.502364 2.232588 -1.699095 152 153 156 2 5
-0.379762 1.771034 -1.594971 120 99 69 0 0
-0.362719 1.797438 -1.555740 121 98 67 0 0
-0.359511 1.780054 -1.586765 123 102 71 0 0
-0.350184 1.792231 -1.572631 136 113 78 0 0
-0.366018 1.791482 -1.567332 116 92 61 0 0
-0.570387 1.774993 -1.301177 123 89 52 0 0
-0.586806 1.773605 -1.282535 129 95 56 0 0
-0.096227 2.160110 -1.695709 126 126 128 2 5
-0.074364 2.163496 -1.694874 127 129 134 2 5
-0.098270 1.799745 -1.311397 160 147 138 0 0
-0.120369 1.800119 -1.275293 192 178 165 0 0
-0.108873 1.802029 -1.287521 172 160 148 0 0
0.106172 2.236430 -1.498798 17 17 17 7 6
0.176878 1.852406 -1.281672 109 103 99 39 3
0.162438 1.858172 -1.291695 87 83 78 7 6
0.190601 1.851872 -1.282678 147 134 125 39 3
0.180789 1.858244 -1.267235 139 128 121 39 3
0.296047 1.844872 -1.580815 137 128 132 39 3
0.276830 1.839635 -1.582211 134 124 129 39 3
0.267129 1.854563 -1.563830 134 128 132 39 3
-0.546182 1.773576 -1.568541 106 78 52 6 1
-0.509832 1.772940 -1.574726 101 83 62 6 1
-0.264536 1.804327 -1.546570 148 145 151 0 0
-0.266664 1.805371 -1.534052 155 149 158 0 0
-0.166743 1.797835 -1.550984 157 156 165 0 0
-0.240468 1.788668 -1.585824 149 136 126 0 0
-0.228810 1.795348 -1.569941 131 124 127 0 0
-0.667683 1.764133 -1.545765 110 87 59 0 0
-0.070173 1.904480 -1.676939 59 59 57 2 5
-0.066675 1.890620 -1.685868 74 73 76 2 5
-0.067364 1.916109 -1.677540 98 99 100 2 5
-0.060862 1.911233 -1.672318 67 67 69 2 5
-0.079740 1.920785 -1.677159 89 89 93 2 5
-0.234838 1.781834 -1.660652 164 146 104 39 3
-0.233168 1.777828 -1.654173 146 130 97 39 3
-0.499153 1.923059 -1.689439 115 114 117 2 5
-0.477541 1.938028 -1.689924 116 115 119 2 5
-0.514084 1.937557 -1.689936 116 117 121 2 5
-0.489197 1.953759 -1.690577 116 116 119 2 5
0.020866 1.721713 -1.656916 38 35 37 2 5
0.037816 1.728671 -1.652645 32 30 31 2 5
-0.337060 1.783575 -1.591609 161 141 104 0 0
-0.327828 1.778079 -1.604041 221 207 165 0 0
-0.319696 1.777308 -1.612065 202 188 150 0 0
0.126685 1.945992 -1.675792 66 66 68 2 5
0.112272 1.932755 -1.667675 51 51 53 2 5
0.099833 1.936526 -1.668460 53 53 55 2 5
0.110190 1.952374 -1.680229 59 58 59 2 5
0.127534 1.930022 -1.671969 52 53 55 2 5
0.151542 1.793358 -1.599709 91 89 86 0 0
0.296417 1.859735 -1.557356 136 131 133 39 3
0.312794 1.857122 -1.565886 138 127 129 39 3
-0.056512 1.808502 -1.374552 179 170 163 0 0
-0.036824 1.809723 -1.372128 183 171 166 0 0
-0.592744 1.756359 -1.585025 105 82 59 6 1
-0.582672 1.755404 -1.585674 106 84 59 6 1
-0.539558 2.203700 -1.695885 147 151 159 2 5
-0.114769 1.863565 -1.685750 54 55 50 2 5
-0.088160 1.867028 -1.683752 68 69 65 2 5
-0.113472 1.879607 -1.690096 70 70 67 2 5
-0.112379 1.888057 -1.685616 79 78 81 2 5
-0.087096 1.881815 -1.686491 65 65 66 2 5
-0.121390 1.742489 -1.661345 33 33 35 2 5
-0.135247 1.732984 -1.665117 34 32 35 2 5
-0.127313 1.764295 -1.664003 36 36 41 2 5
-0.153535 1.757850 -1.652857 35 34 37 2 5
-0.234802 1.927485 -1.683511 107 103 107 7 6
0.109732 1.996310 -1.685236 66 65 64 2 5
-0.640052 2.132653 -1.695531 138 141 150 2 5
-0.612054 2.140604 -1.696765 140 142 149 2 5
0.203115 1.881757 -1.668181 33 32 34 2 5
0.224215 1.888484 -1.679852 50 49 49 2 5
0.219483 1.864845 -1.656679 36 34 40 2 5
0.208257 1.870546 -1.656852 36 35 39 2 5
0.311197 1.935545 -1.680616 71 70 68 2 5
0.314442 1.946862 -1.672522 70 70 72 2 5
0.299050 1.944139 -1.679782 84 84 88 2 5
0.312484 1.957249 -1.678873 86 86 91 2 5
0.311576 1.921941 -1.684460 63 62 64 2 5
0.296912 1.931439 -1.683511 64 64 66 2 5
0.304418 1.946101 -1.673536 68 68 75 2 5
0.011256 2.223030 -1.699170 129 129 135 2 5
-0.271094 1.805244 -1.456802 172 163 161 0 0
0.020940 1.815598 -1.311452 119 108 104 0 0
0.023649 1.818362 -1.342507 114 105 100 0 0
0.017867 2.179224 -1.696029 121 122 127 2 5
0.033415 2.199150 -1.697670 117 119 125 2 5
0.141030 1.922985 -1.501794 31 31 35 39 3
-0.473583 1.838247 -1.690096 44 42 42 2 5
-0.464774 1.838335 -1.691319 44 40 41 2 5
-0.451184 1.842913 -1.690513 61 60 61 2 5
-0.439848 1.934565 -1.690413 110 109 115 2 5
-0.454824 1.953591 -1.691854 114 113 120 2 5
0.304150 1.778332 -1.644828 79 74 74 0 0
0.322480 1.776744 -1.654901 69 65 66 0 0
0.303507 1.799935 -1.619760 77 73 78 39 3
0.329705 1.796715 -1.626203 94 90 93 39 3
0.312757 1.785543 -1.637619 90 84 85 39 3
0.152072 1.859462 -1.489166 110 109 110 39 3
0.137538 1.832128 -1.467621 42 40 39 39 3
0.150371 1.840435 -1.491681 94 92 92 0 0
0.148606 1.840745 -1.476768 98 92 93 0 0
0.153562 1.843733 -1.465108 97 92 93 39 3
0.154075 1.849844 -1.481194 107 102 104 39 3
0.157417 1.858996 -1.477350 112 107 109 39 3
0.098371 1.890932 -1.535518 30 31 32 39 3
-0.667920 1.760394 -1.566067 116 91 65 6 1
-0.098989 1.776191 -1.591012 141 140 144 0 0
-0.115875 1.785064 -1.581302 143 140 145 0 0
-0.101043 1.792940 -1.574545 145 141 149 0 0
-0.042862 1.748261 -1.624946 46 44 43 0 0
-0.188592 1.793727 -1.324502 203 194 186 0 0
0.240302 1.848747 -1.291803 153 137 128 39 3
0.257193 1.850651 -1.281253 172 153 139 39 3
0.228435 1.847503 -1.289246 156 143 135 39 3
0.255488 1.847999 -1.300052 170 151 137 39 3
-0.077645 1.841928 -1.674030 56 52 48 2 5
-0.069342 1.862221 -1.682309 67 63 59 2 5
-0.524887 1.701479 -1.652313 32 28 26 2 5
-0.507761 1.701764 -1.656499 30 24 22 2 5
-0.385281 1.918335 -1.685706 99 97 100 7 6
-0.409007 1.904319 -1.678792 97 94 98 7 6
-0.394371 1.895599 -1.669914 97 94 98 7 6
-0.382616 1.900258 -1.676766 89 87 90 7 6
0.285129 2.214272 -1.693860 133 136 136 2 5
0.268226 2.221329 -1.691807 140 142 142 2 5
0.277502 2.233596 -1.693392 132 135 136 2 5
0.248929 1.844690 -1.317356 117 104 98 39 3
0.258902 1.847728 -1.321671 106 93 88 39 3
-0.274706 1.975379 -1.690329 138 129 127 2 5
0.264941 1.851399 -1.360862 168 151 137 39 3
0.300416 1.855190 -1.351935 174 155 138 39 3
0.279435 1.849228 -1.340650 176 162 151 39 3
0.023490 1.946599 -1.681713 101 102 102 2 5
0.035469 1.960930 -1.681965 99 98 101 2 5
0.018606 1.932905 -1.677464 98 97 100 2 5
0.007224 1.932072 -1.676826 96 96 98 2 5
0.032861 1.935080 -1.674757 99 98 98 2 5
-0.451843 1.889124 -1.673060 90 91 92 7 6
-0.661780 1.764146 -1.389184 127 94 57 0 0
-0.510314 1.785524 -1.475052 127 96 62 0 0
-0.519765 1.782026 -1.420807 124 95 61 0 0
-0.528512 1.781313 -1.437052 125 97 62 0 0
0.196182 1.760259 -1.649230 46 43 46 0 0
0.179560 1.764802 -1.641607 49 49 52 0 0
-0.393983 1.796852 -1.415302 134 103 66 0 0
-0.575148 1.775477 -1.550014 107 85 59 0 0
-0.572715 1.775896 -1.537713 119 96 68 0 0
-0.585780 1.773180 -1.559018 113 90 60 0 0
-0.604262 1.772179 -1.535302 109 87 57 0 0
0.231735 1.789291 -1.663851 29 28 31 2 5
0.243984 1.810732 -1.661227 29 29 31 2 5
0.256133 1.793984 -1.664999 33 32 36 2 5
0.262953 1.769433 -1.657485 49 46 48 0 0
0.236132 1.768909 -1.656666 32 30 34 0 0
0.260074 1.768570 -1.661076 33 29 31 0 0
0.234130 1.774204 -1.661947 28 28 29 2 5
0.248654 1.774547 -1.664232 28 28 29 2 5
-0.636512 1.766683 -1.322052 130 96 60 0 0
-0.610402 1.769629 -1.305052 126 95 62 0 0
-0.435262 1.734928 -1.668536 36 34 39 2 5
-0.415692 1.745512 -1.667522 36 33 37 2 5
-0.133028 1.798399 -1.344059 199 190 180 0 0
-0.183871 1.763003 -1.617990 32 28 29 39 3
-0.217583 1.777299 -1.615184 92 86 70 39 3
-0.197359 1.772248 -1.617081 52 50 47 39 3
-0.185764 1.772452 -1.599532 58 54 55 0 0
-0.203053 1.779180 -1.600059 39 35 34 0 0
0.286646 1.861308 -1.534909 153 141 141 39 3
0.293389 1.861046 -1.510207 160 150 142 39 3
0.275186 1.858811 -1.512361 164 150 144 39 3
0.098655 2.058421 -1.687732 85 90 109 2 5
0.083270 2.068678 -1.689215 116 116 118 2 5
-0.545467 1.706070 -1.667896 28 26 28 2 5
-0.529674 1.711383 -1.667657 28 27 30 2 5
-0.564532 1.726188 -1.668662 32 32 33 2 5
-0.404738 1.718416 -1.660817 45 38 32 0 0
0.239214 1.845188 -1.319404 106 97 95 39 3
0.203919 1.849041 -1.331446 151 146 142 39 3
0.222253 1.847150 -1.333727 154 147 143 39 3
0.091264 1.825605 -1.317082 65 59 56 0 0
0.099268 1.824066 -1.308658 55 51 48 39 3
0.081248 1.821677 -1.314159 71 64 60 39 3
0.067480 1.820728 -1.308604 69 64 61 0 0
-0.640512 1.767131 -1.335052 129 96 57 0 0
-0.368453 1.798895 -1.498229 141 111 75 0 0
-0.374427 1.799710 -1.522838 129 102 72 0 0
0.241282 1.999675 -1.681724 107 102 105 2 5
0.244999 1.991718 -1.678969 101 104 115 2 5
0.269395 1.989946 -1.678562 101 104 116 2 5
0.240957 2.019827 -1.686119 77 78 89 2 5
0.254454 2.036029 -1.685326 78 78 87 2 5
-0.542768 1.749689 -1.596976 55 44 37 6 1
-0.540493 1.742128 -1.605074 88 70 52 6 1
-0.614396 1.773018 -1.480301 131 98 65 0 0
-0.620144 1.772820 -1.468752 120 92 65 0 0
-0.610449 1.773304 -1.457537 123 95 61 0 0
0.099188 1.828350 -1.410019 54 52 48 39 3
0.060488 1.823566 -1.398802 65 61 59 0 0
-0.032305 1.810362 -1.335927 187 180 174 0 0
0.003473 1.814812 -1.337329 190 180 172 0 0
-0.543777 1.978045 -1.692067 130 129 135 2 5
-0.576912 1.989862 -1.692643 134 133 141 2 5
-0.541636 2.004412 -1.693563 134 133 141 2 5
0.142441 2.154906 -1.695512 68 72 73 2 5
0.140895 2.171492 -1.694831 67 70 74 2 5
-0.506176 1.781496 -1.560896 109 84 60 6 1
-0.484634 1.766441 -1.585232 90 69 54 6 1
-0.481384 1.782499 -1.566061 90 70 53 6 1
-0.345012 1.799755 -1.312927 124 93 55 0 0
-0.325012 1.802606 -1.306302 116 87 51 0 0
-0.336441 1.800387 -1.342746 111 85 49 0 0
-0.024512 1.812036 -1.353052 184 173 164 0 0
-0.214012 1.797627 -1.378551 183 173 167 0 0
-0.206512 1.798008 -1.414302 180 173 167 0 0
0.129694 1.913351 -1.682343 46 46 46 2 5
0.124636 1.907683 -1.673488 43 43 44 2 5
0.104312 1.909424 -1.681688 70 69 70 2 5
0.110022 1.901776 -1.678021 43 44 43 2 5
0.121574 1.908991 -1.683083 55 56 56 2 5
0.128541 1.901856 -1.669544 42 41 43 2 5
0.085363 2.105236 -1.692717 115 115 116 2 5
0.069846 2.091511 -1.693509 125 125 128 2 5
0.100531 2.074372 -1.689807 126 125 129 2 5
0.104341 2.099937 -1.692934 128 125 131 2 5
-0.468093 1.713556 -1.668032 34 33 34 2 5
-0.491810 1.715908 -1.667168 33 31 32 2 5
-0.494073 1.705684 -1.662139 32 31 31 2 5
-0.486252 1.706092 -1.656568 29 30 32 0 0
0.177215 2.122524 -1.693333 66 65 66 2 5
0.172070 2.152394 -1.694752 63 63 64 2 5
0.200400 2.138306 -1.694980 54 53 56 2 5
-0.347208 1.744077 -1.631699 235 222 176 0 0
-0.329429 1.761257 -1.621708 217 206 166 0 0
-0.316904 1.741282 -1.644409 227 213 166 0 0
-0.327802 1.744450 -1.636719 240 226 178 0 0
-0.305917 1.752115 -1.638566 241 227 179 0 0
-0.314326 1.761211 -1.639246 168 159 130 2 5
-0.324223 1.755474 -1.628998 242 231 185 0 0
-0.162337 2.232918 -1.698284 142 143 146 2 5
-0.205333 1.832343 -1.676635 64 61 61 2 5
-0.215872 1.844685 -1.684687 68 64 61 2 5
0.308192 2.062000 -1.680096 129 138 163 2 5
-0.104115 2.063925 -1.693436 134 127 127 2 5
0.130689 1.868247 -1.422080 57 54 53 39 3
0.113310 1.885894 -1.403877 61 56 56 39 3
0.120260 1.874326 -1.414515 55 54 53 39 3
0.128109 1.872343 -1.392272 57 57 55 39 3
0.119887 1.894402 -1.402938 58 57 55 39 3
0.109865 1.888053 -1.422546 58 55 56 39 3
0.121761 1.876167 -1.432947 62 59 59 39 3
0.304978 1.919636 -1.681388 54 53 50 2 5
0.309410 1.891307 -1.670231 47 44 44 2 5
0.311333 1.905261 -1.673892 52 50 49 2 5
-0.263558 2.188748 -1.695343 139 140 146 2 5
-0.261312 2.219523 -1.696800 138 139 145 2 5
0.150973 1.877702 -1.288833 64 61 56 7 6
0.141713 1.883077 -1.290438 72 68 66 7 6
0.156913 1.865212 -1.285460 73 70 63 7 6
0.154294 1.869022 -1.298485 77 72 69 7 6
0.020865 1.816209 -1.327733 152 146 141 0 0
-0.027031 1.808668 -1.321584 130 124 118 0 0
-0.015175 1.810306 -1.314121 129 122 117 0 0
-0.001414 1.811185 -1.315478 132 124 118 0 0
0.154078 1.913700 -1.687289 59 58 60 2 5
-0.560338 2.161925 -1.695564 137 140 150 2 5
-0.537151 2.170910 -1.696547 140 143 151 2 5
-0.592794 1.873628 -1.671926 104 103 106 7 6
-0.576625 1.878834 -1.669044 103 102 105 7 6
0.132999 2.217056 -1.519456 18 18 17 7 6
0.142947 2.213663 -1.499894 23 23 23 7 6
-0.593515 1.884411 -1.676272 105 102 104 7 6
-0.580381 1.892535 -1.681933 105 103 105 7 6
-0.567962 1.881224 -1.675423 106 102 106 7 6
0.137828 2.223605 -1.504326 13 12 12 7 6
0.145201 2.222771 -1.513674 71 66 68 7 6
-0.449389 1.787961 -1.671331 46 45 48 2 5
-0.413413 1.783266 -1.670438 41 40 45 2 5
-0.424134 1.794649 -1.672389 43 41 44 2 5
-0.399680 1.799285 -1.673346 43 42 46 2 5
0.101413 1.895115 -1.511775 40 40 43 39 3
0.084760 1.900210 -1.517745 39 39 43 39 3
0.091475 1.895074 -1.521471 31 31 35 39 3
0.098435 1.905218 -1.519894 36 35 40 39 3
0.082704 1.916914 -1.506706 28 28 32 39 3
0.100893 1.902332 -1.505933 41 43 48 39 3
0.102179 1.914434 -1.504133 42 43 48 39 3
0.092235 1.916892 -1.525185 28 29 32 39 3
0.085454 1.919507 -1.511511 29 28 32 39 3
0.098078 1.922069 -1.517591 14 13 13 39 3
-0.337096 2.159934 -1.694613 143 144 149 2 5
-0.564966 1.749032 -1.595649 93 74 52 6 1
0.221259 2.214062 -1.688460 122 125 126 2 5
0.214741 2.193532 -1.692003 124 125 127 2 5
-0.280263 1.774663 -1.612346 117 100 74 0 0
-0.264408 1.790416 -1.580363 139 119 88 0 0
-0.267199 1.769639 -1.618903 198 175 129 0 0
-0.257468 1.773998 -1.612480 213 192 148 39 3
-0.412563 1.843239 -1.692852 59 56 57 2 5
-0.392818 1.847260 -1.699298 67 66 65 2 5
-0.397562 1.837235 -1.688145 68 66 65 2 5
-0.382549 1.849018 -1.692389 59 56 54 2 5
0.317036 2.009166 -1.680713 126 137 162 2 5
0.313490 1.996438 -1.680327 107 114 129 2 5
0.285964 2.013539 -1.681498 109 107 105 2 5
-0.547387 1.777985 -1.287426 117 87 45 0 0
-0.208413 2.051419 -1.693392 139 133 133 2 5
-0.181850 2.040457 -1.693348 141 134 134 2 5
-0.200592 2.018061 -1.692900 140 134 135 2 5
0.117574 1.973262 -1.483174 25 24 25 39 3
0.111999 1.977126 -1.486891 24 24 25 39 3
0.124241 1.963785 -1.488473 30 30 31 39 3
0.110549 1.979228 -1.474684 31 31 32 39 3
0.116977 1.961520 -1.477947 34 33 37 39 3
0.114301 1.969264 -1.475121 26 26 27 39 3
0.104010 1.968851 -1.486076 21 21 24 39 3
-0.184662 1.765403 -1.631706 31 29 30 39 3
-0.208762 1.773360 -1.632529 40 39 38 39 3
-0.178991 1.764726 -1.649621 33 32 37 39 3
-0.205214 1.773206 -1.648844 47 42 36 39 3
-0.082344 1.945139 -1.683463 105 102 104 2 5
-0.086329 1.932789 -1.683397 103 102 104 2 5
-0.066778 1.935238 -1.682149 105 104 106 2 5
-0.062415 1.929196 -1.678678 101 101 103 2 5
0.136454 2.080069 -1.689696 71 70 74 2 5
0.145608 2.098478 -1.691778 67 67 68 2 5
0.155488 2.118780 -1.692802 83 83 85 2 5
-0.110681 1.954223 -1.687026 141 135 135 2 5
-0.130158 1.987258 -1.689142 135 125 124 2 5
0.315641 2.163015 -1.687564 180 205 234 2 5
0.199921 1.957948 -1.671737 32 32 37 2 5
0.229788 1.954044 -1.673980 34 33 39 2 5
-0.151896 1.796415 -1.367427 180 171 162 0 0
-0.148588 1.797349 -1.397802 180 174 165 0 0
-0.586297 1.747969 -1.669236 36 34 38 2 5
-0.628074 1.731868 -1.670881 36 33 37 2 5
-0.633095 1.749776 -1.671282 36 34 36 2 5
-0.594608 1.733032 -1.670097 36 34 35 2 5
-0.600822 1.761354 -1.670300 35 33 37 2 5
-0.428615 1.892834 -1.676381 92 91 93 7 6
-0.438334 1.891062 -1.673962 95 95 97 7 6
0.143235 2.219876 -1.695371 54 56 57 2 5
0.171489 2.226608 -1.692069 50 49 54 2 5
-0.159341 2.006687 -1.692924 135 126 126 2 5
-0.191738 2.008696 -1.692715 138 131 130 2 5
0.041650 1.817319 -1.310941 95 86 81 0 0
0.070894 1.821536 -1.318204 102 95 90 0 0
0.210243 1.851507 -1.389199 145 137 134 39 3
0.226849 1.852058 -1.392220 148 138 132 39 3
0.208672 1.849854 -1.377994 140 132 126 39 3
-0.588942 1.903019 -1.687703 119 118 124 7 6
-0.573187 1.915265 -1.688935 118 117 124 2 5
0.008023 1.821940 -1.539002 141 137 137 0 0
0.011474 1.818562 -1.557824 147 142 143 39 3
-0.042512 1.811552 -1.419052 176 169 162 0 0
-0.057484 1.809537 -1.407677 177 168 160 0 0
-0.012950 1.815685 -1.419240 180 170 164 0 0
-0.184217 1.785382 -1.669499 44 43 47 2 5
-0.179528 1.780022 -1.668386 41 42 45 39 3
-0.185491 1.773837 -1.663572 35 34 39 2 5
-0.148088 1.925369 -1.684222 103 103 105 2 5
-0.122420 1.939553 -1.684288 103 101 104 2 5
-0.596388 2.082068 -1.694142 134 135 143 2 5
-0.556156 2.083217 -1.693803 138 138 143 2 5
-0.600662 2.105215 -1.695538 134 134 144 2 5
0.297559 1.852805 -1.663048 37 36 40 2 5
0.308704 1.825324 -1.665294 38 37 43 2 5
0.332035 1.851768 -1.312869 150 133 121 39 3
0.320695 1.851203 -1.316885 151 135 121 39 3
-0.276103 1.912580 -1.680220 107 105 106 7 6
-0.261828 1.913214 -1.680976 108 106 108 7 6
-0.253736 1.923658 -1.681941 111 105 105 7 6
-0.261603 1.907643 -1.677594 99 98 103 7 6
-0.651803 1.766978 -1.539486 113 89 61 0 0
-0.642666 1.767190 -1.553558 111 89 60 0 0
-0.050324 1.830302 -1.669726 42 43 46 2 5
-0.040174 1.842711 -1.672003 40 37 43 2 5
-0.030050 1.848150 -1.673136 49 45 46 2 5
0.070783 1.816457 -1.572669 63 61 66 0 0
0.052199 1.811025 -1.577205 100 98 99 0 0
0.076902 1.828375 -1.421111 98 95 90 0 0
0.050488 1.822960 -1.416052 110 102 98 0 0
0.162875 1.858253 -1.518082 96 99 108 39 3
0.142173 1.836474 -1.505525 46 44 39 0 0
0.148579 1.842824 -1.503007 50 51 54 0 0
0.146986 1.855794 -1.511018 79 78 82 39 3
0.152573 1.857315 -1.503437 96 95 101 39 3
-0.164251 1.870190 -1.690494 90 89 87 2 5
-0.163137 1.883456 -1.691249 45 43 42 2 5
-0.545702 1.818727 -1.685915 53 49 49 2 5
-0.058877 1.807287 -1.668308 43 43 50 2 5
-0.065602 2.057501 -1.692019 141 132 132 2 5
-0.043177 2.071708 -1.693196 142 135 134 2 5
-0.022165 2.082733 -1.693390 142 136 133 2 5
-0.270898 1.800414 -1.271378 119 107 101 0 0
0.203385 1.789065 -1.615720 73 70 71 0 0
-0.460792 1.895049 -1.677197 96 94 98 7 6
-0.481938 1.901532 -1.680765 103 99 99 7 6
-0.446665 1.902836 -1.678750 97 96 98 7 6
-0.654985 2.225981 -1.694897 150 149 155 2 5
-0.637290 2.234696 -1.696990 176 170 173 2 5
-0.643720 2.247593 -1.698878 176 170 173 2 5
-0.289536 2.038184 -1.693192 150 143 139 2 5
-0.273512 1.803171 -1.411052 159 149 145 0 0
-0.262512 1.802333 -1.414052 168 159 153 0 0
-0.232881 1.940549 -1.687775 133 126 127 7 6
0.141855 1.869512 -1.443125 90 86 86 39 3
0.140953 1.876033 -1.452178 78 77 77 39 3
0.146072 1.880391 -1.434649 61 58 60 39 3
0.146231 1.869617 -1.435533 103 99 98 39 3
-0.428016 1.966192 -1.692580 119 118 123 2 5
-0.405772 1.979629 -1.691900 123 122 126 2 5
-0.009734 1.744118 -1.668123 35 33 37 2 5
0.019633 1.747345 -1.668536 34 32 35 2 5
0.038076 1.738045 -1.660987 59 55 57 2 5
0.026113 1.769029 -1.668421 35 35 37 2 5
0.025285 1.739410 -1.665606 43 39 43 2 5
0.015800 1.732222 -1.656106 69 67 70 2 5
-0.138389 2.060716 -1.694054 143 137 135 2 5
-0.030510 1.855076 -0.771735 241 235 230 7 6
-0.049000 1.881304 -0.774340 240 235 229 7 6
-0.019450 1.885088 -0.774280 240 235 230 7 6
0.169864 1.854942 -1.182791 85 79 72 7 6
-0.469008 2.098903 -0.770280 238 234 229 7 6
-0.437855 2.095676 -0.770490 240 234 230 7 6
-0.480369 2.117613 -0.769480 238 234 229 7 6
-0.067383 1.873637 -0.774441 240 236 229 7 6
-0.083132 1.885430 -0.775041 241 236 230 7 6
0.260880 1.776387 -1.225019 181 161 149 39 3
0.283921 1.730466 -1.225288 180 159 150 39 3
0.291514 1.750217 -1.223768 180 159 150 39 3
-0.474877 1.774417 -0.808702 89 79 61 7 6
-0.484113 1.780320 -0.814530 61 56 52 7 6
-0.481783 1.763865 -0.813816 74 64 55 7 6
-0.473717 1.769206 -0.814829 85 74 63 7 6
-0.508318 1.773935 -0.811394 79 71 59 7 6
-0.493900 1.773583 -0.812850 72 64 53 7 6
0.174709 1.404532 -1.203135 175 153 136 39 3
-0.615549 1.438103 -1.202581 169 138 99 6 1
-0.172507 1.314687 -1.016512 150 135 113 6 1
-0.177271 1.306633 -1.020789 163 134 94 0 0
0.150301 1.678102 -1.216885 81 73 65 39 3
0.155755 1.690654 -1.218076 79 74 65 39 3
0.141467 1.703152 -1.220729 96 89 80 39 3
0.133076 1.676957 -1.220567 85 77 70 39 3
-0.011787 2.114188 -0.772966 243 240 235 7 6
-0.297002 1.460896 -1.035480 163 139 105 6 1
-0.298842 1.473626 -1.026030 159 136 103 6 1
-0.293765 1.458062 -1.019480 187 163 127 6 1
-0.293895 1.472594 -1.014441 185 161 125 6 1
-0.511867 1.574168 -1.156320 126 101 72 6 1
-0.319684 1.571647 -1.214226 84 66 39 6 1
-0.312827 1.553120 -1.214106 100 82 59 6 1
0.131844 1.550385 -1.224754 158 132 113 39 3
0.141827 1.566762 -1.223207 162 136 114 39 3
0.150373 1.568230 -1.224916 162 136 114 39 3
0.165950 1.551595 -1.223621 151 128 106 39 3
0.145475 1.552971 -1.219167 156 132 110 39 3
0.104937 1.380992 -1.198632 183 162 140 39 3
0.095416 1.395955 -1.201557 183 161 137 39 3
0.077024 1.384946 -1.205801 185 164 140 39 3
0.080894 1.395470 -1.204323 185 163 139 39 3
-0.628325 1.639430 -0.929959 147 121 90 6 1
-0.442526 1.498087 -1.209888 166 135 96 6 1
-0.410718 1.498977 -1.211411 165 137 100 6 1
-0.428396 1.484321 -1.211003 164 134 93 6 1
-0.307872 1.528102 -1.211651 114 91 69 6 1
-0.308203 1.553686 -1.208796 110 91 67 6 1
0.164588 1.871362 -0.763471 168 157 141 7 6
0.137682 1.881516 -0.768651 211 211 206 7 6
0.149602 1.860455 -0.770324 195 189 186 7 6
0.157021 1.874449 -0.767920 182 177 173 7 6
0.303525 1.886651 -0.774227 238 232 226 7 6
0.314302 1.862798 -0.763775 149 144 138 7 6
0.311919 1.878690 -0.770899 229 219 214 7 6
0.321601 1.876188 -0.767009 227 216 209 7 6
0.299335 1.886296 -0.769539 157 148 139 7 6
0.308782 1.877355 -0.764765 158 138 115 7 6
0.292419 1.871074 -0.762315 212 196 180 7 6
0.135967 1.284643 -1.207621 143 140 133 39 3
0.096113 1.273404 -1.207855 147 144 135 39 3
0.166125 1.805990 -1.226668 71 65 57 39 3
-0.543311 1.319481 -1.195500 175 147 108 6 1
-0.280250 1.260334 -1.017461 174 149 114 6 1
-0.559494 1.603256 -1.011783 122 99 69 6 1
-0.540424 1.612134 -0.999612 125 101 71 6 1
-0.561726 1.608189 -0.995714 121 97 69 6 1
-0.547169 1.615526 -0.987642 124 100 71 6 1
-0.538273 1.625353 -0.978288 125 99 71 6 1
0.135423 1.840647 -0.828711 37 31 29 7 6
0.172782 1.561797 -1.212881 148 124 101 39 3
0.174517 1.551414 -1.216067 145 121 99 39 3
0.192609 1.557070 -1.216534 127 107 86 39 3
0.184181 1.566340 -1.217265 138 114 91 39 3
-0.008568 1.914782 -0.775487 239 235 228 7 6
0.216942 1.654542 -1.221985 105 97 89 39 3
0.229289 1.662248 -1.222304 152 138 127 39 3
0.232552 1.668624 -1.224190 152 138 127 39 3
0.227695 1.637703 -1.223442 136 122 112 39 3
0.225757 1.645680 -1.213624 139 122 114 39 3
0.217920 1.645096 -1.221384 121 102 85 39 3
0.232235 1.642461 -1.220495 159 143 132 39 3
0.228371 1.656709 -1.219609 135 123 114 39 3
0.207088 1.634840 -1.215857 72 66 59 39 3
0.218582 1.647874 -1.211420 79 72 66 39 3
0.209508 1.679163 -1.220769 74 67 62 39 3
0.224740 1.648193 -1.227373 138 123 116 39 3
0.236703 1.646097 -1.225971 142 123 107 39 3
-0.254258 1.785046 -0.785694 240 235 226 7 6
-0.274039 1.787392 -0.785082 229 221 220 7 6
-0.275873 1.792946 -0.777815 210 205 203 7 6
0.196333 1.389642 -1.205500 171 152 135 39 3
0.170552 1.834770 -1.235398 79 73 69 39 3
0.158687 1.853701 -1.218678 69 63 60 7 6
0.165057 1.853512 -1.232743 80 75 69 7 6
0.158098 1.852604 -1.207636 94 84 76 7 6
0.147147 1.858969 -1.199079 84 76 70 7 6
0.170183 1.851649 -1.214893 97 85 78 7 6
0.007370 1.272116 -1.204386 139 131 120 39 3
-0.127372 1.739642 -1.224548 163 129 92 39 3
-0.128166 1.754752 -1.226074 162 130 96 39 3
-0.141980 1.745426 -1.223924 159 127 89 39 3
-0.299061 1.801456 -1.100022 106 75 41 0 0
-0.284544 1.805729 -1.120209 106 78 41 0 0
-0.290348 1.797882 -1.084347 104 74 42 0 0
-0.489207 1.701848 -0.878249 59 53 46 6 1
-0.656059 1.640630 -0.920773 140 114 83 6 1
-0.657095 1.626020 -0.943826 133 109 79 6 1
-0.660979 1.632749 -0.935417 133 109 78 6 1
-0.179240 1.358237 -1.217680 129 102 74 39 3
-0.157866 1.364877 -1.208426 149 125 98 39 3
-0.335628 1.445544 -1.216021 139 110 80 6 1
-0.313458 1.463279 -1.220829 163 140 109 6 1
-0.419405 1.803391 -0.804329 66 61 58 7 6
-0.410216 1.805968 -0.800827 67 63 57 7 6
-0.588242 1.634063 -0.941197 133 107 79 6 1
-0.578187 1.629886 -0.946814 134 108 78 6 1
-0.609167 1.639533 -0.931908 133 108 78 6 1
-0.488453 1.697431 -0.894923 175 156 134 6 1
-0.482114 1.710758 -0.887529 112 92 81 6 1
-0.433775 1.791028 -1.215898 121 87 49 0 0
-0.659784 1.354824 -1.197888 176 146 108 6 1
0.053037 1.307024 -1.202247 141 134 122 39 3
-0.335471 1.605827 -1.095562 115 90 59 6 1
-0.327907 1.605731 -1.090070 106 84 56 6 1
0.043710 1.415055 -1.205965 170 148 121 39 3
-0.664624 1.800088 -0.771926 237 233 228 7 6
0.097187 1.830798 -0.787190 226 221 216 7 6
0.100390 1.847770 -0.777387 196 188 187 7 6
0.075693 1.845036 -0.774634 194 191 186 7 6
0.091160 1.838130 -0.779897 220 216 210 7 6
0.084024 1.850403 -0.771114 224 207 196 7 6
0.083367 1.858384 -0.758972 181 177 177 7 6
0.140873 1.827551 -0.819015 41 36 33 7 6
0.162921 1.823090 -0.804258 46 38 34 7 6
0.218675 1.837180 -0.789157 238 232 223 7 6
0.233762 1.842324 -0.786307 238 232 223 7 6
0.219067 1.846791 -0.779819 231 225 217 7 6
0.206781 1.848465 -0.778793 122 115 101 7 6
0.207857 1.839600 -0.787877 219 214 208 7 6
0.216577 1.853097 -0.768232 158 144 123 7 6
-0.071574 1.963717 -0.774281 241 236 232 7 6
-0.141613 1.433836 -1.214740 167 138 99 39 3
-0.148759 1.437806 -1.221575 155 127 88 39 3
-0.129150 1.430403 -1.218421 161 132 97 39 3
-0.135619 1.417824 -1.205521 168 138 96 39 3
-0.139404 1.428766 -1.208091 168 138 96 39 3
-0.122134 1.429192 -1.210104 141 114 84 39 3
-0.147721 1.426772 -1.207263 165 134 90 39 3
-0.145758 1.444443 -1.211123 165 134 90 39 3
-0.120899 1.441534 -1.206042 166 138 96 39 3
-0.279834 1.803946 -1.254004 108 91 77 0 0
-0.267973 1.800119 -1.254582 130 113 98 0 0
-0.244570 1.645454 -1.242007 108 79 48 39 3
-0.239960 1.646538 -1.239841 108 78 47 39 3
-0.244449 1.675123 -1.237120 116 85 51 39 3
-0.191948 1.307728 -1.006233 152 143 131 6 1
-0.202730 1.291862 -1.001312 164 147 128 6 1
-0.206556 1.321013 -1.000546 169 149 125 6 1
0.296012 1.863732 -0.766837 176 155 135 7 6
0.276485 1.861559 -0.759417 214 203 195 7 6
0.289846 1.864200 -0.760980 208 193 178 7 6
0.290668 1.884008 -0.774188 238 232 224 7 6
0.287892 1.879583 -0.768249 177 165 151 7 6
0.299878 1.894241 -0.765437 163 158 150 7 6
0.270424 1.883849 -0.761229 172 168 163 7 6
0.277817 1.885697 -0.768367 136 132 126 7 6
0.266138 1.864675 -0.761227 139 114 88 7 6
0.097845 1.773978 -1.224776 99 89 81 39 3
0.105654 1.780788 -1.224534 95 84 76 39 3
0.088197 1.795860 -1.228739 125 109 99 39 3
0.076340 1.774601 -1.226283 91 78 72 39 3
-0.489522 1.713237 -0.813155 92 79 64 7 6
-0.480206 1.725483 -0.819637 86 75 60 7 6
-0.481843 1.724603 -0.810280 100 85 69 7 6
-0.495596 1.734549 -0.811339 89 78 65 7 6
-0.491072 1.703652 -0.821065 57 53 44 7 6
-0.502199 1.723004 -0.817557 83 73 61 7 6
-0.503360 1.740584 -0.817047 85 74 62 7 6
0.118984 2.019038 -0.776098 240 235 231 7 6
0.087278 1.998651 -0.775485 243 238 233 7 6
0.134612 1.892393 -1.130200 74 66 60 7 6
0.157010 1.897399 -1.130605 143 131 119 7 6
0.141609 1.895864 -1.131597 72 64 58 7 6
0.146643 1.897618 -1.114354 81 73 66 7 6
0.148510 1.902782 -1.125076 83 76 69 7 6
0.140363 1.898216 -1.143149 86 78 71 7 6
0.153135 1.899457 -1.115301 101 94 86 7 6
-0.303004 1.490759 -1.087372 121 103 78 6 1
-0.304419 1.498575 -1.111380 123 104 79 6 1
-0.300226 1.486665 -1.106749 119 101 77 6 1
-0.306062 1.506019 -1.090755 124 105 79 6 1
-0.521535 1.557345 -1.208694 91 65 40 6 1
0.171811 1.869717 -1.130968 135 124 115 7 6
0.173367 1.866070 -1.118092 138 130 124 7 6
0.050350 1.671996 -1.221848 187 165 151 39 3
0.078669 1.667707 -1.223824 163 142 133 39 3
0.041930 1.695023 -1.224226 186 164 150 39 3
0.256488 1.436279 -1.204564 157 135 120 39 3
0.295984 1.437715 -1.208722 153 132 118 39 3
-0.200664 1.996768 -0.773100 243 237 231 7 6
-0.263678 1.842948 -0.773146 242 237 229 7 6
-0.016339 1.507275 -1.215521 80 68 55 39 3
0.002680 1.492893 -1.216207 81 68 56 39 3
-0.007176 1.515521 -1.215618 81 67 55 39 3
0.181121 1.786857 -1.223354 98 87 77 39 3
0.194132 1.775932 -1.224427 84 77 68 39 3
0.271226 2.162526 -0.773538 244 239 234 7 6
-0.640908 1.586807 -1.015377 120 96 67 6 1
-0.648149 1.599489 -0.996569 122 97 69 6 1
-0.666804 1.602657 -0.985420 123 98 70 6 1
-0.479440 1.776425 -1.095348 113 78 40 0 0
-0.488883 1.773467 -1.086709 103 71 36 0 0
-0.471446 1.776315 -1.085334 103 73 39 0 0
-0.507360 1.773520 -1.100836 111 79 42 0 0
-0.495318 1.771564 -1.094149 112 77 40 0 0
-0.200481 1.369380 -1.158463 124 95 59 0 0
-0.198489 1.378246 -1.167582 113 88 56 0 0
-0.196061 1.361725 -1.159155 130 101 64 0 0
-0.202971 1.360576 -1.156160 127 98 59 0 0
-0.203899 1.356785 -1.170233 126 101 67 0 0
-0.196284 1.347342 -1.146163 138 108 66 0 0
-0.202940 1.351729 -1.143600 129 99 59 0 0
-0.200694 1.364620 -1.145228 141 110 68 0 0
-0.201208 1.363369 -1.163275 124 98 65 0 0
-0.203788 1.375824 -1.168431 112 84 50 0 0
-0.449014 1.510057 -1.211280 149 121 85 6 1
-0.458125 1.529382 -1.212068 144 117 81 6 1
-0.054315 1.280223 -1.204728 144 127 112 39 3
-0.066092 1.282019 -1.205588 145 129 113 39 3
-0.573319 2.001512 -0.770858 240 237 232 7 6
-0.540364 1.697481 -0.816982 62 56 47 7 6
-0.292150 1.466924 -1.184666 116 98 74 6 1
-0.604512 1.770638 -1.279052 124 91 51 0 0
0.022330 1.415292 -1.221909 156 134 118 39 3
0.024592 1.420170 -1.223267 155 133 117 39 3
0.033425 1.413770 -1.224288 165 145 123 39 3
0.019078 1.431877 -1.216802 155 134 111 39 3
0.023176 1.433270 -1.218824 155 134 111 39 3
0.018381 1.444563 -1.213727 127 108 94 39 3
0.021668 1.418915 -1.216779 147 125 110 39 3
0.031338 1.413292 -1.215953 165 145 122 39 3
0.031855 1.429351 -1.211308 172 149 122 39 3
0.028329 1.433101 -1.207741 177 153 124 39 3
0.026179 1.442108 -1.222059 126 109 95 39 3
0.015688 1.442089 -1.217425 125 106 92 39 3
0.010698 1.421899 -1.205353 186 162 131 39 3
0.016292 1.436351 -1.209208 170 146 117 39 3
0.019177 1.576963 -1.222490 170 145 124 39 3
0.045241 1.567312 -1.224859 172 145 119 39 3
0.041637 1.554362 -1.229025 172 145 123 39 3
-0.333043 1.815308 -0.770056 233 231 224 7 6
-0.338971 1.833515 -0.772503 236 232 228 7 6
-0.323755 1.808396 -0.789206 237 232 226 7 6
-0.328599 1.800073 -0.772211 127 120 117 7 6
-0.316645 1.815235 -0.769109 126 121 118 7 6
0.206078 1.755444 -1.226803 175 155 143 39 3
0.226431 1.751111 -1.227461 178 159 147 39 3
0.239646 1.753482 -1.226357 179 157 145 39 3
0.195990 1.740279 -1.223720 139 125 115 39 3
0.060863 1.879490 -0.774425 241 236 232 7 6
0.086795 1.895051 -0.776679 246 240 234 7 6
0.092232 1.880868 -0.773733 134 132 131 7 6
0.070983 1.856016 -0.763794 200 192 188 7 6
0.093052 1.867019 -0.763461 204 196 193 7 6
0.083642 1.872873 -0.762495 123 118 106 7 6
0.101633 1.861457 -0.769737 182 177 172 7 6
0.075297 1.872691 -0.768672 224 220 215 7 6
0.066784 1.559387 -1.227376 179 154 137 39 3
0.072882 1.544364 -1.228889 181 157 141 39 3
-0.448408 1.569778 -1.210299 96 72 48 6 1
-0.432763 1.564898 -1.212375 146 115 77 6 1
-0.425984 1.573996 -1.209955 115 88 55 6 1
-0.407086 1.572007 -1.210390 85 61 30 6 1
-0.199762 1.944654 -0.774069 243 237 231 7 6
-0.036375 1.817058 -0.814140 40 36 34 7 6
-0.039602 1.825392 -0.810397 50 44 42 7 6
-0.031783 1.817246 -0.789586 193 185 178 7 6
-0.026412 1.826784 -0.792312 218 212 207 7 6
-0.028348 1.814091 -0.809019 52 47 43 7 6
-0.036655 1.824486 -0.807013 74 65 58 7 6
-0.045784 1.826636 -0.795837 140 130 119 7 6
-0.036681 1.811534 -0.805463 70 62 54 7 6
-0.032518 1.828945 -0.798143 63 56 50 7 6
-0.024845 1.829641 -0.797259 60 53 47 7 6
-0.616286 1.575834 -1.063447 109 86 60 6 1
-0.626346 1.579145 -1.040907 114 89 62 6 1
-0.610000 1.581958 -1.050756 113 89 63 6 1
-0.280315 1.322248 -1.180135 131 114 89 6 1
-0.413013 2.174579 -0.769365 241 236 230 7 6
-0.430473 2.212157 -0.768768 238 235 229 7 6
-0.552320 1.780669 -0.814729 70 64 52 7 6
-0.569927 1.789289 -0.803852 125 116 99 7 6
-0.560312 1.790509 -0.818792 69 63 55 7 6
-0.550677 1.800012 -0.820425 57 52 49 7 6
-0.559681 1.794381 -0.810526 105 96 83 7 6
-0.559509 1.778599 -0.815966 55 49 43 7 6
-0.412279 2.235947 -0.798195 228 215 203 7 6
-0.437354 2.232870 -0.806856 74 67 65 7 6
-0.436851 2.232684 -0.786459 225 213 201 7 6
-0.233092 1.650607 -1.238327 124 95 61 39 3
-0.237626 1.672219 -1.235749 133 101 64 39 3
-0.368286 1.563391 -1.213310 150 118 84 6 1
-0.333051 1.579258 -1.213717 119 92 59 6 1
-0.361197 1.579711 -1.204386 95 75 49 6 1
-0.069647 1.539742 -1.227148 163 136 109 39 3
-0.068432 1.529219 -1.230927 158 131 104 39 3
-0.068850 1.513179 -1.228523 157 129 103 39 3
-0.056399 1.514034 -1.229941 140 115 92 39 3
-0.085441 1.519331 -1.229386 153 125 98 39 3
-0.243953 1.528809 -1.201017 42 30 18 0 0
-0.245761 1.517602 -1.176126 78 54 34 0 0
-0.247538 1.507383 -1.197138 65 45 27 0 0
-0.246172 1.526692 -1.185871 44 31 18 0 0
-0.473362 1.602788 -1.047750 136 107 72 6 1
-0.458268 1.605545 -1.043969 127 103 71 6 1
-0.466773 1.614599 -1.018489 144 116 81 6 1
-0.462192 1.613812 -1.027236 154 124 89 6 1
-0.454105 1.612010 -1.031933 144 115 81 6 1
0.280721 2.094715 -0.774599 242 238 232 7 6
-0.343824 1.899155 -0.772651 238 232 227 7 6
-0.235192 1.382506 -1.090970 91 67 42 0 0
-0.234369 1.400227 -1.097826 90 65 41 0 0
-0.237411 1.412037 -1.098333 93 68 42 0 0
-0.405136 1.632127 -0.993918 141 111 76 6 1
-0.400162 1.624332 -1.006721 138 107 74 6 1
-0.374702 1.631437 -1.001773 158 124 87 6 1
-0.449314 1.787218 -1.182657 119 91 55 0 0
-0.487887 1.784824 -1.279552 121 89 51 0 0
-0.626039 1.378736 -1.198524 173 143 105 6 1
-0.629808 1.395226 -1.201365 171 141 103 6 1
-0.619897 1.408120 -1.201966 170 140 101 6 1
-0.446453 1.957712 -0.771929 237 231 227 7 6
-0.457773 1.924884 -0.772225 238 233 228 7 6
0.151977 1.261417 -1.208853 151 149 141 39 3
-0.150232 2.091597 -0.772653 242 237 233 7 6
0.180051 1.723403 -1.223619 86 78 70 39 3
