ply
format ascii 1.0
element vertex 1146
property float x
property float y
property float z
property uchar red
property uchar green
property uchar blue
property uchar semantic_label
property uchar instance_label
end_header
0.526181 -0.017143 0.054510 0 255 0 46 11
0.565238 -0.027793 0.005392 0 255 0 46 11
0.564488 -0.030984 -0.018608 0 255 0 46 11
0.413695 -0.006899 0.032392 0 255 0 46 11
0.354117 0.053617 0.026392 0 255 0 46 11
0.550176 -0.027712 -0.009608 0 255 0 46 11
0.511839 0.008689 0.068959 0 255 0 46 11
0.464072 0.005119 0.059392 0 255 0 46 11
0.515484 0.028481 0.070329 0 255 0 46 11
0.537441 -0.044411 0.023392 0 255 0 46 11
0.578576 0.033528 -0.015608 0 255 0 46 11
0.544218 -0.049517 -0.000608 0 255 0 46 11
0.565866 0.020566 0.028996 0 255 0 46 11
0.574590 0.012205 -0.006608 0 255 0 46 11
0.433696 -0.045161 0.017392 0 255 0 46 11
0.406805 -0.006073 0.021488 0 255 0 46 11
0.358897 -0.004845 -0.009608 0 255 0 46 11
0.551457 0.016399 0.036958 0 255 0 46 11
0.569624 0.017735 0.014392 0 255 0 46 11
0.345171 0.066667 0.028408 0 255 0 46 11
0.480583 -0.047744 0.041392 0 255 0 46 11
0.419375 -0.019301 0.012991 0 255 0 46 11
0.504781 0.024247 0.071392 0 255 0 46 11
0.339913 0.019810 -0.006608 0 255 0 46 11
0.351109 0.039654 0.022109 0 255 0 46 11
0.447082 0.027436 0.054991 0 255 0 46 11
0.445412 0.085040 0.036329 0 255 0 46 11
0.432672 0.023269 0.048977 0 255 0 46 11
0.368573 0.067814 0.022075 0 255 0 46 11
0.390136 0.051565 0.018949 0 255 0 46 11
0.553349 -0.041373 -0.006608 0 255 0 46 11
0.388429 -0.005533 -0.006608 0 255 0 46 11
0.562417 0.000627 0.029392 0 255 0 46 11
0.427222 0.001081 0.049851 0 255 0 46 11
0.539999 -0.008775 0.033905 0 255 0 46 11
0.496657 0.063314 0.065392 0 255 0 46 11
0.536375 -0.036095 0.005392 0 255 0 46 11
0.548473 -0.015161 0.023392 0 255 0 46 11
0.520209 -0.005130 0.048931 0 255 0 46 11
0.492536 -0.036867 0.030905 0 255 0 46 11
0.531665 -0.017520 0.035392 0 255 0 46 11
0.505363 -0.061559 0.014392 0 255 0 46 11
0.487777 -0.018257 0.064901 0 255 0 46 11
0.555025 -0.031367 0.014392 0 255 0 46 11
0.553294 -0.003768 0.041392 0 255 0 46 11
0.522047 0.012266 0.054898 0 255 0 46 11
0.384096 0.033579 0.025625 0 255 0 46 11
0.440530 -0.041077 -0.006608 0 255 0 46 11
0.486075 -0.060396 0.023392 0 255 0 46 11
0.347614 0.087365 0.020392 0 255 0 46 11
0.384822 0.089377 0.022093 0 255 0 46 11
0.569157 0.004994 0.002392 0 255 0 46 11
0.529099 -0.053150 -0.025767 0 255 0 46 11
0.533050 -0.027967 0.023392 0 255 0 46 11
0.364928 0.048023 0.026362 0 255 0 46 11
0.573620 -0.007815 -0.000608 0 255 0 46 11
0.541873 0.023621 0.055106 0 255 0 46 11
0.494863 -0.068673 -0.022197 0 255 0 46 11
0.514429 -0.032737 0.029392 0 255 0 46 11
0.424235 0.007088 0.036977 0 255 0 46 11
0.356654 0.066952 0.029392 0 255 0 46 11
0.343020 0.073784 0.020392 0 255 0 46 11
0.460280 -0.064716 0.002392 0 255 0 46 11
0.438577 -0.018744 0.049198 0 255 0 46 11
0.507320 0.047555 0.068392 0 255 0 46 11
0.481863 -0.065985 0.008392 0 255 0 46 11
0.535833 0.005635 0.059432 0 255 0 46 11
0.384720 0.044378 0.027527 0 255 0 46 11
0.360567 0.102055 0.023392 0 255 0 46 11
0.568577 0.039118 0.020392 0 255 0 46 11
0.361249 0.013231 -0.001949 0 255 0 46 11
0.357014 -0.002359 -0.019995 0 255 0 46 11
0.487256 0.015945 0.073542 0 255 0 46 11
0.563528 -0.015235 -0.015608 0 255 0 46 11
0.467995 -0.064450 0.011392 0 255 0 46 11
0.492536 -0.036867 0.052596 0 255 0 46 11
0.462598 -0.041702 0.044392 0 255 0 46 11
0.456699 0.035214 0.061021 0 255 0 46 11
0.529031 -0.034317 0.041392 0 255 0 46 11
0.472324 0.045979 0.063924 0 255 0 46 11
0.407532 0.049726 0.029683 0 255 0 46 11
0.398641 0.097746 0.022218 0 255 0 46 11
0.395724 0.002278 0.014392 0 255 0 46 11
0.577056 -0.002891 -0.018608 0 255 0 46 11
0.457961 -0.002991 0.065392 0 255 0 46 11
0.510798 -0.052512 -0.015608 0 255 0 46 11
0.381870 0.110385 0.023757 0 255 0 46 11
0.445373 0.002429 0.062392 0 255 0 46 11
0.446628 -0.023016 0.032392 0 255 0 46 11
0.419545 0.055698 0.033845 0 255 0 46 11
0.440450 0.013651 0.048953 0 255 0 46 11
0.369118 0.041109 0.014392 0 255 0 46 11
0.388228 0.004170 -0.002101 0 255 0 46 11
0.364053 0.116650 0.023392 0 255 0 46 11
0.537739 0.053030 0.049595 0 255 0 46 11
0.407709 0.023299 0.029392 0 255 0 46 11
0.424379 -0.017646 0.023392 0 255 0 46 11
0.520983 0.043120 0.059392 0 255 0 46 11
0.510630 -0.067689 -0.015608 0 255 0 46 11
0.575450 0.013344 -0.017094 0 255 0 46 11
0.373989 0.075002 0.030123 0 255 0 46 11
0.399095 0.033545 0.015914 0 255 0 46 11
0.477048 0.012368 0.072706 0 255 0 46 11
0.508160 -0.026103 0.056991 0 255 0 46 11
0.492645 -0.055732 0.032392 0 255 0 46 11
0.397392 0.076148 0.021897 0 255 0 46 11
0.409167 -0.022877 0.006629 0 255 0 46 11
0.484486 0.074378 0.059392 0 255 0 46 11
0.408198 0.068006 0.023392 0 255 0 46 11
0.519618 -0.000928 0.064266 0 255 0 46 11
0.415140 -0.034891 -0.014668 0 255 0 46 11
0.505242 0.009904 0.060995 0 255 0 46 11
0.336699 0.035487 0.004029 0 255 0 46 11
0.382264 0.125863 0.017392 0 255 0 46 11
0.544723 -0.042386 -0.025815 0 255 0 46 11
0.420638 0.097027 0.023392 0 255 0 46 11
0.476039 -0.033835 0.032392 0 255 0 46 11
0.499175 0.041733 0.071392 0 255 0 46 11
0.340484 0.017610 0.008392 0 255 0 46 11
0.430296 -0.054658 -0.018608 0 255 0 46 11
0.414275 -0.006130 0.014392 0 255 0 46 11
0.519061 0.018273 0.068852 0 255 0 46 11
0.407200 0.004900 0.026392 0 255 0 46 11
0.340311 0.040279 0.019525 0 255 0 46 11
0.361351 0.058231 0.019028 0 255 0 46 11
0.406215 -0.001872 0.004017 0 255 0 46 11
0.484065 -0.068047 -0.022385 0 255 0 46 11
0.361708 0.038765 0.023392 0 255 0 46 11
0.351316 0.029959 0.005392 0 255 0 46 11
0.539460 -0.042176 -0.012608 0 255 0 46 11
0.430175 -0.014939 0.044392 0 255 0 46 11
0.547153 -0.029191 0.000922 0 255 0 46 11
0.495590 -0.012874 0.051913 0 255 0 46 11
0.500388 -0.054053 -0.000608 0 255 0 46 11
0.433459 0.039269 0.050392 0 255 0 46 11
0.445209 -0.004960 0.042920 0 255 0 46 11
0.535290 0.017312 0.050392 0 255 0 46 11
0.459174 -0.051231 -0.015608 0 255 0 46 11
0.472880 0.026778 0.072168 0 255 0 46 11
0.497952 -0.029680 0.057210 0 255 0 46 11
0.348992 0.001951 -0.015608 0 255 0 46 11
0.431355 -0.028328 0.006997 0 255 0 46 11
0.501744 -0.058832 0.023392 0 255 0 46 11
0.521877 -0.062734 -0.022209 0 255 0 46 11
0.478683 -0.060236 -0.026004 0 255 0 46 11
0.462231 0.022615 0.071392 0 255 0 46 11
0.485764 0.033905 0.068392 0 255 0 46 11
0.403482 0.024413 0.017392 0 255 0 46 11
0.462494 -0.026884 0.056392 0 255 0 46 11
0.479410 -0.004438 0.069336 0 255 0 46 11
0.552785 0.011643 0.047392 0 255 0 46 11
0.546006 -0.005788 0.048574 0 255 0 46 11
0.549095 0.033205 0.039919 0 255 0 46 11
0.421805 -0.006106 0.024906 0 255 0 46 11
0.456174 -0.045241 0.008392 0 255 0 46 11
0.504185 -0.011838 0.065392 0 255 0 46 11
0.448424 -0.035587 0.014392 0 255 0 46 11
0.553858 0.007077 0.029392 0 255 0 46 11
0.456222 -0.030223 0.029392 0 255 0 46 11
0.407620 0.090980 0.026392 0 255 0 46 11
0.506020 0.058150 0.062392 0 255 0 46 11
0.524579 0.002845 0.053392 0 255 0 46 11
0.462706 0.038201 0.068976 0 255 0 46 11
0.561346 -0.000387 0.017392 0 255 0 46 11
0.531380 0.039604 0.059392 0 255 0 46 11
0.501012 -0.043255 0.023392 0 255 0 46 11
0.410103 -0.016070 0.014392 0 255 0 46 11
0.361341 -0.001864 -0.000608 0 255 0 46 11
0.497035 -0.030896 0.038392 0 255 0 46 11
0.542242 -0.051785 -0.021608 0 255 0 46 11
0.499065 -0.068082 -0.002930 0 255 0 46 11
0.413898 0.007365 0.035392 0 255 0 46 11
0.409859 0.040460 0.026392 0 255 0 46 11
0.350031 0.093057 0.029805 0 255 0 46 11
0.390135 0.029028 0.014392 0 255 0 46 11
0.387774 0.068371 0.030315 0 255 0 46 11
0.445880 -0.053918 0.014392 0 255 0 46 11
0.472522 -0.058443 0.026392 0 255 0 46 11
0.577388 0.020901 -0.000608 0 255 0 46 11
0.409758 -0.027079 -0.007284 0 255 0 46 11
0.378713 0.041391 0.016002 0 255 0 46 11
0.378487 -0.008759 -0.006608 0 255 0 46 11
0.517029 -0.064182 -0.003608 0 255 0 46 11
0.568274 -0.007542 0.014392 0 255 0 46 11
0.442846 0.011845 0.061963 0 255 0 46 11
0.437445 0.083531 0.029392 0 255 0 46 11
0.547119 -0.044191 0.007812 0 255 0 46 11
0.531827 -0.034576 0.014392 0 255 0 46 11
0.497430 0.004521 0.071075 0 255 0 46 11
0.375699 0.054932 0.029392 0 255 0 46 11
0.570877 -0.020774 -0.018608 0 255 0 46 11
0.448024 -0.059672 0.005392 0 255 0 46 11
0.381115 0.013287 0.017392 0 255 0 46 11
0.351666 0.020452 0.012626 0 255 0 46 11
0.429232 0.093476 0.019121 0 255 0 46 11
0.443293 0.094150 0.026392 0 255 0 46 11
0.462969 -0.061149 -0.024608 0 255 0 46 11
0.424269 0.059653 0.026392 0 255 0 46 11
0.394848 -0.016955 -0.003608 0 255 0 46 11
0.498088 0.030321 0.063903 0 255 0 46 11
0.538533 -0.025677 0.041392 0 255 0 46 11
0.408238 0.075587 0.029392 0 255 0 46 11
0.560965 -0.017061 0.020392 0 255 0 46 11
0.527740 -0.059640 -0.009608 0 255 0 46 11
0.541340 0.012943 0.056392 0 255 0 46 11
0.429550 -0.030724 0.031395 0 255 0 46 11
0.332567 0.046114 0.017392 0 255 0 46 11
0.370492 0.092664 0.023392 0 255 0 46 11
0.514574 -0.062455 0.008392 0 255 0 46 11
0.419533 0.010818 0.044392 0 255 0 46 11
0.443750 0.022433 0.062392 0 255 0 46 11
0.560484 0.028379 0.028051 0 255 0 46 11
0.398933 0.133029 0.011392 0 255 0 46 11
0.561733 0.049976 0.025130 0 255 0 46 11
0.487706 0.053170 0.068392 0 255 0 46 11
0.547227 -0.021734 0.014392 0 255 0 46 11
0.353051 0.102050 0.029278 0 255 0 46 11
0.429042 0.013467 0.053392 0 255 0 46 11
0.495068 0.021327 0.072549 0 255 0 46 11
0.403853 0.014934 0.012927 0 255 0 46 11
0.357808 0.083439 0.029662 0 255 0 46 11
0.432787 -0.051353 -0.000608 0 255 0 46 11
0.446030 0.058280 0.056392 0 255 0 46 11
0.557994 -0.022334 -0.012608 0 255 0 46 11
0.462750 -0.066425 -0.006608 0 255 0 46 11
0.499860 0.017716 0.064058 0 255 0 46 11
0.511805 -0.006311 0.055039 0 255 0 46 11
0.465745 -0.052480 -0.000608 0 255 0 46 11
0.422338 -0.045279 -0.021608 0 255 0 46 11
0.425595 -0.026003 -0.006608 0 255 0 46 11
0.361874 0.024029 0.003961 0 255 0 46 11
0.483922 0.001551 0.059392 0 255 0 46 11
0.483213 -0.039269 0.029392 0 255 0 46 11
0.466159 -0.039530 0.023392 0 255 0 46 11
0.487846 0.011743 0.063938 0 255 0 46 11
0.565242 0.009768 0.030970 0 255 0 46 11
0.379058 0.003567 0.005392 0 255 0 46 11
0.490986 -0.048894 0.011392 0 255 0 46 11
0.480086 -0.068807 -0.003608 0 255 0 46 11
0.355310 0.040244 0.013104 0 255 0 46 11
0.337757 0.083524 0.023392 0 255 0 46 11
0.573119 0.037640 0.002392 0 255 0 46 11
0.451317 0.043027 0.058211 0 255 0 46 11
0.455938 -0.055526 0.020392 0 255 0 46 11
0.450658 0.017228 0.066012 0 255 0 46 11
0.547507 -0.033706 0.026392 0 255 0 46 11
0.500583 -0.056097 -0.024608 0 255 0 46 11
0.481224 -0.024587 0.044392 0 255 0 46 11
0.568441 -0.018939 0.002392 0 255 0 46 11
0.379440 0.097190 0.028002 0 255 0 46 11
0.382358 0.061183 0.022164 0 255 0 46 11
0.523536 0.054121 0.059392 0 255 0 46 11
0.461389 -0.013396 0.045892 0 255 0 46 11
0.527693 -0.055015 0.011392 0 255 0 46 11
0.515484 0.028481 0.060910 0 255 0 46 11
0.558905 -0.013597 0.005392 0 255 0 46 11
0.457221 0.001013 0.051915 0 255 0 46 11
0.439758 -0.027148 0.018904 0 255 0 46 11
0.549847 0.006344 0.038392 0 255 0 46 11
0.440604 -0.040979 -0.021608 0 255 0 46 11
0.403955 0.059934 0.021930 0 255 0 46 11
0.492149 -0.057319 -0.015608 0 255 0 46 11
0.339754 0.059480 0.026349 0 255 0 46 11
0.343659 0.004843 -0.000608 0 255 0 46 11
0.565242 0.009768 0.012893 0 255 0 46 11
0.517120 -0.044123 0.037458 0 255 0 46 11
0.402941 -0.016186 0.005392 0 255 0 46 11
0.496852 -0.066415 0.008392 0 255 0 46 11
0.470450 0.013583 0.064014 0 255 0 46 11
0.441006 -0.005550 0.056965 0 255 0 46 11
0.568436 0.004037 0.023392 0 255 0 46 11
0.406374 -0.011630 -0.003608 0 255 0 46 11
0.461815 0.066928 0.059392 0 255 0 46 11
0.539821 -0.001128 0.053392 0 255 0 46 11
0.429124 -0.004108 0.035392 0 255 0 46 11
0.514238 -0.019414 0.059392 0 255 0 46 11
0.429788 0.074275 0.034882 0 255 0 46 11
0.405000 -0.008469 0.012893 0 255 0 46 11
0.390799 0.127219 0.014392 0 255 0 46 11
0.463228 0.004000 0.068944 0 255 0 46 11
0.517825 -0.040899 0.020392 0 255 0 46 11
0.350502 0.073918 0.029392 0 255 0 46 11
0.395064 0.107955 0.024799 0 255 0 46 11
0.508103 -0.067380 -0.006608 0 255 0 46 11
0.575028 -0.008877 -0.009608 0 255 0 46 11
0.389410 -0.004233 0.008575 0 255 0 46 11
0.438262 -0.009191 0.035392 0 255 0 46 11
0.392533 0.049760 0.029148 0 255 0 46 11
0.446321 -0.043363 0.032258 0 255 0 46 11
0.456040 0.009416 0.054936 0 255 0 46 11
0.361385 0.073230 0.021918 0 255 0 46 11
0.560457 -0.024190 0.014392 0 255 0 46 11
0.492143 -0.057329 -0.006608 0 255 0 46 11
0.565218 -0.012753 -0.024608 0 255 0 46 11
0.506423 0.001501 0.057934 0 255 0 46 11
0.520734 -0.046846 -0.000608 0 255 0 46 11
0.541840 0.008621 0.042924 0 255 0 46 11
0.534617 -0.000963 0.046023 0 255 0 46 11
0.442632 -0.058227 -0.003608 0 255 0 46 11
0.472120 -0.044021 0.045507 0 255 0 46 11
0.354232 0.093647 0.021915 0 255 0 46 11
0.345355 0.027034 -0.000608 0 255 0 46 11
0.438262 0.005763 0.044392 0 255 0 46 11
0.401003 0.080941 0.028478 0 255 0 46 11
0.534807 -0.040590 -0.003608 0 255 0 46 11
0.558054 0.015184 0.031102 0 255 0 46 11
0.457524 0.057131 0.062392 0 255 0 46 11
0.353664 0.013136 -0.006608 0 255 0 46 11
0.500174 -0.041686 0.047392 0 255 0 46 11
0.381802 0.080384 0.028854 0 255 0 46 11
0.556714 0.033345 0.035392 0 255 0 46 11
0.510658 0.017092 0.071514 0 255 0 46 11
0.418947 0.037368 0.041392 0 255 0 46 11
0.573386 0.005621 -0.012608 0 255 0 46 11
0.371071 0.111009 0.024418 0 255 0 46 11
0.477130 -0.057311 -0.015608 0 255 0 46 11
0.571425 0.035159 0.011392 0 255 0 46 11
0.380722 0.133787 0.013030 0 255 0 46 11
0.370867 0.021009 0.018422 0 255 0 46 11
0.418341 -0.035629 0.005392 0 255 0 46 11
0.549820 -0.046227 -0.018608 0 255 0 46 11
0.555020 0.021128 0.044392 0 255 0 46 11
0.415524 0.088780 0.023392 0 255 0 46 11
0.472959 0.064282 0.059392 0 255 0 46 11
0.344813 0.046254 0.011392 0 255 0 46 11
0.367828 0.126645 0.017392 0 255 0 46 11
0.516040 0.061869 0.059392 0 255 0 46 11
0.529174 -0.045694 -0.015608 0 255 0 46 11
0.454800 -0.017156 0.059392 0 255 0 46 11
0.514951 0.010100 0.059392 0 255 0 46 11
0.450132 -0.063230 -0.012608 0 255 0 46 11
0.462930 -0.059634 0.017392 0 255 0 46 11
0.530484 0.028447 0.063134 0 255 0 46 11
0.467396 -0.010410 0.066272 0 255 0 46 11
0.538394 -0.056399 -0.012608 0 255 0 46 11
0.420906 -0.042194 -0.006608 0 255 0 46 11
0.504095 0.033306 0.071591 0 255 0 46 11
0.405761 0.062330 0.029986 0 255 0 46 11
0.444583 -0.015758 0.054567 0 255 0 46 11
0.424593 -0.023233 0.032392 0 255 0 46 11
0.373887 0.030002 0.022898 0 255 0 46 11
0.511033 -0.039537 0.047392 0 255 0 46 11
0.431247 -0.048412 0.008392 0 255 0 46 11
0.538363 0.045048 0.053392 0 255 0 46 11
0.454806 -0.062012 -0.021608 0 255 0 46 11
0.574492 -0.000959 0.005392 0 255 0 46 11
0.411077 -0.030313 0.002392 0 255 0 46 11
0.412847 0.011914 0.027994 0 255 0 46 11
0.413997 0.108153 0.017392 0 255 0 46 11
0.487812 -0.003257 0.071060 0 255 0 46 11
0.540692 0.032023 0.054409 0 255 0 46 11
0.365811 0.002281 -0.006608 0 255 0 46 11
0.435753 0.069782 0.029392 0 255 0 46 11
0.478228 0.003965 0.072374 0 255 0 46 11
0.498207 -0.049280 0.038392 0 255 0 46 11
0.519519 -0.053444 0.023392 0 255 0 46 11
0.416003 0.080906 0.027216 0 255 0 46 11
0.369754 0.059412 0.018983 0 255 0 46 11
0.428584 -0.032006 -0.012608 0 255 0 46 11
0.568879 -0.007999 -0.018608 0 255 0 46 11
0.343365 0.064272 0.019043 0 255 0 46 11
0.437606 -0.034986 0.002392 0 255 0 46 11
0.545518 0.043413 0.043006 0 255 0 46 11
0.337982 0.072084 0.029363 0 255 0 46 11
0.411051 0.034457 0.032392 0 255 0 46 11
0.361419 0.088231 0.021967 0 255 0 46 11
0.368017 0.087016 0.029224 0 255 0 46 11
0.570569 0.026806 0.011392 0 255 0 46 11
0.491799 -0.070119 -0.006608 0 255 0 46 11
0.424860 0.017887 0.039909 0 255 0 46 11
0.469304 0.036986 0.063967 0 255 0 46 11
0.566037 -0.024640 -0.012608 0 255 0 46 11
0.436146 -0.031940 0.037015 0 255 0 46 11
0.504248 -0.021324 0.044392 0 255 0 46 11
0.389695 0.016085 0.008392 0 255 0 46 11
0.489623 -0.050703 0.038392 0 255 0 46 11
0.445799 -0.046725 -0.003608 0 255 0 46 11
0.554931 0.047589 0.035392 0 255 0 46 11
0.507082 0.027300 0.064071 0 255 0 46 11
0.492706 0.038133 0.067014 0 255 0 46 11
0.405722 -0.020282 -0.009608 0 255 0 46 11
0.555704 -0.005583 0.020392 0 255 0 46 11
0.509931 -0.038706 0.024910 0 255 0 46 11
0.472221 0.000979 0.057908 0 255 0 46 11
0.533274 -0.017700 0.050392 0 255 0 46 11
0.558611 -0.004017 0.035137 0 255 0 46 11
0.389058 0.104968 0.018910 0 255 0 46 11
0.395519 0.043753 0.018941 0 255 0 46 11
0.426283 -0.015119 0.011392 0 255 0 46 11
0.469135 -0.045530 0.017392 0 255 0 46 11
0.523751 -0.030339 0.048388 0 255 0 46 11
0.482918 -0.044645 0.021936 0 255 0 46 11
0.389579 -0.013979 0.002392 0 255 0 46 11
0.554375 -0.027120 -0.018608 0 255 0 46 11
0.476525 0.046570 0.071826 0 255 0 46 11
0.378685 0.018873 0.005392 0 255 0 46 11
0.500314 -0.046485 0.015918 0 255 0 46 11
0.409338 0.052122 0.022083 0 255 0 46 11
0.455158 0.023199 0.059392 0 255 0 46 11
0.382889 0.034488 0.014392 0 255 0 46 11
0.510272 -0.057745 0.023392 0 255 0 46 11
0.512237 0.044111 0.062392 0 255 0 46 11
0.478887 0.029764 0.067167 0 255 0 46 11
0.416023 -0.018765 0.005392 0 255 0 46 11
0.422327 0.044435 0.044392 0 255 0 46 11
0.438542 -0.043715 0.026392 0 255 0 46 11
0.453713 0.041221 0.065712 0 255 0 46 11
0.437711 -0.055657 -0.021608 0 255 0 46 11
0.548381 -0.018847 0.035392 0 255 0 46 11
0.459515 -0.045792 0.038211 0 255 0 46 11
0.573610 -0.004051 -0.025751 0 255 0 46 11
0.418825 0.064712 0.029392 0 255 0 46 11
0.436520 0.050422 0.053392 0 255 0 46 11
0.333157 0.060695 0.019409 0 255 0 46 11
0.528522 0.003631 0.062392 0 255 0 46 11
0.556302 -0.024816 -0.003608 0 255 0 46 11
0.553516 -0.020747 0.029392 0 255 0 46 11
0.333261 0.015968 0.005392 0 255 0 46 11
0.573064 0.010178 0.014392 0 255 0 46 11
0.571311 0.020220 0.005392 0 255 0 46 11
0.355024 0.006653 0.005392 0 255 0 46 11
0.486831 -0.064377 0.014392 0 255 0 46 11
0.567196 0.032302 0.026392 0 255 0 46 11
0.375727 0.047398 0.026871 0 255 0 46 11
0.350655 0.103855 0.021922 0 255 0 46 11
0.420831 -0.032324 0.017392 0 255 0 46 11
0.428403 -0.007321 0.045691 0 255 0 46 11
0.480273 -0.023870 0.062392 0 255 0 46 11
0.417144 0.022603 0.041392 0 255 0 46 11
0.564867 -0.023758 -0.003608 0 255 0 46 11
0.418664 0.052606 0.026392 0 255 0 46 11
0.470973 -0.020618 0.062614 0 255 0 46 11
0.530314 -0.046553 0.025924 0 255 0 46 11
0.448751 -0.030168 0.048740 0 255 0 46 11
0.493683 -0.060270 0.025340 0 255 0 46 11
0.388399 0.079169 0.021894 0 255 0 46 11
0.465727 0.047194 0.067973 0 255 0 46 11
0.432167 0.082418 0.023392 0 255 0 46 11
0.559690 -0.034882 -0.012608 0 255 0 46 11
0.478695 -0.070189 -0.015608 0 255 0 46 11
0.395505 -0.008826 -0.006608 0 255 0 46 11
0.464873 0.031107 0.071392 0 255 0 46 11
0.530450 0.013447 0.055132 0 255 0 46 11
0.551384 -0.038532 -0.024608 0 255 0 46 11
0.466669 -0.066209 -0.019110 0 255 0 46 11
0.402639 0.008337 0.019048 0 255 0 46 11
0.400412 0.085142 0.021956 0 255 0 46 11
0.366245 0.099620 0.028121 0 255 0 46 11
0.384890 0.119377 0.021611 0 255 0 46 11
0.458993 -0.011592 0.063489 0 255 0 46 11
0.400824 0.045810 0.029392 0 255 0 46 11
0.542186 0.029020 0.047392 0 255 0 46 11
0.557637 -0.033334 -0.000608 0 255 0 46 11
0.570232 -0.001505 -0.003608 0 255 0 46 11
0.547350 -0.006801 0.032392 0 255 0 46 11
0.542227 0.058985 0.047392 0 255 0 46 11
0.500518 0.043514 0.063965 0 255 0 46 11
0.397671 0.019592 0.023392 0 255 0 46 11
0.458335 -0.037390 0.024990 0 255 0 46 11
0.514149 -0.033110 0.050392 0 255 0 46 11
0.378075 0.010634 0.008392 0 255 0 46 11
0.508347 -0.050779 0.002392 0 255 0 46 11
0.512647 -0.020148 0.044392 0 255 0 46 11
0.525658 0.017058 0.064997 0 255 0 46 11
0.496214 -0.002075 0.057900 0 255 0 46 11
0.426880 0.025552 0.044392 0 255 0 46 11
0.415550 -0.024378 0.017392 0 255 0 46 11
0.501767 0.065112 0.057925 0 255 0 46 11
0.530072 -0.056844 0.002392 0 255 0 46 11
0.523195 -0.011137 0.060092 0 255 0 46 11
0.401879 0.005153 0.008392 0 255 0 46 11
0.412222 0.001115 0.018952 0 255 0 46 11
0.522081 0.027266 0.066498 0 255 0 46 11
0.520106 -0.050130 -0.008064 0 255 0 46 11
0.509307 -0.049505 0.035074 0 255 0 46 11
0.448092 -0.055966 -0.025838 0 255 0 46 11
0.423020 0.000491 0.030940 0 255 0 46 11
0.442556 0.036385 0.056392 0 255 0 46 11
0.367625 0.051601 0.017392 0 255 0 46 11
0.415860 -0.031677 -0.021608 0 255 0 46 11
0.341434 0.011861 -0.003608 0 255 0 46 11
0.476389 -0.013431 0.051926 0 255 0 46 11
0.560110 -0.007012 0.011392 0 255 0 46 11
0.334270 0.022293 0.009604 0 255 0 46 11
0.517442 -0.023756 0.038392 0 255 0 46 11
0.416944 -0.024982 -0.009608 0 255 0 46 11
0.517197 0.035740 0.068392 0 255 0 46 11
0.490633 0.045352 0.065392 0 255 0 46 11
0.376460 0.080654 0.023392 0 255 0 46 11
0.508983 -0.054921 -0.024608 0 255 0 46 11
0.466772 -0.021209 0.042899 0 255 0 46 11
0.397662 0.117266 0.017392 0 255 0 46 11
0.564896 -0.010631 -0.003608 0 255 0 46 11
0.452069 -0.015795 0.041392 0 255 0 46 11
0.545655 -0.026196 0.008392 0 255 0 46 11
0.530378 -0.024064 0.029392 0 255 0 46 11
0.341091 0.091163 0.026392 0 255 0 46 11
0.469204 -0.053093 0.032392 0 255 0 46 11
0.404512 0.040732 0.018950 0 255 0 46 11
0.429095 0.033477 0.052767 0 255 0 46 11
0.442120 -0.043953 -0.014001 0 255 0 46 11
0.461311 -0.050902 -0.006608 0 255 0 46 11
0.425349 -0.031315 -0.020071 0 255 0 46 11
0.364372 0.067224 0.028407 0 255 0 46 11
0.515692 -0.011122 0.047392 0 255 0 46 11
0.518924 -0.041727 0.012905 0 255 0 46 11
0.496079 -0.062075 -0.025988 0 255 0 46 11
0.431980 -0.017529 0.021939 0 255 0 46 11
0.363698 0.109052 0.023392 0 255 0 46 11
0.484690 -0.057250 -0.017072 0 255 0 46 11
0.558688 0.003437 0.023392 0 255 0 46 11
0.382299 0.053716 0.020392 0 255 0 46 11
0.429807 -0.040351 -0.024608 0 255 0 46 11
0.468317 0.020723 0.065392 0 255 0 46 11
0.451941 0.053824 0.054896 0 255 0 46 11
0.418195 -0.010898 0.018896 0 255 0 46 11
0.476945 -0.032631 0.055050 0 255 0 46 11
0.522792 0.030487 0.059392 0 255 0 46 11
0.513474 -0.063914 -0.022573 0 255 0 46 11
0.357048 0.012641 0.009433 0 255 0 46 11
0.482532 0.049556 0.063958 0 255 0 46 11
0.560755 -0.028171 -0.024608 0 255 0 46 11
0.566779 0.021777 0.020392 0 255 0 46 11
0.405263 0.119051 0.014392 0 255 0 46 11
0.388433 0.094169 0.026938 0 255 0 46 11
0.532581 -0.036992 0.035392 0 255 0 46 11
0.444720 0.044242 0.063050 0 255 0 46 11
0.529625 0.057216 0.056392 0 255 0 46 11
0.457256 0.016013 0.069275 0 255 0 46 11
0.550019 0.021238 0.050392 0 255 0 46 11
0.412222 0.001115 0.031580 0 255 0 46 11
0.419375 -0.019301 0.028649 0 255 0 46 11
0.551552 0.023840 0.038392 0 255 0 46 11
0.357552 0.023529 0.017392 0 255 0 46 11
0.576920 0.008480 -0.000608 0 255 0 46 11
0.581491 0.031331 -0.022074 0 255 0 46 11
0.493058 -0.071068 -0.014487 0 255 0 46 11
0.342741 0.053473 0.016069 0 255 0 46 11
0.539375 -0.019573 0.045692 0 255 0 46 11
0.368733 0.028147 0.008392 0 255 0 46 11
0.450118 -0.048292 -0.018608 0 255 0 46 11
0.492082 0.027334 0.067087 0 255 0 46 11
0.529270 0.021850 0.054961 0 255 0 46 11
0.484269 0.021952 0.067074 0 255 0 46 11
0.574897 0.006249 0.008392 0 255 0 46 11
0.560960 0.014056 0.038392 0 255 0 46 11
0.486597 -0.009853 0.067944 0 255 0 46 11
0.396143 0.054552 0.022055 0 255 0 46 11
0.513020 0.000287 0.067368 0 255 0 46 11
0.399856 0.104343 0.019115 0 255 0 46 11
0.479512 0.040563 0.067372 0 255 0 46 11
0.526810 -0.043913 0.002392 0 255 0 46 11
0.445867 0.020838 0.051908 0 255 0 46 11
0.454167 -0.022980 0.033912 0 255 0 46 11
0.493854 0.014730 0.067121 0 255 0 46 11
0.336109 0.039688 0.010225 0 255 0 46 11
0.476947 -0.055171 -0.006608 0 255 0 46 11
0.520280 -0.057775 0.011392 0 255 0 46 11
0.356685 0.032099 0.020392 0 255 0 46 11
0.507784 -0.046542 0.011392 0 255 0 46 11
0.483183 -0.054263 -0.000608 0 255 0 46 11
0.429909 0.004648 0.041392 0 255 0 46 11
0.482396 -0.010444 0.054960 0 255 0 46 11
0.438204 0.020640 0.053392 0 255 0 46 11
0.492150 0.057334 0.064257 0 255 0 46 11
0.503266 -0.067491 -0.019131 0 255 0 46 11
0.537436 0.027704 0.059392 0 255 0 46 11
0.504422 0.006765 0.071392 0 255 0 46 11
0.490435 -0.029686 0.041392 0 255 0 46 11
0.461355 -0.028396 0.036944 0 255 0 46 11
0.543026 -0.022325 0.020392 0 255 0 46 11
0.399642 0.066941 0.023392 0 255 0 46 11
0.424372 0.067088 0.025203 0 255 0 46 11
0.510036 -0.031273 0.035392 0 255 0 46 11
0.470420 -0.008933 0.053392 0 255 0 46 11
0.360171 0.066634 0.018930 0 255 0 46 11
0.525677 -0.020521 0.038392 0 255 0 46 11
0.535798 -0.009365 0.039957 0 255 0 46 11
0.535276 0.024836 0.051992 0 255 0 46 11
0.460354 -0.044679 0.014392 0 255 0 46 11
0.347464 0.019863 -0.005068 0 255 0 46 11
0.469924 -0.051919 0.005392 0 255 0 46 11
0.504545 -0.053429 -0.006608 0 255 0 46 11
0.504749 -0.055554 -0.018608 0 255 0 46 11
0.553354 -0.018838 0.011392 0 255 0 46 11
0.383641 0.097780 0.022039 0 255 0 46 11
0.377795 -0.002994 -0.000608 0 255 0 46 11
0.398053 0.002252 0.002392 0 255 0 46 11
0.416775 -0.042692 -0.012608 0 255 0 46 11
0.462093 -0.051491 0.032392 0 255 0 46 11
0.414322 0.023842 0.032392 0 255 0 46 11
0.533200 -0.048728 0.017392 0 255 0 46 11
0.436925 -0.015952 0.032392 0 255 0 46 11
0.420160 -0.008290 0.035392 0 255 0 46 11
0.345406 -0.004882 -0.009608 0 255 0 46 11
0.419329 -0.039302 -0.018608 0 255 0 46 11
0.416547 -0.023053 -0.000608 0 255 0 46 11
0.379793 -0.012011 0.000907 0 255 0 46 11
0.534135 -0.041481 0.029392 0 255 0 46 11
0.471143 0.054382 0.066991 0 255 0 46 11
0.548598 -0.000228 0.035392 0 255 0 46 11
0.560852 -0.009462 0.029392 0 255 0 46 11
0.558941 -0.030561 0.008392 0 255 0 46 11
0.390034 0.006566 0.016103 0 255 0 46 11
0.356526 0.046842 0.025897 0 255 0 46 11
0.332770 0.030935 0.011392 0 255 0 46 11
0.497729 -0.015021 0.065392 0 255 0 46 11
0.418228 0.004102 0.040537 0 255 0 46 11
0.426108 0.039484 0.048744 0 255 0 46 11
0.524307 -0.049540 0.028466 0 255 0 46 11
0.376874 0.023995 0.010061 0 255 0 46 11
0.352358 0.061251 0.028807 0 255 0 46 11
0.549993 -0.012549 0.038392 0 255 0 46 11
0.475072 -0.065028 0.010433 0 255 0 46 11
0.479657 -0.058942 0.026392 0 255 0 46 11
0.575189 -0.012754 -0.015608 0 255 0 46 11
0.551049 -0.032127 0.020392 0 255 0 46 11
0.552935 0.004016 0.044392 0 255 0 46 11
0.555693 0.031990 0.042355 0 255 0 46 11
0.535696 -0.054365 -0.022588 0 255 0 46 11
0.364112 0.012047 0.011392 0 255 0 46 11
0.570207 -0.012755 0.005392 0 255 0 46 11
0.416818 -0.012725 0.029392 0 255 0 46 11
0.494227 -0.023116 0.062392 0 255 0 46 11
0.524966 -0.023741 0.050674 0 255 0 46 11
0.434779 0.010411 0.056392 0 255 0 46 11
0.451215 -0.001973 0.063003 0 255 0 46 11
0.456613 0.050304 0.065392 0 255 0 46 11
0.531597 -0.009956 0.055114 0 255 0 46 11
0.379235 0.007190 -0.002104 0 255 0 46 11
0.532361 0.011000 0.062392 0 255 0 46 11
0.380655 0.103787 0.025896 0 255 0 46 11
0.432072 -0.002574 0.053392 0 255 0 46 11
0.560518 0.043379 0.033551 0 255 0 46 11
0.569454 0.014106 0.020392 0 255 0 46 11
0.509530 -0.054195 0.029392 0 255 0 46 11
0.410873 -0.009139 0.026392 0 255 0 46 11
0.389092 0.119968 0.016056 0 255 0 46 11
0.523751 -0.030339 0.027952 0 255 0 46 11
0.495515 -0.050381 0.005392 0 255 0 46 11
0.527448 -0.003072 0.047392 0 255 0 46 11
0.394405 0.082156 0.025324 0 255 0 46 11
0.422430 0.004692 0.046284 0 255 0 46 11
0.569443 0.010358 0.006943 0 255 0 46 11
0.376388 0.113079 0.020392 0 255 0 46 11
0.385277 0.025176 0.022700 0 255 0 46 11
0.548505 0.037406 0.047131 0 255 0 46 11
0.387218 0.087572 0.028767 0 255 0 46 11
0.449443 0.010631 0.051898 0 255 0 46 11
0.415155 -0.012364 0.011392 0 255 0 46 11
0.523420 -0.041359 0.038392 0 255 0 46 11
0.466191 -0.066843 -0.000608 0 255 0 46 11
0.534754 0.059037 0.051332 0 255 0 46 11
0.368748 0.007580 0.008392 0 255 0 46 11
0.542106 -0.029144 0.035392 0 255 0 46 11
0.347114 0.054292 0.026392 0 255 0 46 11
0.396871 0.025609 0.014392 0 255 0 46 11
0.336767 0.065487 0.015972 0 255 0 46 11
0.336585 0.016790 -0.000608 0 255 0 46 11
0.342821 0.023361 0.011392 0 255 0 46 11
0.469235 0.006986 0.070524 0 255 0 46 11
0.402036 -0.002431 0.014392 0 255 0 46 11
0.550298 -0.042830 -0.000608 0 255 0 46 11
0.470279 -0.061417 0.019200 0 255 0 46 11
0.503453 0.052394 0.065392 0 255 0 46 11
0.458580 0.032725 0.068392 0 255 0 46 11
0.427081 -0.048954 -0.003608 0 255 0 46 11
0.451125 -0.051942 0.026392 0 255 0 46 11
0.511568 -0.006132 0.065392 0 255 0 46 11
0.432536 -0.036732 0.029559 0 255 0 46 11
0.336211 0.034839 0.017392 0 255 0 46 11
0.470279 -0.061417 -0.025891 0 255 0 46 11
0.439364 -0.047609 0.020392 0 255 0 46 11
0.560938 -0.035823 -0.021955 0 255 0 46 11
0.394894 0.032955 0.025115 0 255 0 46 11
0.404998 0.076272 0.023392 0 255 0 46 11
0.409466 0.017397 0.032392 0 255 0 46 11
0.524852 -0.061219 -0.003608 0 255 0 46 11
0.541616 -0.043800 0.014392 0 255 0 46 11
0.541374 -0.051132 0.005392 0 255 0 46 11
0.487120 -0.044055 0.047021 0 255 0 46 11
0.378611 -0.003608 -0.011093 0 255 0 46 11
0.388263 0.019170 0.020546 0 255 0 46 11
0.549796 -0.038694 0.011392 0 255 0 46 11
0.393781 0.071357 0.025141 0 255 0 46 11
0.506980 -0.017700 0.061776 0 255 0 46 11
0.340242 0.010279 0.003302 0 255 0 46 11
0.336734 0.050487 0.013126 0 255 0 46 11
0.425036 -0.031730 0.026392 0 255 0 46 11
0.525727 0.047058 0.062289 0 255 0 46 11
0.567530 -0.003227 0.020392 0 255 0 46 11
0.423190 0.075491 0.028481 0 255 0 46 11
0.378623 0.041271 0.026392 0 255 0 46 11
0.426665 0.020282 0.052160 0 255 0 46 11
0.337324 0.046286 0.022224 0 255 0 46 11
0.552422 -0.044431 -0.012608 0 255 0 46 11
0.441833 -0.059287 -0.012608 0 255 0 46 11
0.571862 0.001023 -0.021608 0 255 0 46 11
0.449287 0.095168 0.023392 0 255 0 46 11
0.466696 -0.031278 0.053392 0 255 0 46 11
0.445704 0.088577 0.029392 0 255 0 46 11
0.472385 -0.038683 0.029392 0 255 0 46 11
0.419558 -0.038998 -0.000608 0 255 0 46 11
0.475867 0.020770 0.073044 0 255 0 46 11
0.496214 -0.002075 0.070190 0 255 0 46 11
0.411767 0.065317 0.028470 0 255 0 46 11
0.349928 0.048057 0.024347 0 255 0 46 11
0.348815 0.086459 0.030662 0 255 0 46 11
0.444686 0.029242 0.062673 0 255 0 46 11
0.343297 0.034272 0.018668 0 255 0 46 11
0.366041 0.009620 -0.005063 0 255 0 46 11
0.527288 0.044145 0.056392 0 255 0 46 11
0.436441 -0.026562 0.011392 0 255 0 46 11
0.394962 0.062955 0.030549 0 255 0 46 11
0.429822 0.089275 0.024449 0 255 0 46 11
0.453089 0.030422 0.057934 0 255 0 46 11
0.396803 -0.019347 0.002392 0 255 0 46 11
0.565207 -0.012744 0.017392 0 255 0 46 11
0.520628 -0.020472 0.056392 0 255 0 46 11
0.535673 -0.031809 0.038392 0 255 0 46 11
0.523195 -0.011137 0.046007 0 255 0 46 11
0.468713 0.041187 0.069579 0 255 0 46 11
0.518201 -0.067477 -0.018608 0 255 0 46 11
0.537706 0.038030 0.054993 0 255 0 46 11
0.465136 0.051395 0.061029 0 255 0 46 11
0.450278 -0.003217 0.047392 0 255 0 46 11
0.503998 -0.064286 0.008392 0 255 0 46 11
0.568144 0.000068 0.008392 0 255 0 46 11
0.456290 -0.065028 -0.009608 0 255 0 46 11
0.483543 -0.033846 0.054540 0 255 0 46 11
0.498576 -0.018881 0.048987 0 255 0 46 11
0.429713 0.066820 0.029392 0 255 0 46 11
0.349641 0.072601 0.020392 0 255 0 46 11
0.344246 0.080396 0.020392 0 255 0 46 11
0.481245 0.069307 0.062392 0 255 0 46 11
0.442954 0.079380 0.032392 0 255 0 46 11
0.564720 0.043969 0.024691 0 255 0 46 11
0.371003 0.081009 0.030564 0 255 0 46 11
0.367262 0.004944 0.002392 0 255 0 46 11
0.537006 -0.055352 0.002392 0 255 0 46 11
0.347029 0.099075 0.029392 0 255 0 46 11
0.527884 -0.059748 -0.022566 0 255 0 46 11
0.464958 -0.068480 -0.012608 0 255 0 46 11
0.540448 -0.054190 -0.006608 0 255 0 46 11
0.351699 0.035453 0.010088 0 255 0 46 11
0.543453 0.048726 0.047392 0 255 0 46 11
0.541284 -0.039794 0.026392 0 255 0 46 11
0.356594 0.076842 0.029958 0 255 0 46 11
0.525706 -0.061863 -0.015608 0 255 0 46 11
0.389901 -0.013551 -0.006608 0 255 0 46 11
0.517914 0.041675 0.065338 0 255 0 46 11
0.544988 -0.023802 0.038392 0 255 0 46 11
0.372842 0.098405 0.027763 0 255 0 46 11
0.402706 0.038337 0.027644 0 255 0 46 11
0.427880 0.026880 0.052998 0 255 0 46 11
0.463960 -0.054849 -0.021608 0 255 0 46 11
0.558219 0.022573 0.032392 0 255 0 46 11
0.429686 -0.050482 -0.009608 0 255 0 46 11
0.369788 0.074412 0.021904 0 255 0 46 11
0.375760 0.062399 0.022001 0 255 0 46 11
0.544816 -0.034943 -0.009608 0 255 0 46 11
0.450101 0.036429 0.058069 0 255 0 46 11
0.550894 -0.032010 -0.015608 0 255 0 46 11
0.502188 -0.014089 0.052053 0 255 0 46 11
0.391419 0.088163 0.021902 0 255 0 46 11
0.408747 0.056323 0.029562 0 255 0 46 11
0.352324 0.046252 0.013008 0 255 0 46 11
0.370969 0.066009 0.029687 0 255 0 46 11
0.489686 0.029140 0.073155 0 255 0 46 11
0.484936 -0.051938 0.008392 0 255 0 46 11
0.380587 0.073787 0.030023 0 255 0 46 11
0.401627 0.091740 0.022046 0 255 0 46 11
0.483054 0.015355 0.067186 0 255 0 46 11
0.428368 -0.022321 0.006892 0 255 0 46 11
0.459686 0.029208 0.060921 0 255 0 46 11
0.460951 -0.048873 0.005392 0 255 0 46 11
0.539992 -0.031307 0.008392 0 255 0 46 11
0.516700 0.035079 0.060941 0 255 0 46 11
0.412393 0.076115 0.021931 0 255 0 46 11
0.387184 0.072572 0.021913 0 255 0 46 11
0.361907 0.039030 0.012992 0 255 0 46 11
0.362634 0.094828 0.021966 0 255 0 46 11
0.470486 -0.056158 -0.003608 0 255 0 46 11
0.500428 -0.039058 0.029392 0 255 0 46 11
0.409418 -0.002606 0.011392 0 255 0 46 11
0.454379 -0.047624 -0.006608 0 255 0 46 11
0.561699 -0.017614 -0.009608 0 255 0 46 11
0.435787 -0.037401 -0.012608 0 255 0 46 11
0.477766 -0.046498 0.017392 0 255 0 46 11
0.453811 -0.043392 0.002392 0 255 0 46 11
0.444178 -0.036235 0.008392 0 255 0 46 11
0.424791 -0.012113 0.027984 0 255 0 46 11
0.460242 0.010006 0.068965 0 255 0 46 11
0.488368 -0.022458 0.045937 0 255 0 46 11
0.527384 -0.048102 -0.021608 0 255 0 46 11
0.355412 0.085245 0.021904 0 255 0 46 11
0.427981 -0.027820 -0.000608 0 255 0 46 11
0.362601 0.079828 0.021904 0 255 0 46 11
0.523092 -0.056136 -0.025811 0 255 0 46 11
0.550889 -0.016980 0.017392 0 255 0 46 11
0.525658 0.017058 0.058135 0 255 0 46 11
0.388467 0.109169 0.024106 0 255 0 46 11
0.386559 0.061773 0.028655 0 255 0 46 11
0.472290 0.030978 0.063955 0 255 0 46 11
0.453214 -0.039200 0.011392 0 255 0 46 11
0.354754 0.059445 0.019049 0 255 0 46 11
0.496873 0.023724 0.063922 0 255 0 46 11
0.541855 -0.013929 0.029392 0 255 0 46 11
0.452606 -0.035022 0.020392 0 255 0 46 11
0.443984 -0.036494 0.038392 0 255 0 46 11
0.377634 0.094794 0.022003 0 255 0 46 11
0.353437 0.007849 -0.011031 0 255 0 46 11
0.358956 0.060036 0.028314 0 255 0 46 11
0.516104 0.016744 0.059392 0 255 0 46 11
0.343297 0.034272 0.003956 0 255 0 46 11
0.398686 0.013062 0.008392 0 255 0 46 11
0.382324 0.046183 0.018986 0 255 0 46 11
0.498645 0.011119 0.064146 0 255 0 46 11
0.533020 -0.042962 -0.009608 0 255 0 46 11
0.549718 -0.008586 0.026392 0 255 0 46 11
0.367256 0.016217 0.001008 0 255 0 46 11
0.491980 -0.017666 0.048957 0 255 0 46 11
0.572184 -0.000959 -0.012608 0 255 0 46 11
0.477813 -0.031480 0.038392 0 255 0 46 11
0.580309 0.039734 -0.017378 0 255 0 46 11
0.403532 0.023752 0.024199 0 255 0 46 11
0.580644 0.009430 -0.018608 0 255 0 46 11
0.552068 0.047120 0.041392 0 255 0 46 11
0.483747 0.056153 0.063940 0 255 0 46 11
0.412973 0.094460 0.020392 0 255 0 46 11
0.488906 -0.066609 0.008392 0 255 0 46 11
0.547074 0.025538 0.044392 0 255 0 46 11
0.545635 0.017030 0.053392 0 255 0 46 11
0.435795 0.077261 0.027989 0 255 0 46 11
0.435828 -0.022393 0.044392 0 255 0 46 11
0.340833 0.006078 -0.007362 0 255 0 46 11
0.467566 0.064590 0.063203 0 255 0 46 11
0.569523 0.025418 0.026392 0 255 0 46 11
0.571181 -0.017245 -0.025827 0 255 0 46 11
0.391215 -0.001838 -0.001909 0 255 0 46 11
0.403403 -0.005603 -0.000608 0 255 0 46 11
0.451351 0.058027 0.060336 0 255 0 46 11
0.452498 0.034624 0.066801 0 255 0 46 11
0.433853 0.014866 0.049152 0 255 0 46 11
0.402218 0.087538 0.027808 0 255 0 46 11
0.425546 -0.050992 -0.021608 0 255 0 46 11
0.396375 0.009301 0.017392 0 255 0 46 11
0.409860 0.017920 0.024915 0 255 0 46 11
0.492115 0.042334 0.071998 0 255 0 46 11
0.437793 -0.049694 0.014392 0 255 0 46 11
0.416331 0.101282 0.020392 0 255 0 46 11
0.517846 0.011675 0.067801 0 255 0 46 11
0.442493 0.051256 0.056392 0 255 0 46 11
0.493930 -0.054956 -0.000608 0 255 0 46 11
0.475106 -0.050028 0.037723 0 255 0 46 11
0.454877 -0.061918 0.005392 0 255 0 46 11
0.456006 -0.005584 0.051996 0 255 0 46 11
0.439140 0.025908 0.059392 0 255 0 46 11
0.494443 0.010528 0.072027 0 255 0 46 11
0.499758 -0.027284 0.043033 0 255 0 46 11
0.392634 0.094761 0.022042 0 255 0 46 11
0.505310 0.039904 0.070400 0 255 0 46 11
0.427752 -0.043079 0.011392 0 255 0 46 11
0.389535 0.036993 0.026392 0 255 0 46 11
0.449443 0.010631 0.063784 0 255 0 46 11
0.538904 0.022102 0.047392 0 255 0 46 11
0.407362 -0.025274 0.000796 0 255 0 46 11
0.546778 -0.047690 -0.006608 0 255 0 46 11
0.571278 -0.007147 0.008392 0 255 0 46 11
0.467952 -0.029611 0.036925 0 255 0 46 11
0.484040 -0.068081 0.002392 0 255 0 46 11
0.429951 0.019657 0.044392 0 255 0 46 11
0.503416 -0.030040 0.038392 0 255 0 46 11
0.357286 0.002987 -0.015608 0 255 0 46 11
0.486551 -0.047383 0.017392 0 255 0 46 11
0.420034 0.006497 0.030917 0 255 0 46 11
0.575629 0.001940 -0.000608 0 255 0 46 11
0.394304 0.037155 0.019089 0 255 0 46 11
0.506457 0.016502 0.064093 0 255 0 46 11
0.482532 0.049556 0.070562 0 255 0 46 11
0.424201 -0.007912 0.040585 0 255 0 46 11
0.480537 0.061863 0.065392 0 255 0 46 11
0.415988 -0.003856 0.023392 0 255 0 46 11
0.347233 0.059434 0.017392 0 255 0 46 11
0.527986 -0.014748 0.039948 0 255 0 46 11
0.376249 0.013197 0.000907 0 255 0 46 11
0.369096 0.033613 0.013049 0 255 0 46 11
0.526839 0.008654 0.051947 0 255 0 46 11
0.456529 -0.039786 0.043764 0 255 0 46 11
0.384618 -0.000622 -0.005003 0 255 0 46 11
0.426678 -0.017292 0.017392 0 255 0 46 11
0.551355 -0.028601 0.026477 0 255 0 46 11
0.359648 0.100835 0.029598 0 255 0 46 11
0.489618 -0.000861 0.061000 0 255 0 46 11
0.357876 0.113439 0.021894 0 255 0 46 11
0.517153 -0.029124 0.033980 0 255 0 46 11
0.571960 -0.014077 -0.000608 0 255 0 46 11
0.547222 -0.010461 0.044392 0 255 0 46 11
0.546697 0.012473 0.041392 0 255 0 46 11
0.504095 0.033306 0.063934 0 255 0 46 11
0.448195 -0.010966 0.042951 0 255 0 46 11
0.576762 0.012356 -0.024608 0 255 0 46 11
0.390922 0.022698 0.011392 0 255 0 46 11
0.443610 -0.032005 0.017392 0 255 0 46 11
0.426801 0.080282 0.026102 0 255 0 46 11
0.443672 -0.016968 0.032392 0 255 0 46 11
0.519697 0.006525 0.056392 0 255 0 46 11
0.463635 0.039432 0.062392 0 255 0 46 11
0.523769 -0.037865 0.014392 0 255 0 46 11
0.578436 0.007338 -0.008065 0 255 0 46 11
0.564301 -0.023332 -0.021608 0 255 0 46 11
0.483065 0.007833 0.062392 0 255 0 46 11
0.407436 0.029658 0.029392 0 255 0 46 11
0.488051 -0.012910 0.053392 0 255 0 46 11
0.498196 -0.054281 -0.006608 0 255 0 46 11
0.521321 -0.043533 0.006926 0 255 0 46 11
0.373455 0.086674 0.023392 0 255 0 46 11
0.500720 0.003904 0.059392 0 255 0 46 11
0.442221 0.001047 0.045975 0 255 0 46 11
0.436737 -0.036141 -0.005108 0 255 0 46 11
0.466108 -0.054517 -0.015608 0 255 0 46 11
0.449898 -0.053571 0.019304 0 255 0 46 11
0.356173 0.026434 0.002392 0 255 0 46 11
0.359133 0.020393 -0.000608 0 255 0 46 11
0.435842 -0.022375 0.020392 0 255 0 46 11
0.525102 0.036259 0.058119 0 255 0 46 11
0.364269 0.022224 0.016531 0 255 0 46 11
0.371526 0.046807 0.015963 0 255 0 46 11
0.531529 -0.039956 0.003907 0 255 0 46 11
0.351642 -0.005825 -0.006608 0 255 0 46 11
0.537093 0.004684 0.044392 0 255 0 46 11
0.542406 -0.033127 0.002392 0 255 0 46 11
0.485280 -0.061451 -0.025983 0 255 0 46 11
0.573062 0.007631 -0.018608 0 255 0 46 11
0.444155 -0.022949 0.050392 0 255 0 46 11
0.382450 0.083652 0.023392 0 255 0 46 11
0.441564 -0.024751 0.024979 0 255 0 46 11
0.471733 -0.049519 0.011392 0 255 0 46 11
0.432672 0.023269 0.055304 0 255 0 46 11
0.405625 0.002331 0.020831 0 255 0 46 11
0.389443 0.010767 0.003988 0 255 0 46 11
0.430833 0.005873 0.051835 0 255 0 46 11
0.343819 0.000071 -0.004748 0 255 0 46 11
0.580109 0.017346 -0.015608 0 255 0 46 11
0.519129 0.048273 0.063253 0 255 0 46 11
0.434678 -0.013949 0.026392 0 255 0 46 11
0.538312 -0.003747 0.041392 0 255 0 46 11
0.478389 -0.050656 0.005392 0 255 0 46 11
0.420662 0.028562 0.044392 0 255 0 46 11
0.456564 -0.024786 0.055921 0 255 0 46 11
0.514013 -0.064321 0.002392 0 255 0 46 11
0.449375 -0.019369 0.036947 0 255 0 46 11
0.356789 0.052177 0.017392 0 255 0 46 11
0.519200 -0.051332 -0.021608 0 255 0 46 11
0.415211 -0.027433 -0.015608 0 255 0 46 11
0.521052 -0.054599 0.017392 0 255 0 46 11
0.450478 -0.057787 0.011392 0 255 0 46 11
0.538853 0.014628 0.045955 0 255 0 46 11
0.426040 0.009484 0.049573 0 255 0 46 11
0.564027 0.003170 0.012965 0 255 0 46 11
0.498147 -0.056121 0.029392 0 255 0 46 11
0.475961 -0.038923 0.050392 0 255 0 46 11
0.473403 -0.007424 0.068095 0 255 0 46 11
0.426955 -0.019211 0.038392 0 255 0 46 11
0.493903 0.069631 0.059392 0 255 0 46 11
0.367886 0.017054 0.014392 0 255 0 46 11
0.389375 -0.019233 -0.001576 0 255 0 46 11
0.498547 -0.056423 -0.018608 0 255 0 46 11
0.339686 0.029480 0.000970 0 255 0 46 11
0.409146 -0.002968 0.026392 0 255 0 46 11
0.401686 -0.007883 -0.006608 0 255 0 46 11
0.499303 0.036918 0.067408 0 255 0 46 11
0.433074 0.045504 0.050392 0 255 0 46 11
0.567911 0.013309 0.026392 0 255 0 46 11
0.578382 0.003623 -0.018608 0 255 0 46 11
0.422122 -0.040582 0.005392 0 255 0 46 11
0.575860 0.018875 -0.006608 0 255 0 46 11
0.556804 0.001100 0.038392 0 255 0 46 11
0.461278 -0.063394 0.008392 0 255 0 46 11
0.489166 0.022018 0.074392 0 255 0 46 11
0.436403 -0.056523 -0.015608 0 255 0 46 11
0.441801 0.080248 0.038421 0 255 0 46 11
0.416840 0.016418 0.041392 0 255 0 46 11
0.455828 0.049012 0.059392 0 255 0 46 11
0.520191 -0.046437 0.032392 0 255 0 46 11
0.408645 0.011324 0.021933 0 255 0 46 11
0.457397 -0.053589 0.026392 0 255 0 46 11
0.360140 0.121428 0.020392 0 255 0 46 11
0.416562 -0.020937 0.023392 0 255 0 46 11
0.426835 0.095282 0.024519 0 255 0 46 11
0.375058 0.016601 0.017392 0 255 0 46 11
0.574358 0.014168 -0.000608 0 255 0 46 11
0.549069 -0.000584 0.047392 0 255 0 46 11
0.391318 0.043163 0.028765 0 255 0 46 11
0.526873 0.023655 0.064481 0 255 0 46 11
0.404651 0.099025 0.022591 0 255 0 46 11
0.385798 -0.009024 0.004737 0 255 0 46 11
0.440620 0.088651 0.025760 0 255 0 46 11
0.439449 -0.012603 0.053392 0 255 0 46 11
0.534095 0.033239 0.060375 0 255 0 46 11
0.491389 -0.013465 0.066147 0 255 0 46 11
0.367460 0.106217 0.027297 0 255 0 46 11
0.334242 0.062134 0.026392 0 255 0 46 11
0.475519 -0.054463 0.032392 0 255 0 46 11
0.534497 -0.001122 0.056392 0 255 0 46 11
0.480692 0.032160 0.072487 0 255 0 46 11
0.499928 0.047716 0.069631 0 255 0 46 11
0.406580 0.068402 0.029392 0 255 0 46 11
0.541194 -0.039726 -0.021608 0 255 0 46 11
0.400815 0.032249 0.026392 0 255 0 46 11
0.420185 0.011683 0.038392 0 255 0 46 11
0.402112 0.052502 0.029392 0 255 0 46 11
0.462536 -0.036799 0.049322 0 255 0 46 11
0.510593 0.031959 0.071392 0 255 0 46 11
0.466834 -0.065991 0.005392 0 255 0 46 11
0.367125 0.035982 0.023392 0 255 0 46 11
0.456915 -0.064198 -0.003608 0 255 0 46 11
0.560142 -0.016441 0.026392 0 255 0 46 11
0.345625 0.002466 -0.010565 0 255 0 46 11
0.541679 -0.013797 0.047392 0 255 0 46 11
0.454123 -0.042979 0.038392 0 255 0 46 11
0.444560 -0.055670 0.008392 0 255 0 46 11
0.555870 0.039369 0.035392 0 255 0 46 11
0.429497 -0.040764 0.017392 0 255 0 46 11
0.380484 0.028787 0.023667 0 255 0 46 11
0.388887 0.029969 0.024653 0 255 0 46 11
0.356037 0.096043 0.028296 0 255 0 46 11
0.514269 0.021883 0.070600 0 255 0 46 11
0.467464 0.019590 0.071898 0 255 0 46 11
0.472260 -0.068759 -0.003608 0 255 0 46 11
0.443165 -0.057520 0.002392 0 255 0 46 11
0.432924 -0.041201 0.023392 0 255 0 46 11
0.483645 0.011153 0.072707 0 255 0 46 11
0.571427 0.005108 -0.003608 0 255 0 46 11
0.506393 0.012793 0.071392 0 255 0 46 11
0.501006 -0.005687 0.067816 0 255 0 46 11
0.516632 0.005078 0.066562 0 255 0 46 11
0.418824 -0.034988 0.011392 0 255 0 46 11
0.335226 0.055379 0.017392 0 255 0 46 11
0.336974 0.072844 0.023392 0 255 0 46 11
0.423673 0.060102 0.032392 0 255 0 46 11
0.480658 0.017160 0.073797 0 255 0 46 11
0.410522 -0.011110 0.020392 0 255 0 46 11
0.346317 0.043265 0.022823 0 255 0 46 11
0.438008 -0.054394 -0.000608 0 255 0 46 11
0.364406 0.082223 0.029914 0 255 0 46 11
0.471931 -0.070174 -0.015608 0 255 0 46 11
0.557505 -0.036991 -0.006608 0 255 0 46 11
0.354508 0.089028 0.029392 0 255 0 46 11
0.570356 -0.020380 -0.012608 0 255 0 46 11
0.488672 -0.071520 -0.018608 0 255 0 46 11
0.338539 0.052882 0.024123 0 255 0 46 11
0.382426 0.091184 0.028174 0 255 0 46 11
0.375863 0.107398 0.022471 0 255 0 46 11
0.555130 -0.038958 -0.000608 0 255 0 46 11
0.351802 0.080452 0.029423 0 255 0 46 11
0.360015 0.051725 0.026392 0 255 0 46 11
0.500485 0.028515 0.072111 0 255 0 46 11
0.562290 0.030774 0.033272 0 255 0 46 11
0.411211 0.084518 0.027711 0 255 0 46 11
0.369720 0.044412 0.025870 0 255 0 46 11
0.490072 -0.065062 -0.022673 0 255 0 46 11
0.555655 -0.039355 -0.012608 0 255 0 46 11
0.563662 -0.030362 -0.012608 0 255 0 46 11
0.462604 -0.006799 0.065769 0 255 0 46 11
0.479667 -0.068900 -0.009608 0 255 0 46 11
0.381734 0.050384 0.029039 0 255 0 46 11
0.367982 0.072016 0.030399 0 255 0 46 11
0.368539 0.052815 0.026754 0 255 0 46 11
0.576232 0.024024 0.008392 0 255 0 46 11
0.459793 -0.065365 -0.021608 0 255 0 46 11
0.483020 0.000354 0.071974 0 255 0 46 11
0.472256 0.015979 0.072206 0 255 0 46 11
0.569999 -0.008843 -0.026015 0 255 0 46 11
0.393849 0.101357 0.022464 0 255 0 46 11
0.385969 0.065975 0.021933 0 255 0 46 11
0.491423 0.001535 0.070843 0 255 0 46 11
0.435522 -0.042737 -0.026097 0 255 0 46 11
0.532710 -0.048358 -0.025958 0 255 0 46 11
0.380552 0.058787 0.028821 0 255 0 46 11
0.436703 -0.051140 -0.025655 0 255 0 46 11
0.449365 -0.064248 -0.018608 0 255 0 46 11
0.387150 0.057572 0.021992 0 255 0 46 11
0.505798 -0.009297 0.051896 0 255 0 46 11
0.377498 0.034794 0.024252 0 255 0 46 11
0.462672 0.023201 0.064079 0 255 0 46 11
0.397392 0.076148 0.028578 0 255 0 46 11
0.374580 0.070801 0.022010 0 255 0 46 11
0.503471 0.022509 0.063952 0 255 0 46 11
0.565364 -0.012863 -0.009608 0 255 0 46 11
0.541113 -0.047178 -0.025750 0 255 0 46 11
0.380484 0.028787 0.009973 0 255 0 46 11
0.539502 -0.027181 0.020392 0 255 0 46 11
0.413538 0.052712 0.029683 0 255 0 46 11
0.510034 0.006294 0.057939 0 255 0 46 11
0.510764 -0.052556 -0.009608 0 255 0 46 11
0.379372 0.067190 0.022011 0 255 0 46 11
0.397358 0.061149 0.022050 0 255 0 46 11
0.552044 -0.010338 0.020392 0 255 0 46 11
0.379235 0.007190 0.013469 0 255 0 46 11
0.364962 0.063022 0.018930 0 255 0 46 11
0.355379 0.070244 0.018897 0 255 0 46 11
0.559819 -0.019953 -0.018608 0 255 0 46 11
0.451441 -0.026598 0.029392 0 255 0 46 11
0.388819 -0.000031 0.013456 0 255 0 46 11
0.536389 -0.013567 0.033899 0 255 0 46 11
0.391351 0.058163 0.028653 0 255 0 46 11
0.454380 -0.047621 -0.012608 0 255 0 46 11
0.443437 0.007644 0.049007 0 255 0 46 11
0.561224 -0.028525 -0.000608 0 255 0 46 11
0.529826 0.002649 0.048969 0 255 0 46 11
0.399232 0.093545 0.027236 0 255 0 46 11
0.504061 0.018306 0.071723 0 255 0 46 11
0.356423 0.001842 0.002117 0 255 0 46 11
0.562353 0.019458 0.035392 0 255 0 46 11
0.577690 0.001363 -0.012608 0 255 0 46 11
0.560499 0.020855 0.026392 0 255 0 46 11
0.547846 0.011607 0.050730 0 255 0 46 11
0.500280 -0.061485 0.018215 0 255 0 46 11
0.415730 -0.039093 -0.007975 0 255 0 46 11
0.446299 -0.033422 0.044392 0 255 0 46 11
0.416195 -0.031930 -0.009608 0 255 0 46 11
0.397468 0.111145 0.020392 0 255 0 46 11
0.340413 0.085279 0.028415 0 255 0 46 11
0.557463 0.019386 0.039261 0 255 0 46 11
0.414754 0.059310 0.030988 0 255 0 46 11
0.509272 -0.030697 0.053392 0 255 0 46 11
0.567568 0.032794 0.020392 0 255 0 46 11
0.518619 -0.015203 0.059392 0 255 0 46 11
0.380416 -0.001213 0.008577 0 255 0 46 11
0.490900 0.035736 0.072095 0 255 0 46 11
0.396314 -0.005041 0.011392 0 255 0 46 11
0.369114 0.116240 0.020392 0 255 0 46 11
0.578480 0.011062 -0.012608 0 255 0 46 11
0.347010 0.084064 0.025298 0 255 0 46 11
0.539134 -0.056956 -0.018608 0 255 0 46 11
0.532777 -0.059678 -0.012608 0 255 0 46 11
0.486818 -0.069380 -0.003608 0 255 0 46 11
0.369232 0.093613 0.029025 0 255 0 46 11
0.515467 -0.065416 -0.009608 0 255 0 46 11
0.475922 0.058293 0.065392 0 255 0 46 11
0.348459 0.006228 0.002392 0 255 0 46 11
0.436840 0.008859 0.049116 0 255 0 46 11
0.510590 -0.012908 0.064045 0 255 0 46 11
0.554340 -0.034608 0.009569 0 255 0 46 11
0.465485 -0.022915 0.059392 0 255 0 46 11
