ply
format ascii 1.0
element vertex 1094
property float x
property float y
property float z
property uchar red
property uchar green
property uchar blue
property uchar semantic_label
property uchar instance_label
end_header
0.483217 -0.487851 0.148814 205 187 163 1 1
0.484826 -0.463139 0.138885 206 184 157 1 1
0.492294 -0.487139 0.130941 205 184 163 1 1
0.488995 -0.824434 0.129055 216 195 173 1 1
0.500751 -0.512678 0.309305 220 200 174 1 1
0.502348 -0.510237 0.288664 218 196 172 1 1
0.500395 -0.521563 0.297103 216 199 175 1 1
0.407584 -0.510465 0.060310 103 90 82 7 6
0.467467 -0.914317 -0.072983 192 177 155 1 1
0.554183 -0.647706 0.631660 225 204 181 1 1
0.551665 -0.670543 0.622771 225 207 177 1 1
0.554290 -0.658023 0.623922 224 206 182 1 1
0.558249 -0.643256 0.614718 224 204 180 1 1
0.553262 -0.663971 0.612232 226 206 182 1 1
0.455307 -0.906687 -0.069504 231 216 188 1 1
0.450372 -0.920247 -0.069762 233 218 191 1 1
0.441292 -0.909202 -0.066023 219 205 179 1 1
0.492268 -0.691907 0.013231 106 93 79 1 1
0.495541 -0.713088 0.010283 118 104 89 1 1
0.376679 -0.429148 0.056592 107 90 81 7 6
0.489587 -0.487266 0.193252 211 192 167 1 1
0.485404 -0.480386 0.203238 213 193 171 1 1
0.486396 -0.486758 0.211508 215 194 174 1 1
0.488517 -0.449224 0.211480 214 195 172 1 1
0.475632 -0.636509 0.716344 176 167 157 1 1
0.474524 -0.641654 0.723879 178 171 163 1 1
0.485290 -0.637483 0.730485 174 169 160 1 1
0.502821 -0.715170 0.244713 215 194 168 1 1
0.500183 -0.722868 0.233320 214 196 169 1 1
0.483217 -0.348019 0.142621 210 189 163 1 1
0.480079 -0.329148 0.151679 209 191 172 1 1
0.482376 -0.343087 0.159402 209 191 169 1 1
0.492207 -0.507735 0.262365 217 197 176 1 1
0.497420 -0.522133 0.274268 216 196 177 1 1
0.497626 -0.510205 0.275398 218 197 174 1 1
0.493797 -0.494025 0.274174 217 197 174 1 1
0.496822 -0.518498 0.281541 218 196 175 1 1
0.278980 -0.329845 0.042278 62 58 54 7 6
0.289937 -0.321849 0.036544 67 60 53 7 6
0.290565 -0.339847 0.046901 65 57 52 7 6
0.298150 -0.337852 0.042678 80 72 61 7 6
0.267753 -0.338981 0.046398 65 59 54 7 6
0.539322 -0.539437 0.668454 225 207 180 1 1
0.535736 -0.530123 0.651165 227 204 180 1 1
0.539251 -0.541934 0.656700 226 205 182 1 1
0.553281 -0.546994 0.640786 228 203 179 1 1
0.549463 -0.536087 0.637425 226 205 178 1 1
0.541617 -0.563222 0.548176 221 202 172 1 1
0.540431 -0.554806 0.537612 221 202 172 1 1
0.538465 -0.541014 0.569778 222 202 178 1 1
0.535512 -0.551655 0.565152 222 201 175 1 1
0.538605 -0.556239 0.554745 223 201 174 1 1
0.540375 -0.567938 0.564549 226 202 176 1 1
0.505924 -0.741222 0.303271 221 197 173 1 1
0.488510 -0.356024 0.191278 215 196 169 1 1
0.491012 -0.372185 0.225471 216 195 170 1 1
0.488111 -0.354631 0.212784 216 194 168 1 1
0.489698 -0.372745 0.199611 212 192 173 1 1
0.558373 -0.765142 0.568892 227 207 179 1 1
0.558667 -0.780289 0.560544 227 206 180 1 1
0.556006 -0.753052 0.565504 225 206 178 1 1
0.467410 -0.453432 0.079190 123 108 99 1 1
0.465060 -0.468660 0.064743 189 173 152 1 1
0.464415 -0.463145 0.072746 189 173 152 1 1
0.482688 -0.457070 0.088860 150 133 120 1 1
0.464762 -0.455410 0.064185 186 169 153 1 1
0.459486 -0.882905 -0.039169 250 234 208 1 1
0.454925 -0.480501 0.060006 162 146 131 7 6
0.437300 -0.493028 0.059029 126 112 100 7 6
-0.043986 -0.799744 0.033877 233 189 82 5 3
-0.044553 -0.769199 0.044353 233 189 85 5 3
-0.035476 -0.783016 0.041027 241 201 103 5 3
-0.021395 -0.787449 0.041179 254 216 103 5 3
-0.037118 -0.867553 0.025667 133 113 89 5 3
0.505906 -0.582202 0.687818 226 204 179 1 1
0.503228 -0.565482 0.682168 226 203 181 1 1
0.515777 -0.591978 0.684922 225 204 179 1 1
0.516161 -0.883394 0.362804 219 197 172 1 1
0.368713 -0.510877 0.061851 109 94 83 7 6
0.365323 -0.522399 0.063057 90 76 70 7 6
0.345500 -0.501743 0.063114 99 85 74 7 6
0.475758 -0.368157 0.692755 191 179 161 1 1
-0.156559 -0.765113 -0.201199 191 143 49 5 3
-0.021637 -0.892850 0.004589 221 185 114 5 3
-0.056692 -0.916427 -0.003332 116 99 84 5 3
-0.039107 -0.895548 0.013068 134 114 88 5 3
0.505038 -0.563837 0.302331 216 195 170 1 1
0.510575 -0.587058 0.311666 219 199 174 1 1
0.512886 -0.567683 0.283977 216 193 172 1 1
0.513705 -0.574936 0.308218 216 198 174 1 1
0.511864 -0.580420 0.290441 215 197 168 1 1
0.508230 -0.560902 0.289382 217 194 171 1 1
0.511012 -0.574719 0.299204 214 197 167 1 1
0.508110 -0.567646 0.314975 215 197 169 1 1
0.508525 -0.552319 0.323442 216 196 168 1 1
0.508316 -0.362846 0.668894 231 210 186 1 1
0.510337 -0.348510 0.665995 229 210 182 1 1
0.521680 -0.360913 0.635423 231 209 185 1 1
0.525988 -0.347311 0.631806 233 210 183 1 1
0.525570 -0.353351 0.657486 231 211 184 1 1
0.526540 -0.350916 0.652263 232 210 184 1 1
0.523925 -0.333861 0.653389 233 210 188 1 1
0.521442 -0.340555 0.659020 231 210 185 1 1
-0.113292 -0.490623 -0.023245 239 190 84 7 6
-0.103040 -0.498704 -0.022521 234 192 99 7 6
-0.097016 -0.492037 -0.034652 218 175 82 7 6
-0.109680 -0.496008 -0.007780 241 193 85 7 6
0.025498 -0.466981 0.039639 48 39 44 7 6
0.047970 -0.503201 0.050665 49 41 40 7 6
0.038020 -0.461997 0.050818 47 37 38 7 6
0.055824 -0.480371 0.057603 45 41 34 7 6
0.425922 -0.661702 -0.261339 118 94 64 0 0
0.512559 -0.658528 0.670665 226 206 179 1 1
0.522105 -0.645542 0.655315 223 206 180 1 1
0.512913 -0.637710 0.660096 226 206 179 1 1
0.516095 -0.645558 0.666818 227 207 181 1 1
0.514804 -0.630222 0.668650 225 205 181 1 1
0.518833 -0.651161 0.664558 225 207 179 1 1
0.354368 -0.324682 0.030799 87 76 66 7 6
0.348949 -0.332313 0.036867 77 65 56 7 6
0.368489 -0.322947 0.027439 78 67 59 7 6
0.525529 -0.448849 0.667582 230 210 183 1 1
0.519964 -0.440639 0.669015 231 210 184 1 1
0.540575 -0.454324 0.665582 230 210 184 1 1
0.550635 -0.451790 0.650806 231 209 185 1 1
0.544299 -0.433197 0.659539 229 210 181 1 1
0.537432 -0.441310 0.662038 230 209 181 1 1
0.545713 -0.440834 0.661511 230 210 183 1 1
0.529483 -0.444687 0.658551 229 210 184 1 1
0.549318 -0.437944 0.654361 230 210 184 1 1
-0.164322 -0.895958 -0.162249 69 32 17 5 3
0.505197 -0.594026 0.199145 212 194 170 1 1
0.505473 -0.574542 0.204409 208 190 168 1 1
0.506778 -0.557773 0.203489 208 190 163 1 1
0.505425 -0.584411 0.188313 209 190 163 1 1
0.506734 -0.597199 0.219518 214 193 169 1 1
0.504446 -0.562871 0.217340 211 192 167 1 1
0.524398 -0.447059 0.450463 224 203 179 1 1
0.524420 -0.441732 0.464471 225 204 179 1 1
0.533429 -0.833768 0.454273 223 202 175 1 1
0.536051 -0.851042 0.452835 223 201 175 1 1
0.492513 -0.516423 0.243704 215 194 172 1 1
0.489563 -0.505386 0.222813 214 194 176 1 1
0.495885 -0.524411 0.263691 216 195 171 1 1
0.488670 -0.499610 0.244735 215 196 172 1 1
0.492652 -0.931441 0.233352 212 195 165 1 1
0.500740 -0.927527 0.247027 215 194 168 1 1
0.493859 -0.901801 0.247102 216 194 170 1 1
0.492465 -0.910896 0.234328 216 194 169 1 1
0.494530 -0.919195 0.232341 214 193 171 1 1
0.496809 -0.926957 0.238383 212 194 167 1 1
0.499000 -0.914984 0.252174 214 195 166 1 1
0.531766 -0.510612 0.506401 223 202 175 1 1
0.532550 -0.516571 0.491524 223 203 182 1 1
0.502507 -0.721672 0.006322 145 129 111 1 1
0.492875 -0.792086 0.121731 217 195 171 1 1
0.492426 -0.800269 0.123655 217 195 171 1 1
0.485402 -0.823106 0.152898 217 196 171 1 1
0.483186 -0.804459 0.120846 216 195 171 1 1
0.486929 -0.800354 0.146181 217 196 171 1 1
0.487881 -0.817200 0.149116 216 196 171 1 1
0.484393 -0.810749 0.135368 217 196 171 1 1
0.492179 -0.800124 0.136485 217 196 170 1 1
0.429429 -0.278136 0.011308 111 96 82 1 1
0.426943 -0.273183 0.010724 83 73 64 1 1
0.448635 -0.275542 0.021314 173 157 136 1 1
0.442251 -0.278570 0.018390 106 95 83 1 1
0.507833 -0.545140 0.292679 217 193 168 1 1
0.504036 -0.552921 0.302765 216 194 167 1 1
0.505976 -0.610093 0.275069 218 198 173 1 1
0.507429 -0.619827 0.271571 218 196 176 1 1
0.505473 -0.623754 0.258626 216 198 171 1 1
0.508264 -0.622833 0.286240 218 198 177 1 1
0.518802 -0.389194 0.482818 225 205 176 1 1
0.527043 -0.399569 0.478248 225 206 177 1 1
0.481927 -0.843958 0.104189 216 195 171 1 1
0.487307 -0.854623 0.112158 217 195 169 1 1
0.486453 -0.868176 0.107331 213 193 165 1 1
0.484134 -0.854880 0.099120 217 193 167 1 1
0.478550 -0.858214 0.090103 216 193 169 1 1
0.483743 -0.842495 0.124471 217 195 170 1 1
0.483205 -0.848505 0.119906 217 195 170 1 1
0.492736 -0.835041 0.109877 217 195 171 1 1
0.482676 -0.832765 0.114106 218 195 171 1 1
0.522031 -0.756318 0.398415 220 201 176 1 1
0.523024 -0.773448 0.398350 220 200 172 1 1
0.436063 -0.529589 0.058910 98 85 78 7 6
0.434007 -0.547075 0.059275 109 96 87 7 6
0.456139 -0.515785 0.060651 116 103 91 7 6
-0.107559 -0.710107 -0.242361 87 70 51 5 3
0.553727 -0.575610 0.669360 224 205 178 1 1
0.549548 -0.593102 0.688329 226 203 173 1 1
0.544199 -0.592920 0.675098 224 202 180 1 1
0.534338 -0.589163 0.687490 225 203 179 1 1
0.538116 -0.599781 0.680761 226 202 176 1 1
0.548334 -0.506156 0.642883 227 209 181 1 1
0.542367 -0.501600 0.647571 228 208 180 1 1
0.547781 -0.524102 0.641712 227 205 180 1 1
0.532194 -0.512162 0.656863 227 205 182 1 1
0.537232 -0.518922 0.657501 226 204 182 1 1
0.549449 -0.494629 0.639471 229 207 181 1 1
0.527936 -0.506267 0.648344 229 209 182 1 1
0.537298 -0.516518 0.650512 225 206 178 1 1
0.542424 -0.507361 0.654500 228 209 181 1 1
0.544631 -0.648896 0.529195 222 202 178 1 1
0.546049 -0.637796 0.537438 223 202 175 1 1
0.540461 -0.641277 0.515785 223 201 176 1 1
0.541848 -0.625689 0.528110 222 202 174 1 1
0.536156 -0.628030 0.515939 222 202 171 1 1
0.541451 -0.623690 0.537991 224 202 177 1 1
0.544048 -0.648399 0.515195 222 201 174 1 1
0.509778 -0.440490 0.389443 225 200 179 1 1
0.506900 -0.417101 0.394773 222 202 175 1 1
0.189551 -0.447531 0.075285 64 58 52 7 6
0.200989 -0.452650 0.077295 62 58 53 7 6
0.190357 -0.460943 0.081712 63 60 59 7 6
0.210837 -0.461318 0.081674 66 59 61 7 6
0.222694 -0.447837 0.073642 65 60 57 7 6
-0.028237 -0.676699 0.026073 49 37 26 7 6
0.477780 -0.558691 0.715713 171 163 150 1 1
-0.099574 -0.631162 -0.010321 229 179 59 5 3
0.543385 -0.592479 0.533781 222 203 178 1 1
0.535886 -0.573466 0.508923 223 203 176 1 1
0.542426 -0.581272 0.528176 224 204 177 1 1
0.480683 -0.792766 0.093424 219 196 170 1 1
0.479089 -0.781690 0.089431 218 196 170 1 1
0.487070 -0.783934 0.128197 217 195 171 1 1
0.480254 -0.787865 0.121427 217 195 170 1 1
0.479063 -0.770639 0.113987 216 194 171 1 1
0.481076 -0.766189 0.125861 215 195 169 1 1
0.481528 -0.752219 0.117291 215 196 167 1 1
-0.110554 -0.450797 -0.048230 63 44 34 7 6
-0.110798 -0.454378 -0.060890 63 43 31 7 6
-0.096880 -0.450115 -0.035830 92 74 56 7 6
0.559595 -0.714758 0.652891 228 207 178 1 1
0.528593 -0.509226 0.672297 230 206 180 1 1
0.528895 -0.527405 0.676932 224 207 178 1 1
0.522565 -0.515719 0.674657 229 208 179 1 1
0.480165 -0.922450 -0.030471 212 194 172 1 1
0.483331 -0.926432 -0.022289 198 180 159 1 1
0.477058 -0.914124 -0.021547 214 196 171 1 1
0.494455 -0.929262 -0.025573 197 177 156 1 1
0.475055 -0.928698 -0.034358 209 191 170 1 1
0.487212 -0.938218 -0.011104 190 170 150 1 1
-0.172106 -0.568076 -0.255897 45 28 12 5 3
-0.168947 -0.584300 -0.248186 32 27 20 5 3
0.494811 -0.569288 0.112719 198 179 159 1 1
0.493176 -0.578400 0.120782 201 181 161 1 1
0.525997 -0.808256 0.398194 220 201 174 1 1
0.523822 -0.796179 0.406623 222 199 174 1 1
0.528436 -0.784990 0.399973 223 200 176 1 1
0.524159 -0.789905 0.389186 222 198 176 1 1
0.524579 -0.778764 0.409649 221 200 180 1 1
-0.133557 -0.683721 -0.088524 191 149 52 5 3
-0.122655 -0.713142 -0.067710 187 146 55 5 3
-0.128237 -0.691644 -0.074921 191 149 57 5 3
-0.131238 -0.716280 -0.088287 195 154 59 5 3
-0.133429 -0.702285 -0.092356 191 146 56 5 3
-0.141684 -0.685647 -0.106214 182 137 46 5 3
0.520268 -0.581547 0.431980 221 201 178 1 1
0.521061 -0.588360 0.409791 223 199 177 1 1
0.525138 -0.583523 0.445497 222 200 176 1 1
0.488339 -0.313425 0.182967 216 196 171 1 1
0.351283 -0.391117 0.052164 93 80 69 7 6
0.368877 -0.415250 0.054727 88 74 68 7 6
0.519554 -0.359035 0.533710 227 208 179 1 1
0.525547 -0.388187 0.526215 226 206 178 1 1
0.519825 -0.373675 0.514706 225 205 180 1 1
0.526064 -0.387170 0.539377 228 205 182 1 1
0.499050 -0.315368 0.350913 222 203 179 1 1
0.502019 -0.323899 0.368393 223 203 180 1 1
0.505285 -0.313319 0.377976 222 204 178 1 1
0.502327 -0.299851 0.380042 223 205 178 1 1
-0.139507 -0.725621 -0.116889 190 146 50 5 3
-0.143278 -0.701430 -0.116066 188 144 53 5 3
0.523941 -0.440687 0.436404 224 204 178 1 1
-0.179388 -0.845686 -0.220528 198 153 50 5 3
-0.183412 -0.855904 -0.208820 199 151 56 5 3
0.535009 -0.858789 0.439868 222 201 177 1 1
0.529256 -0.866746 0.423930 222 200 177 1 1
0.539511 -0.848303 0.420912 223 202 176 1 1
0.535299 -0.849155 0.431519 222 201 177 1 1
0.531966 -0.856088 0.428452 223 200 180 1 1
0.527320 -0.846787 0.420091 222 200 178 1 1
0.321450 -0.461678 0.066373 81 69 66 7 6
0.346277 -0.453933 0.063576 79 68 66 7 6
0.345792 -0.466378 0.063028 90 76 69 7 6
0.320476 -0.477974 0.068519 80 66 61 7 6
0.341588 -0.475642 0.065748 85 72 63 7 6
0.497859 -0.694574 0.661552 227 206 181 1 1
0.507874 -0.685445 0.660974 229 206 182 1 1
0.519781 -0.686768 0.656985 228 207 181 1 1
0.500468 -0.700776 0.657269 229 207 183 1 1
0.500701 -0.683314 0.672210 227 207 182 1 1
0.529634 -0.374277 0.591413 229 207 181 1 1
0.523712 -0.388016 0.569869 228 207 180 1 1
0.524345 -0.372698 0.575951 228 208 179 1 1
0.528648 -0.386297 0.595934 229 208 183 1 1
0.530888 -0.391286 0.581836 228 206 184 1 1
0.532318 -0.374032 0.609016 229 209 184 1 1
0.531825 -0.365411 0.600062 229 208 185 1 1
0.535828 -0.352534 0.607320 230 209 184 1 1
0.528190 -0.357888 0.589202 228 208 183 1 1
0.016278 -0.452978 0.029655 44 36 37 7 6
0.029186 -0.452676 0.041863 43 36 35 7 6
0.484388 -0.518352 0.085152 174 158 141 1 1
0.465267 -0.512022 0.064139 180 164 147 1 1
0.473779 -0.541033 0.077519 104 90 85 1 1
0.470979 -0.528673 0.075761 107 94 89 1 1
0.469641 -0.518238 0.068468 138 121 110 1 1
0.464813 -0.538280 0.064058 88 76 68 1 1
0.464281 -0.501757 0.072549 112 100 93 1 1
0.480423 -0.503835 0.082180 109 95 90 1 1
0.516202 -0.503769 0.378685 222 201 175 1 1
0.509583 -0.484538 0.365224 220 201 174 1 1
0.468498 -0.665881 0.704398 172 164 153 1 1
0.472074 -0.665079 0.724922 171 166 153 1 1
-0.049703 -0.451178 -0.070999 68 50 35 7 6
-0.049475 -0.435767 -0.070230 64 43 33 7 6
-0.038872 -0.455553 -0.072496 59 41 32 7 6
-0.047127 -0.464389 -0.070549 72 53 38 7 6
0.040393 -0.419662 0.056946 32 31 25 7 6
0.029782 -0.423977 0.051133 34 31 27 7 6
0.249982 -0.589489 0.076309 74 62 61 7 6
0.264580 -0.582610 0.075135 71 61 60 7 6
0.247356 -0.600113 0.077166 66 55 58 7 6
0.042610 -0.421030 0.064666 42 34 38 7 6
0.050793 -0.427429 0.062260 42 37 35 7 6
0.060662 -0.440548 0.065685 49 41 47 7 6
0.068534 -0.429644 0.067790 26 23 20 7 6
0.482635 -0.821715 0.089094 219 197 172 1 1
0.484343 -0.812958 0.078095 220 197 174 1 1
0.489514 -0.794313 0.075419 218 198 169 1 1
0.478963 -0.800114 0.062925 220 199 171 1 1
0.483371 -0.793235 0.059812 220 198 174 1 1
0.488435 -0.802997 0.087902 219 195 170 1 1
-0.124813 -0.733013 -0.074340 190 147 56 5 3
-0.133773 -0.730779 -0.098283 178 137 48 5 3
0.507521 -0.327484 0.398027 225 203 179 1 1
0.506562 -0.346960 0.406622 223 203 179 1 1
0.506932 -0.361761 0.416087 224 204 181 1 1
0.226678 -0.340140 0.047068 50 46 43 7 6
0.256726 -0.327400 0.038930 43 36 33 7 6
0.380518 -0.583165 0.057125 147 133 118 7 6
0.391208 -0.584739 0.054333 138 122 108 7 6
0.371659 -0.564863 0.056762 128 111 101 7 6
0.384265 -0.562340 0.055021 133 117 104 7 6
0.379215 -0.553935 0.058748 114 97 87 7 6
0.409694 -0.563301 0.056329 130 114 101 7 6
0.405145 -0.548088 0.057193 119 103 92 7 6
0.411529 -0.574707 0.052644 145 128 113 7 6
0.280479 -0.406742 0.065508 69 59 59 7 6
0.255255 -0.425870 0.068700 67 58 58 7 6
0.230851 -0.462555 0.078526 67 57 60 7 6
0.239837 -0.476690 0.074977 68 61 59 7 6
0.251219 -0.459991 0.074954 64 58 56 7 6
0.516263 -0.358062 0.512446 228 205 181 1 1
0.521024 -0.348592 0.533725 227 207 179 1 1
0.516610 -0.352021 0.545334 228 208 179 1 1
0.518455 -0.339423 0.518333 227 205 183 1 1
0.520389 -0.347397 0.517947 227 205 184 1 1
0.518058 -0.422646 0.670534 229 210 183 1 1
0.506497 -0.436600 0.675256 230 209 183 1 1
0.487702 -0.418546 0.679545 210 191 167 1 1
0.491226 -0.436107 0.680812 225 205 177 1 1
0.487280 -0.441811 0.685356 189 175 155 1 1
0.491993 -0.446330 0.683352 209 191 170 1 1
0.006273 -0.821637 0.026849 244 204 114 5 3
0.002588 -0.795883 0.040281 253 217 96 5 3
0.005026 -0.803498 0.037665 252 217 97 5 3
0.561554 -0.760329 0.550701 225 205 178 1 1
0.561371 -0.753737 0.550823 227 204 179 1 1
0.506472 -0.692293 0.256443 214 195 166 1 1
0.504444 -0.672287 0.262325 215 194 170 1 1
0.507296 -0.671441 0.271866 213 196 166 1 1
0.506057 -0.694229 0.268074 213 193 173 1 1
0.506895 -0.705923 0.281451 215 195 169 1 1
0.464389 -0.932099 -0.051187 227 208 181 1 1
0.466084 -0.939408 -0.045831 231 215 190 1 1
0.465456 -0.928410 -0.040283 226 209 186 1 1
0.473505 -0.935483 -0.041883 229 213 190 1 1
0.453926 -0.937199 -0.060064 233 216 189 1 1
0.455969 -0.926711 -0.053142 232 214 189 1 1
0.486550 -0.432229 0.188516 214 190 171 1 1
0.490424 -0.429050 0.217384 214 194 171 1 1
0.487198 -0.451345 0.190250 212 192 168 1 1
0.489253 -0.347561 0.228545 217 197 174 1 1
0.490624 -0.746419 -0.004297 139 124 107 1 1
0.004162 -0.725394 0.040912 254 212 99 5 3
0.011765 -0.737839 0.046590 252 214 99 5 3
-0.014088 -0.409121 -0.015605 25 22 17 7 6
-0.013526 -0.410913 -0.005007 74 67 60 7 6
0.477840 -0.347294 0.679121 189 172 151 1 1
0.479676 -0.332398 0.683921 189 176 158 1 1
0.486958 -0.323901 0.688618 189 176 158 1 1
0.480782 -0.328000 0.673646 192 173 150 1 1
0.484147 -0.335858 0.671097 208 192 164 1 1
0.481152 -0.341746 0.694931 190 178 165 1 1
0.482154 -0.322677 0.678704 189 174 153 1 1
0.496458 -0.558191 0.235901 211 192 166 1 1
0.499586 -0.569081 0.239870 213 192 172 1 1
0.502454 -0.563912 0.251038 213 192 172 1 1
0.503013 -0.593539 0.243923 216 195 169 1 1
0.503865 -0.581981 0.243675 215 196 169 1 1
0.506838 -0.586078 0.225909 214 195 168 1 1
0.501697 -0.569384 0.224136 213 194 168 1 1
0.494715 -0.520209 0.103093 201 181 154 1 1
0.493286 -0.520673 0.121921 203 183 160 1 1
0.498061 -0.499524 0.114449 203 182 158 1 1
0.496959 -0.497726 0.108034 199 180 155 1 1
0.494697 -0.486723 0.119618 203 181 162 1 1
0.485637 -0.694495 0.048257 153 136 116 1 1
0.511809 -0.395272 0.418351 222 203 177 1 1
0.507195 -0.379792 0.419027 224 204 181 1 1
0.509140 -0.373548 0.426211 222 203 180 1 1
0.510531 -0.369589 0.443676 225 205 174 1 1
-0.002618 -0.845036 0.021157 181 150 95 5 3
-0.013037 -0.851503 0.028058 139 113 85 5 3
-0.009520 -0.837017 0.029640 198 164 97 5 3
0.524540 -0.376550 0.535606 228 205 184 1 1
0.531344 -0.381592 0.548596 228 206 180 1 1
0.519727 -0.366842 0.540362 227 206 180 1 1
0.525158 -0.377651 0.563571 229 206 182 1 1
0.524152 -0.391851 0.557371 228 206 179 1 1
0.523899 -0.349962 0.560785 229 206 182 1 1
0.314946 -0.591197 0.066120 117 104 92 7 6
0.300431 -0.564980 0.071494 90 77 73 7 6
0.331015 -0.589882 0.063219 125 111 98 7 6
0.319767 -0.575091 0.067451 113 100 90 7 6
0.348517 -0.575477 0.063307 106 92 87 7 6
-0.088142 -0.843313 0.004853 222 179 81 5 3
-0.058557 -0.859908 0.022429 186 156 85 5 3
-0.082761 -0.866983 0.016201 124 101 75 5 3
-0.082814 -0.847940 0.019813 219 174 81 5 3
-0.077864 -0.837980 0.024137 201 165 85 5 3
-0.074199 -0.856434 0.022465 138 113 79 5 3
0.253261 -0.509662 0.075913 68 59 60 7 6
0.247721 -0.535764 0.078244 62 51 53 7 6
0.544423 -0.544041 0.673117 225 206 180 1 1
0.546339 -0.535171 0.673754 224 206 179 1 1
0.127926 -0.741580 0.032492 130 117 106 7 6
0.118466 -0.747864 0.037302 106 85 75 7 6
0.137332 -0.746717 0.030691 109 91 77 7 6
0.119899 -0.720924 0.053929 81 68 56 7 6
0.108583 -0.738278 0.046555 76 57 51 7 6
0.537239 -0.846993 0.406262 223 201 177 1 1
-0.152875 -0.729561 -0.205674 184 138 48 5 3
-0.155220 -0.709818 -0.191653 186 139 45 5 3
0.490295 -0.806193 0.227041 216 196 170 1 1
0.485278 -0.816471 0.192352 217 195 170 1 1
0.493930 -0.823773 0.201955 218 195 171 1 1
0.490675 -0.820691 0.207581 218 193 173 1 1
0.487068 -0.794948 0.199341 217 196 169 1 1
0.491731 -0.807052 0.204094 217 195 173 1 1
0.491186 -0.798979 0.212419 218 195 172 1 1
0.490529 -0.786621 0.194083 215 195 167 1 1
0.489052 -0.766935 0.208985 217 196 168 1 1
0.492929 -0.777917 0.214146 217 195 171 1 1
0.494066 -0.599766 0.100236 201 183 160 1 1
0.491924 -0.582359 0.102874 199 180 161 1 1
0.521747 -0.748983 0.381841 221 198 173 1 1
0.507889 -0.609615 0.332696 221 197 173 1 1
0.508289 -0.592300 0.333377 219 198 173 1 1
0.508693 -0.589636 0.344183 221 199 173 1 1
0.508597 -0.614240 0.344509 222 199 173 1 1
0.504010 -0.601483 0.325062 220 198 174 1 1
0.439834 -0.602403 0.054645 151 135 121 7 6
0.441634 -0.616955 0.042828 156 141 123 1 1
0.455675 -0.607605 0.058663 171 154 140 7 6
0.456000 -0.606793 0.040789 70 63 57 1 1
0.463011 -0.611158 0.036207 70 63 57 1 1
0.450694 -0.618581 0.041066 123 110 99 1 1
0.446171 -0.597122 0.043153 147 130 115 1 1
0.442138 -0.625763 0.050204 174 158 145 1 1
0.455608 -0.616009 0.055657 161 145 132 7 6
0.424507 -0.604153 0.048825 130 114 102 1 1
0.456435 -0.436851 0.058656 180 166 149 7 6
0.448297 -0.439348 0.055638 149 134 120 7 6
0.457539 -0.404257 0.056111 186 169 151 7 6
0.502896 -0.543190 0.270661 217 194 169 1 1
0.504285 -0.630273 0.301646 217 198 173 1 1
0.508790 -0.912051 0.308497 217 196 170 1 1
0.503685 -0.899309 0.293709 217 197 168 1 1
0.509100 -0.903029 0.318599 218 196 171 1 1
0.541032 -0.462834 0.583583 226 207 183 1 1
0.510792 -0.348689 0.433009 222 205 178 1 1
0.510053 -0.348726 0.420066 225 203 180 1 1
0.511100 -0.362131 0.436838 223 204 177 1 1
0.510634 -0.328879 0.440202 224 204 179 1 1
0.514234 -0.347073 0.442210 224 203 181 1 1
0.045193 -0.700057 0.002127 48 28 13 5 3
0.495988 -0.507883 0.210769 214 193 170 1 1
0.501015 -0.518136 0.206330 212 192 167 1 1
0.494163 -0.498651 0.199580 213 191 166 1 1
0.494134 -0.517286 0.221687 213 193 172 1 1
0.501360 -0.522959 0.216695 213 193 171 1 1
0.494472 -0.496589 0.213416 214 194 173 1 1
-0.040425 -0.856393 0.029352 135 112 84 5 3
0.546696 -0.618444 0.688080 213 191 165 1 1
0.553343 -0.610471 0.691991 213 191 165 1 1
0.556697 -0.625721 0.691125 213 193 169 1 1
0.521248 -0.363981 0.553406 230 205 184 1 1
0.517487 -0.334083 0.545059 227 206 178 1 1
0.520641 -0.343408 0.565716 228 208 181 1 1
-0.173784 -0.477943 -0.098079 167 128 53 0 0
-0.160481 -0.496073 -0.122855 199 156 53 0 0
0.481019 -0.870894 0.080952 212 192 169 1 1
0.487938 -0.882404 0.075369 215 192 168 1 1
0.483100 -0.882280 0.094507 215 193 167 1 1
0.485571 -0.887581 0.070538 213 191 166 1 1
0.488748 -0.872537 0.065076 214 191 170 1 1
0.458018 -0.315341 0.037494 95 82 71 1 1
0.451108 -0.309410 0.030455 181 163 145 7 6
0.458880 -0.307459 0.044295 88 77 72 1 1
0.463393 -0.305186 0.054180 112 99 90 1 1
0.448945 -0.323544 0.035955 117 99 87 7 6
0.458174 -0.291888 0.033300 188 169 150 1 1
-0.066598 -0.439951 -0.072631 59 38 29 7 6
-0.060183 -0.432059 -0.069509 54 39 23 7 6
-0.078504 -0.417670 -0.071417 48 34 20 7 6
-0.056698 -0.422561 -0.070996 50 35 22 7 6
-0.075550 -0.451250 -0.074317 61 43 28 7 6
0.486144 -0.308410 0.164533 214 194 170 1 1
0.485416 -0.274278 0.157694 215 195 171 1 1
0.485925 -0.292922 0.184227 216 197 169 1 1
0.484843 -0.280143 0.169735 217 196 173 1 1
0.484350 -0.277278 0.183819 218 197 175 1 1
0.493068 -0.529943 0.089830 172 157 142 1 1
0.467865 -0.548337 0.066613 88 76 71 1 1
0.495019 -0.552513 0.092316 191 174 158 1 1
0.470897 -0.551369 0.077870 88 78 72 1 1
0.486580 -0.555373 0.083454 99 85 79 1 1
0.489865 -0.536605 0.083684 98 84 78 1 1
0.489283 -0.481355 0.096769 200 179 158 1 1
0.490059 -0.478989 0.111725 201 180 159 1 1
0.489534 -0.466499 0.116557 201 181 165 1 1
0.490422 -0.470913 0.103662 198 178 158 1 1
0.486392 -0.448392 0.116712 201 182 161 1 1
0.487000 -0.474135 0.123774 202 180 161 1 1
-0.050498 -0.739624 0.034862 253 212 98 5 3
-0.056494 -0.777564 0.038515 242 200 93 5 3
-0.065072 -0.761807 0.035317 241 197 95 5 3
-0.055885 -0.760374 0.041342 253 214 107 5 3
-0.055093 -0.752202 0.040633 253 214 108 5 3
0.446306 -0.390188 0.048119 109 93 80 7 6
0.444042 -0.403329 0.050878 147 130 116 7 6
-0.016026 -0.593328 0.032049 247 203 76 7 6
-0.010832 -0.576484 0.032587 253 209 89 7 6
-0.166487 -0.609652 -0.134697 183 140 43 5 3
-0.176515 -0.601369 -0.156003 183 139 44 5 3
-0.173571 -0.595946 -0.141258 183 139 48 5 3
0.527209 -0.662006 0.416787 219 198 176 1 1
0.534075 -0.680791 0.431103 219 198 174 1 1
0.530313 -0.674977 0.420620 218 198 179 1 1
0.531115 -0.661572 0.430982 222 198 171 1 1
0.529080 -0.679265 0.439077 219 200 174 1 1
0.530462 -0.661096 0.442878 220 197 171 1 1
0.500579 -0.917267 0.265567 217 195 168 1 1
0.494160 -0.923320 0.282749 216 195 170 1 1
0.553377 -0.569040 0.627498 227 205 179 1 1
-0.132551 -0.673747 -0.079031 194 149 56 5 3
-0.144346 -0.666526 -0.105792 192 147 57 5 3
-0.140111 -0.661058 -0.096136 181 138 46 5 3
0.159584 -0.622876 0.082787 54 49 48 7 6
0.155725 -0.641270 0.081070 59 52 53 7 6
0.180219 -0.656553 0.077776 57 50 54 7 6
0.174886 -0.623518 0.083425 54 49 51 7 6
0.485364 -0.485255 0.162147 210 189 164 1 1
0.497222 -0.479759 0.180483 211 191 166 1 1
0.489372 -0.471399 0.184063 210 190 166 1 1
0.496011 -0.485721 0.170331 209 189 165 1 1
0.494256 -0.474681 0.169147 210 189 170 1 1
0.485547 -0.466782 0.160968 209 188 170 1 1
-0.101719 -0.825753 -0.026973 216 174 80 5 3
-0.101529 -0.845613 -0.023359 216 176 80 5 3
0.477283 -0.344552 0.075719 179 161 145 1 1
0.478410 -0.310142 0.090137 204 185 159 1 1
0.478455 -0.336017 0.077029 195 177 156 1 1
0.476426 -0.301569 0.072653 200 181 158 1 1
0.473197 -0.343639 0.065554 183 166 151 1 1
-0.151187 -0.654709 -0.125157 187 143 45 5 3
-0.147296 -0.662747 -0.117141 182 136 47 5 3
0.477706 -0.344132 0.094532 202 182 161 1 1
0.480868 -0.345722 0.111695 210 186 164 1 1
0.481318 -0.332404 0.124330 210 186 164 1 1
0.483076 -0.319911 0.121160 211 185 166 1 1
0.481273 -0.324486 0.103924 209 186 160 1 1
0.213525 -0.386024 0.060823 53 47 43 7 6
0.513536 -0.669434 0.368263 219 196 171 1 1
0.522478 -0.662124 0.376484 219 196 171 1 1
0.420991 -0.678435 -0.264916 139 109 68 0 0
0.423793 -0.685982 -0.252104 162 128 77 0 0
0.419142 -0.696089 -0.243601 164 132 77 0 0
0.411998 -0.684627 -0.233266 162 131 83 0 0
0.485407 -0.714145 0.673494 228 207 177 1 1
0.509695 -0.730087 0.672551 226 206 179 1 1
0.487922 -0.733998 0.667090 226 207 176 1 1
0.474695 -0.731274 0.688900 225 205 182 1 1
0.528748 -0.796668 0.438511 221 201 176 1 1
0.521809 -0.789624 0.418219 222 202 172 1 1
0.524837 -0.780065 0.431190 223 202 178 1 1
0.528689 -0.768784 0.448128 221 201 176 1 1
0.533506 -0.782640 0.441543 223 201 177 1 1
0.542839 -0.660968 0.507396 224 202 172 1 1
0.548735 -0.659423 0.546937 222 202 178 1 1
0.544873 -0.671874 0.519705 222 201 179 1 1
0.541816 -0.660578 0.522041 222 202 174 1 1
0.503314 -0.503690 0.340580 218 200 171 1 1
0.501922 -0.507887 0.328937 219 201 171 1 1
0.500506 -0.479658 0.339819 220 200 177 1 1
0.229046 -0.624994 0.078134 115 101 88 7 6
0.248592 -0.635008 0.069037 113 99 85 7 6
0.237147 -0.616235 0.075540 78 69 62 7 6
0.484986 -0.715021 0.100230 212 193 166 1 1
0.484230 -0.704193 0.115392 212 192 170 1 1
-0.210687 -0.534173 -0.189406 78 54 19 5 3
-0.213982 -0.525490 -0.175601 124 94 35 5 3
-0.090480 -0.929776 -0.037697 119 101 80 5 3
-0.088046 -0.926911 -0.057816 152 125 88 5 3
-0.081180 -0.933557 -0.054180 138 116 88 5 3
-0.082645 -0.933559 -0.037330 108 92 74 5 3
0.529737 -0.441292 0.562119 228 206 181 1 1
0.537491 -0.451762 0.571877 227 206 181 1 1
0.530967 -0.436597 0.572527 228 205 180 1 1
0.538116 -0.462578 0.549225 225 206 179 1 1
0.527019 -0.439387 0.551708 228 206 181 1 1
0.507052 -0.727032 0.301950 219 198 170 1 1
0.513800 -0.747055 0.320539 219 198 174 1 1
0.505670 -0.703884 0.301471 217 198 170 1 1
0.510142 -0.735488 0.295067 217 194 170 1 1
0.002926 -0.413614 0.015273 29 27 21 7 6
0.006607 -0.425390 0.027368 37 31 26 7 6
0.011703 -0.414020 0.024244 32 24 22 7 6
0.528215 -0.843565 0.383088 220 200 173 1 1
0.516611 -0.871799 0.364708 220 199 174 1 1
0.527489 -0.871362 0.376946 221 199 175 1 1
-0.001711 -0.453011 0.001666 42 31 31 7 6
0.519745 -0.852679 0.356665 220 199 172 1 1
0.006578 -0.447445 0.018840 41 32 29 7 6
-0.000004 -0.421691 0.012649 41 30 32 7 6
0.005734 -0.432149 0.021580 38 33 29 7 6
0.512564 -0.849516 0.344061 220 199 176 1 1
0.176392 -0.686698 0.062061 66 57 53 7 6
0.507301 -0.666612 0.242909 214 194 167 1 1
-0.202031 -0.547566 -0.167744 182 138 42 5 3
-0.186918 -0.555377 -0.133535 185 139 52 5 3
-0.206196 -0.537555 -0.159569 182 138 47 5 3
0.502302 -0.916629 0.292257 217 196 167 1 1
0.064421 -0.765735 0.035846 216 199 174 7 6
0.038609 -0.755681 0.043912 246 214 119 5 3
0.048232 -0.760143 0.040442 239 210 135 7 6
0.050599 -0.774930 0.033969 238 221 194 5 3
0.060214 -0.759965 0.042481 245 212 122 7 6
0.516241 -0.502982 0.391237 222 201 174 1 1
0.514401 -0.515395 0.387878 222 201 178 1 1
0.510140 -0.503992 0.401044 222 201 179 1 1
0.512248 -0.515335 0.407054 222 201 176 1 1
-0.134460 -0.763142 -0.112598 192 148 60 5 3
-0.131932 -0.773323 -0.100711 184 143 43 5 3
0.445808 -0.612130 -0.263870 116 103 84 0 0
0.238982 -0.444771 0.071079 71 61 54 7 6
0.226108 -0.431502 0.069344 71 63 59 7 6
0.539121 -0.735285 0.457464 220 197 181 1 1
0.531393 -0.752600 0.442535 222 201 176 1 1
0.535183 -0.755976 0.472734 223 202 178 1 1
0.537288 -0.720840 0.460745 223 199 180 1 1
0.539066 -0.755828 0.459864 222 200 178 1 1
0.426794 -0.674309 -0.249007 138 122 94 0 0
0.425031 -0.671121 -0.235699 153 135 107 0 0
0.527894 -0.356342 0.624603 230 208 184 1 1
0.111046 -0.470299 0.075897 56 49 51 7 6
0.136137 -0.476242 0.080371 56 50 47 7 6
0.541272 -0.543066 0.529846 223 201 176 1 1
0.531326 -0.793875 0.451018 220 201 177 1 1
0.535809 -0.782678 0.455449 223 201 177 1 1
0.534886 -0.788195 0.460218 222 202 179 1 1
0.539769 -0.799996 0.478303 224 202 176 1 1
0.534358 -0.781833 0.467801 222 202 176 1 1
-0.173905 -0.568975 -0.098875 207 158 56 5 3
0.504189 -0.554850 0.185942 210 189 166 1 1
0.505415 -0.548324 0.204403 210 192 164 1 1
0.499023 -0.550018 0.216678 211 190 168 1 1
0.485903 -0.870309 0.046505 215 193 168 1 1
0.490191 -0.883001 0.059474 213 191 166 1 1
0.508864 -0.574052 0.335156 220 199 172 1 1
0.512164 -0.583257 0.319820 218 197 173 1 1
0.511024 -0.582965 0.351994 220 199 173 1 1
0.508920 -0.574097 0.350740 220 199 173 1 1
0.512631 -0.562111 0.340813 216 197 173 1 1
0.022101 -0.535304 0.037099 231 191 86 7 6
0.036792 -0.553376 0.045263 50 42 34 7 6
0.283074 -0.437380 0.068893 72 61 63 7 6
0.286289 -0.470912 0.071091 69 60 59 7 6
0.291216 -0.457892 0.068820 70 60 59 7 6
0.264445 -0.447795 0.069892 71 60 62 7 6
0.427488 -0.620901 0.047867 144 128 112 1 1
0.417525 -0.610139 0.050964 153 136 122 1 1
0.420748 -0.613683 0.045802 143 127 110 1 1
0.432781 -0.615629 0.048710 153 136 118 7 6
0.438387 -0.629198 0.042640 134 120 107 1 1
0.416263 -0.620513 0.048479 149 132 117 1 1
0.433382 -0.330226 0.034296 107 90 81 7 6
0.409993 -0.338801 0.033943 98 82 74 7 6
0.525776 -0.499292 0.677474 227 208 185 1 1
0.523755 -0.489734 0.677059 227 206 181 1 1
0.537391 -0.485144 0.669886 228 209 180 1 1
0.494928 -0.464688 0.270212 217 198 177 1 1
0.478195 -0.925192 0.005567 197 177 156 1 1
0.485656 -0.931839 0.006526 197 175 156 1 1
0.485434 -0.940077 0.021642 197 175 151 1 1
0.485316 -0.933858 0.024363 199 177 154 1 1
0.478040 -0.918380 0.015084 200 180 157 1 1
-0.077345 -0.752583 0.004308 221 178 83 5 3
-0.081352 -0.768803 -0.002273 210 165 79 5 3
0.481936 -0.434937 0.732027 168 163 147 1 1
0.481873 -0.450907 0.724263 166 161 143 1 1
0.490127 -0.447499 0.734031 166 161 143 1 1
0.484490 -0.420474 0.731263 169 165 146 1 1
0.474390 -0.390486 0.724884 167 163 144 1 1
0.478374 -0.400487 0.726507 165 162 146 1 1
0.506652 -0.631104 0.751350 179 175 165 1 1
0.525319 -0.629601 0.763374 169 167 155 1 1
0.503344 -0.602086 0.743843 158 155 143 1 1
0.512726 -0.617576 0.746433 175 173 162 1 1
0.517690 -0.607119 0.746378 160 159 149 1 1
0.471623 -0.508489 0.733136 162 155 138 1 1
0.480638 -0.527705 0.734695 161 153 137 1 1
0.470116 -0.524332 0.740061 156 149 132 1 1
0.467288 -0.531565 0.736959 144 137 122 1 1
0.478538 -0.513312 0.738004 156 149 132 1 1
0.508498 -0.314471 0.734811 131 124 113 1 1
0.487857 -0.304215 0.732648 153 146 133 1 1
0.472478 -0.556744 0.736759 123 121 106 1 1
0.494047 -0.397511 0.736634 91 88 81 1 1
0.501376 -0.407885 0.737767 131 127 114 1 1
0.497129 -0.637265 0.776508 175 169 158 1 1
0.479921 -0.343560 0.739380 132 127 114 1 1
0.472201 -0.343077 0.737105 133 127 115 1 1
0.494699 -0.465484 0.733866 161 155 140 1 1
0.483986 -0.472969 0.738365 146 140 127 1 1
0.475852 -0.449297 0.739577 142 137 123 1 1
0.488925 -0.463768 0.738161 83 79 73 1 1
0.483720 -0.478316 0.731642 165 160 143 1 1
0.490018 -0.417267 0.736820 129 124 111 1 1
0.477657 -0.429115 0.736703 166 160 145 1 1
0.478237 -0.424225 0.732465 157 153 137 1 1
0.501449 -0.431490 0.737296 155 153 137 1 1
0.481975 -0.280581 0.728549 161 156 142 1 1
0.479220 -0.274529 0.733697 161 156 142 1 1
0.500752 -0.297845 0.734638 150 144 129 1 1
0.495039 -0.287121 0.733508 160 154 138 1 1
0.473392 -0.370443 0.737395 129 127 110 1 1
0.467955 -0.370586 0.733845 161 155 138 1 1
0.473247 -0.383500 0.738565 91 88 80 1 1
0.464508 -0.373854 0.743960 131 128 113 1 1
0.475141 -0.384624 0.745953 130 127 112 1 1
0.463196 -0.389728 0.739473 163 160 145 1 1
0.485275 -0.654548 0.761988 179 171 157 1 1
0.484726 -0.654950 0.750751 179 172 161 1 1
0.474422 -0.675471 0.733304 164 157 142 1 1
0.482547 -0.652174 0.737701 178 171 161 1 1
0.478546 -0.674017 0.742843 170 162 150 1 1
0.497561 -0.331623 0.724632 148 145 131 1 1
0.483288 -0.529541 0.725960 163 155 140 1 1
0.490538 -0.617842 0.741460 159 156 146 1 1
0.486481 -0.606055 0.735663 149 146 134 1 1
0.501350 -0.615705 0.743357 161 155 146 1 1
0.498578 -0.631598 0.743445 160 157 148 1 1
0.484941 -0.362748 0.732707 159 153 136 1 1
0.483978 -0.346424 0.730402 167 161 146 1 1
0.481280 -0.357091 0.735626 150 145 130 1 1
0.485932 -0.366700 0.738397 150 147 128 1 1
0.484192 -0.351427 0.739260 131 126 112 1 1
0.493873 -0.591438 0.738081 145 142 130 1 1
0.489078 -0.577572 0.740566 143 138 125 1 1
0.489790 -0.573459 0.737270 136 131 118 1 1
0.509867 -0.580620 0.739621 148 142 129 1 1
0.470480 -0.463811 0.740311 83 80 72 1 1
0.495183 -0.626385 0.733451 152 148 136 1 1
0.478792 -0.550845 0.730788 159 154 136 1 1
0.479490 -0.543347 0.731014 158 150 135 1 1
0.474374 -0.545358 0.736859 86 84 74 1 1
0.484119 -0.551328 0.739186 123 121 106 1 1
0.502825 -0.566677 0.740059 123 120 106 1 1
0.472972 -0.376809 0.728131 168 163 145 1 1
0.489533 -0.646518 0.741208 169 164 155 1 1
0.504458 -0.635424 0.763859 165 160 152 1 1
0.500687 -0.642014 0.756493 171 166 158 1 1
0.484941 -0.595655 0.735263 152 148 133 1 1
0.473523 -0.577505 0.729519 153 147 134 1 1
0.490161 -0.581858 0.734078 152 146 134 1 1
0.467007 -0.390597 0.736005 159 155 139 1 1
0.469020 -0.401179 0.741192 160 155 139 1 1
0.481326 -0.408311 0.738342 160 155 139 1 1
0.485479 -0.385167 0.737181 150 144 131 1 1
0.480603 -0.396385 0.737918 91 88 81 1 1
0.483123 -0.392639 0.743837 128 126 113 1 1
0.467481 -0.398172 0.733106 160 155 139 1 1
0.483946 -0.386868 0.733068 164 160 144 1 1
0.487326 -0.400734 0.731182 149 145 131 1 1
0.534554 -0.618578 0.754123 160 159 148 1 1
0.469411 -0.696753 0.729333 152 145 127 1 1
0.469535 -0.681887 0.735120 157 150 132 1 1
0.455970 -0.691034 0.739666 152 146 128 1 1
0.464863 -0.678458 0.746514 159 151 136 1 1
0.445958 -0.687658 0.747401 144 138 121 1 1
0.455851 -0.685092 0.746374 157 150 132 1 1
0.474162 -0.498734 0.729627 147 141 126 1 1
0.491456 -0.502618 0.737851 146 140 127 1 1
0.511514 -0.338763 0.732272 130 127 113 1 1
0.503178 -0.347391 0.732484 130 127 113 1 1
0.517957 -0.345207 0.738901 160 155 139 1 1
0.493995 -0.346811 0.737676 92 88 79 1 1
0.522583 -0.328490 0.732014 132 125 114 1 1
0.513697 -0.336222 0.738072 129 126 113 1 1
0.492354 -0.637894 0.770290 172 166 157 1 1
0.415050 -0.124457 -0.709273 35 27 25 1 1
0.408997 -0.124404 -0.654249 20 14 16 1 1
0.412964 -0.126899 -0.667253 19 13 15 1 1
0.423129 -0.164392 -0.649860 22 15 15 1 1
0.408926 -0.131116 -0.720504 47 30 27 2 5
0.410740 -0.142580 -0.679128 19 16 13 1 1
0.408943 -0.136251 -0.648803 20 16 14 1 1
0.428129 -0.133014 -0.614468 11 11 7 1 1
0.411565 -0.133655 -0.634578 22 18 16 1 1
0.415688 -0.140918 -0.617941 15 16 10 1 1
0.434484 -0.142937 -0.625447 14 15 9 1 1
0.420661 -0.150332 -0.627960 15 14 12 1 1
0.426983 -0.155163 -0.629139 10 10 9 1 1
0.431082 -0.151673 -0.632823 17 16 10 1 1
0.431199 -0.150668 -0.623080 9 9 8 1 1
0.406653 -0.135058 -0.619475 15 16 10 1 1
0.422732 -0.134141 -0.618139 16 18 11 1 1
0.411316 -0.155951 -0.623173 10 10 8 1 1
0.416857 -0.129688 -0.681090 29 20 19 1 1
0.446698 -0.150087 -0.638285 10 10 6 1 1
0.440094 -0.150984 -0.632297 10 10 6 1 1
0.442492 -0.155214 -0.639930 11 9 7 1 1
0.434248 -0.156566 -0.635138 10 8 6 1 1
0.416722 -0.125224 -0.612087 20 19 16 1 1
0.412338 -0.148014 -0.693898 36 26 23 1 1
0.417244 -0.139606 -0.694869 27 21 18 1 1
0.418932 -0.120769 -0.701904 28 21 19 1 1
0.416889 -0.132936 -0.711991 38 27 22 1 1
0.511646 -0.061348 0.606797 234 214 190 1 1
0.464498 -0.230146 0.002710 170 155 134 1 1
0.517543 -0.146280 0.571118 229 210 184 1 1
0.520872 -0.157404 0.578733 229 209 184 1 1
0.518511 -0.136409 0.604983 232 211 183 1 1
0.519100 -0.144797 0.582176 229 209 182 1 1
0.520092 -0.127488 0.585812 232 210 185 1 1
0.525172 -0.167024 0.596656 232 210 182 1 1
0.520113 -0.151086 0.598957 232 210 186 1 1
0.516223 -0.276832 0.493692 228 205 182 1 1
0.514605 -0.287903 0.502427 229 206 183 1 1
0.513101 -0.271440 0.483393 228 205 181 1 1
0.519498 -0.248251 0.550430 229 206 183 1 1
0.523382 -0.254885 0.567974 230 207 178 1 1
0.480922 -0.122983 0.204554 226 204 179 1 1
0.485384 -0.124610 0.222443 227 204 179 1 1
0.521002 -0.190552 0.558857 231 209 179 1 1
0.516101 -0.181249 0.549285 229 208 184 1 1
0.488029 -0.200806 0.251301 224 204 177 1 1
0.505964 -0.265612 0.421762 223 204 182 1 1
0.507787 -0.259188 0.440189 226 205 182 1 1
0.512038 -0.244590 0.425317 226 203 182 1 1
0.501885 -0.166769 0.364234 226 206 181 1 1
0.502079 -0.193070 0.366099 228 206 182 1 1
0.506239 -0.124216 -0.034376 202 187 161 1 1
0.492930 -0.127216 -0.024494 210 194 171 1 1
0.495459 -0.137771 -0.028886 102 85 72 1 1
0.483081 -0.127445 -0.020318 212 193 168 1 1
0.484351 -0.144609 -0.019358 211 192 165 1 1
0.497243 -0.083509 0.419578 230 209 186 1 1
0.497783 -0.062083 0.405731 225 205 182 1 1
0.497475 -0.099635 0.427013 231 209 182 1 1
0.498282 -0.094885 0.438554 230 208 185 1 1
0.504073 -0.189318 0.378545 225 206 179 1 1
0.501532 -0.204478 0.393115 227 206 185 1 1
0.503914 -0.191342 0.401560 225 207 181 1 1
0.518334 -0.207479 0.584706 233 210 183 1 1
0.520297 -0.257550 0.557330 229 206 183 1 1
0.517091 -0.267899 0.568789 229 209 180 1 1
0.519248 -0.261497 0.545503 229 206 182 1 1
0.520998 -0.303604 0.555074 226 209 181 1 1
0.516993 -0.283895 0.552069 229 209 181 1 1
0.488048 -0.087628 0.249893 223 202 177 1 1
0.486081 -0.121159 0.252652 226 205 178 1 1
0.486999 -0.097792 0.239776 227 205 178 1 1
0.483237 -0.108596 0.224862 226 205 181 1 1
0.475313 -0.167701 0.043534 220 202 174 1 1
0.523968 -0.322555 0.582567 231 208 179 1 1
0.506358 -0.262700 0.454069 227 205 182 1 1
0.507968 -0.271735 0.465262 226 205 181 1 1
0.514401 -0.282272 0.656084 232 209 185 1 1
0.504637 -0.283571 0.660715 220 199 172 1 1
0.512726 -0.294020 0.658585 228 207 183 1 1
0.522136 -0.269651 0.646686 234 211 188 1 1
0.527388 -0.280443 0.649866 234 211 187 1 1
0.514267 -0.264614 0.657606 235 211 186 1 1
0.473529 -0.147442 0.058894 222 199 171 1 1
0.471877 -0.154062 0.023540 223 200 171 1 1
0.472918 -0.142099 0.027046 223 199 171 1 1
0.472010 -0.126295 0.044343 222 201 171 1 1
0.523382 -0.317898 0.604708 229 210 185 1 1
0.530959 -0.307686 0.632027 231 210 185 1 1
0.525970 -0.299589 0.648170 232 209 184 1 1
0.529621 -0.306990 0.611658 231 209 184 1 1
0.525113 -0.283881 0.609597 232 210 184 1 1
0.527276 -0.291429 0.628388 233 210 185 1 1
0.533432 -0.283778 0.634485 233 210 185 1 1
0.528212 -0.301339 0.621490 231 210 185 1 1
0.477453 -0.086800 0.663245 192 176 149 1 1
0.494899 -0.181200 0.286570 226 204 178 1 1
0.489610 -0.187502 0.270275 225 204 179 1 1
0.487830 -0.154495 0.270443 228 205 182 1 1
0.500875 -0.266585 0.351885 222 203 179 1 1
0.501035 -0.282226 0.329898 224 203 175 1 1
0.499501 -0.274645 0.323972 223 203 178 1 1
0.488517 -0.247014 0.231063 223 203 175 1 1
0.488106 -0.259550 0.218830 223 201 178 1 1
0.510049 -0.143613 0.478601 227 208 181 1 1
0.506390 -0.130688 0.477966 230 209 181 1 1
0.506426 -0.135466 0.503509 230 208 183 1 1
0.508118 -0.119113 0.506910 232 208 184 1 1
0.507503 -0.110592 0.484868 228 210 183 1 1
0.504149 -0.189172 0.426353 227 206 183 1 1
0.497688 -0.122838 0.321345 227 205 177 1 1
0.494545 -0.095966 0.342890 227 205 180 1 1
0.495882 -0.089990 0.326362 227 205 180 1 1
0.496413 -0.107404 0.337711 227 204 181 1 1
0.497950 -0.111058 0.327956 228 205 182 1 1
0.520370 -0.279605 0.572448 229 210 183 1 1
0.521147 -0.305108 0.586335 229 208 183 1 1
0.521335 -0.294224 0.581793 231 208 181 1 1
0.525890 -0.320245 0.572318 228 207 182 1 1
0.523304 -0.301406 0.573667 230 209 184 1 1
0.527918 -0.296849 0.601623 230 209 184 1 1
0.525399 -0.310300 0.594017 228 209 180 1 1
0.531033 -0.304981 0.604874 229 209 181 1 1
0.501856 -0.278960 0.405149 224 204 179 1 1
0.501080 -0.288877 0.395029 225 203 179 1 1
0.504078 -0.262066 0.404350 224 205 178 1 1
0.478612 -0.119791 0.081947 223 201 175 1 1
0.474583 -0.109690 0.070109 224 201 173 1 1
0.474668 -0.100491 0.091650 224 202 175 1 1
0.481847 -0.122018 0.678880 188 177 151 1 1
0.477974 -0.100723 0.676047 188 174 147 1 1
0.483953 -0.114603 0.687926 188 175 147 1 1
0.476737 -0.117613 0.697938 179 170 155 1 1
0.473850 -0.095334 0.682253 180 165 149 1 1
0.469948 -0.103276 0.696482 193 180 161 1 1
0.474235 -0.243420 0.069331 216 197 170 1 1
0.476602 -0.223241 0.075102 218 199 171 1 1
0.475645 -0.212380 0.076699 221 201 171 1 1
0.476582 -0.221281 0.094929 220 199 177 1 1
0.499066 -0.102494 0.374718 223 206 176 1 1
0.495423 -0.103294 0.356416 230 207 183 1 1
0.518693 -0.156331 0.620784 233 212 187 1 1
0.517065 -0.155704 0.635878 233 211 192 1 1
0.515075 -0.165226 0.627462 234 211 188 1 1
0.519348 -0.163482 0.610222 233 212 187 1 1
0.509730 -0.148260 0.636594 233 212 192 1 1
0.507723 -0.146834 0.625026 236 212 191 1 1
0.496845 -0.084499 0.405883 230 209 184 1 1
0.494819 -0.079093 0.395226 225 205 177 1 1
0.498840 -0.089544 0.389218 230 208 184 1 1
0.527689 -0.334121 0.634944 232 210 181 1 1
0.535759 -0.340129 0.612190 228 209 182 1 1
0.533950 -0.328019 0.612758 230 210 181 1 1
0.534365 -0.318720 0.618888 231 210 178 1 1
0.534363 -0.330173 0.625055 231 210 181 1 1
0.534379 -0.344851 0.624679 229 210 182 1 1
0.476871 -0.117974 0.704540 188 178 167 1 1
0.478916 -0.106880 0.708546 174 167 151 1 1
0.483169 -0.097088 0.722122 97 95 87 1 1
0.481970 -0.108338 0.713149 99 96 88 1 1
0.471190 -0.107076 0.719060 99 96 88 1 1
0.489418 -0.092271 0.711543 100 97 87 1 1
0.493015 -0.104839 0.712669 100 98 88 1 1
0.497585 -0.166453 0.315304 227 205 184 1 1
0.500326 -0.181001 0.329849 228 207 180 1 1
0.496150 -0.158769 0.336239 226 205 180 1 1
0.521082 -0.305051 0.493838 227 206 182 1 1
0.516227 -0.292605 0.491076 227 207 179 1 1
0.483398 -0.160941 0.235588 227 206 179 1 1
0.485561 -0.184695 0.229930 227 205 180 1 1
0.486633 -0.177988 0.257897 227 206 178 1 1
0.487466 -0.163876 0.261305 225 206 179 1 1
0.489126 -0.201065 0.228100 226 205 179 1 1
0.501605 -0.117759 0.429053 228 208 183 1 1
0.504301 -0.138991 0.434988 227 209 174 1 1
0.499131 -0.119271 0.407652 229 209 185 1 1
0.499682 -0.127656 0.382937 230 207 184 1 1
0.497663 -0.138921 0.383675 229 207 178 1 1
0.501807 -0.115585 0.394176 229 208 182 1 1
0.499763 -0.136110 0.408879 229 208 181 1 1
0.499796 -0.132127 0.393831 229 208 181 1 1
0.498048 -0.262710 0.317352 225 204 181 1 1
0.499548 -0.250535 0.328200 223 204 179 1 1
0.497209 -0.234784 0.318598 224 203 179 1 1
0.498554 -0.250874 0.347088 224 203 182 1 1
0.497840 -0.231834 0.342153 225 203 178 1 1
0.523364 -0.244093 0.604698 233 210 184 1 1
0.522227 -0.259849 0.624008 232 210 183 1 1
0.521466 -0.251264 0.633667 233 211 187 1 1
0.530591 -0.273617 0.617754 232 210 186 1 1
0.528027 -0.265134 0.634363 232 211 183 1 1
0.509206 -0.174688 0.485673 227 206 182 1 1
0.507232 -0.160763 0.489224 229 208 185 1 1
0.508676 -0.154673 0.477519 228 207 182 1 1
0.512712 -0.139967 0.547833 230 208 179 1 1
0.520351 -0.127835 0.553760 231 208 181 1 1
0.516571 -0.138645 0.558853 227 209 184 1 1
0.475545 -0.126474 0.656558 194 179 148 1 1
0.506148 -0.157141 0.504550 229 209 180 1 1
0.510653 -0.140275 0.530114 228 208 182 1 1
0.509242 -0.139040 0.518050 231 208 185 1 1
0.473184 -0.138787 0.712534 169 163 147 1 1
0.475036 -0.134298 0.704388 171 163 152 1 1
0.476589 -0.130877 0.715841 164 156 147 1 1
0.486078 -0.148759 0.723679 162 155 140 1 1
0.480132 -0.141562 0.732687 163 156 143 1 1
0.473133 -0.223671 0.694286 192 183 166 1 1
0.475089 -0.209948 0.692154 190 179 163 1 1
0.472552 -0.225612 0.683598 189 173 144 1 1
0.472881 -0.212541 0.668110 190 173 149 1 1
0.469761 -0.211269 0.675130 186 172 144 1 1
0.473320 -0.207787 0.699983 188 178 165 1 1
0.506106 -0.177681 0.422192 225 207 180 1 1
0.510240 -0.203456 0.441325 228 205 180 1 1
0.503696 -0.201307 0.407148 226 206 179 1 1
0.507962 -0.218572 0.406032 226 206 181 1 1
0.508834 -0.184585 0.438531 229 204 182 1 1
0.507714 -0.205248 0.431055 229 205 182 1 1
0.474067 -0.211779 0.663583 190 172 149 1 1
0.484816 -0.199594 0.659035 191 173 151 1 1
0.489631 -0.217741 0.264675 225 204 180 1 1
0.495490 -0.202653 0.289310 226 205 180 1 1
0.477895 -0.116408 0.097326 223 203 176 1 1
0.472514 -0.088695 0.105629 225 202 177 1 1
0.480001 -0.166086 0.143981 223 203 178 1 1
0.478373 -0.180801 0.140155 221 203 172 1 1
0.476403 -0.174096 0.121746 223 202 176 1 1
0.487864 -0.246545 0.214312 223 202 176 1 1
0.486655 -0.215231 0.210110 223 202 176 1 1
0.486781 -0.235694 0.225994 223 202 177 1 1
0.470318 -0.136057 0.695468 187 175 162 1 1
0.481179 -0.125297 0.669109 193 176 151 1 1
0.473668 -0.154859 0.675975 193 177 153 1 1
0.468786 -0.159484 0.698380 189 179 161 1 1
0.477193 -0.146196 0.713232 190 179 164 1 1
0.475972 -0.145176 0.686548 194 179 161 1 1
0.474996 -0.144643 0.694492 193 180 164 1 1
0.483322 -0.120042 0.688617 191 181 163 1 1
0.473705 -0.134775 0.682952 192 175 152 1 1
0.498600 -0.117879 0.350276 228 207 183 1 1
0.498346 -0.132704 0.324007 228 208 181 1 1
0.497515 -0.145367 0.326115 228 207 179 1 1
0.511287 -0.211982 0.465239 227 207 180 1 1
0.510317 -0.183106 0.451238 227 205 185 1 1
0.513727 -0.199451 0.483445 230 206 183 1 1
0.512097 -0.183541 0.475788 227 207 184 1 1
0.510908 -0.197519 0.458103 228 204 183 1 1
0.509598 -0.183528 0.460554 227 206 186 1 1
0.499675 -0.099972 0.319319 226 206 180 1 1
0.496624 -0.071433 0.326201 226 206 179 1 1
0.502524 -0.163499 0.412157 228 206 183 1 1
0.502253 -0.150178 0.395059 229 207 182 1 1
0.501818 -0.149252 0.410513 228 208 182 1 1
0.480121 -0.239229 0.130591 218 198 178 1 1
0.485079 -0.237742 0.147567 221 198 175 1 1
0.507413 -0.227172 0.391575 227 205 177 1 1
0.468015 -0.159034 0.661221 191 174 148 1 1
0.484144 -0.139100 0.651913 225 207 182 1 1
0.472905 -0.139885 0.658599 194 178 149 1 1
0.474554 -0.149106 0.660096 193 177 149 1 1
0.473456 -0.187040 0.017577 220 200 170 1 1
0.467628 -0.179479 0.698167 188 179 165 1 1
0.471476 -0.187171 0.710905 183 175 159 1 1
0.474169 -0.176906 0.710019 188 179 163 1 1
0.479079 -0.188553 0.731614 171 164 147 1 1
0.500119 -0.109413 0.434451 230 209 185 1 1
0.503430 -0.111548 0.446081 229 209 182 1 1
0.506786 -0.122872 0.447632 230 208 181 1 1
0.507681 -0.138168 0.466414 228 207 183 1 1
0.498669 -0.216459 0.312941 223 205 180 1 1
0.502099 -0.190971 0.332902 226 205 178 1 1
0.499200 -0.207425 0.335768 225 204 182 1 1
0.502268 -0.182464 0.344866 226 206 181 1 1
0.498218 -0.222050 0.329246 227 204 182 1 1
0.488924 -0.273514 0.705224 185 177 164 1 1
0.497482 -0.288754 0.701513 185 177 164 1 1
0.499989 -0.304346 0.359883 223 203 178 1 1
