ply
format ascii 1.0
element vertex 1083
property float x
property float y
property float z
property uchar red
property uchar green
property uchar blue
property uchar semantic_label
property uchar instance_label
end_header
-0.216697 -0.294762 0.489924 67 65 69 40 9
-0.233677 -0.294578 0.490995 117 116 116 40 9
-0.215728 -0.303855 0.490770 96 96 97 40 9
-0.230000 -0.307463 0.495006 112 110 110 40 9
-0.219454 -0.304095 0.497057 108 107 106 40 9
-0.549107 -0.141071 0.245935 43 42 42 40 9
-0.556980 -0.145294 0.242582 43 41 41 40 9
-0.515512 -0.127129 0.158243 188 178 164 14 7
-0.321147 -0.225262 0.494332 26 27 29 40 9
-0.338564 -0.221008 0.485012 24 25 27 40 9
-0.323929 -0.228572 0.504133 23 25 28 40 9
-0.326759 -0.226370 0.519062 25 26 28 40 9
-0.117851 -0.029939 0.169167 28 30 31 40 3
-0.134628 -0.033201 0.166862 80 83 86 40 3
-0.111557 -0.016802 0.175499 26 25 26 40 3
-0.124765 -0.044470 0.159510 30 29 29 40 3
-0.122198 -0.037718 0.161847 44 44 45 14 7
-0.098518 -0.032540 0.163316 72 75 79 14 7
-0.094845 -0.040574 0.159102 48 49 53 14 7
-0.088968 -0.021462 0.170451 35 36 40 14 7
-0.070313 -0.152293 0.526087 28 28 26 0 0
-0.105232 -0.155408 0.521161 54 54 53 0 0
-0.093291 -0.149309 0.547115 25 26 27 0 0
-0.089824 -0.155656 0.520291 72 72 66 0 0
-0.095452 -0.162181 0.510711 113 114 106 0 0
-0.299849 -0.238854 0.247268 29 26 35 40 9
-0.299381 -0.237726 0.228635 43 42 44 40 9
-0.283919 -0.231524 0.227284 139 133 128 40 9
-0.284639 -0.236579 0.242051 101 95 98 40 9
-0.289562 -0.224780 0.240243 147 141 134 40 9
-0.301728 -0.218030 0.254548 119 114 110 40 9
-0.294261 -0.232884 0.252663 95 90 91 40 9
-0.293713 -0.242022 0.242087 32 30 35 40 9
-0.556880 -0.207211 0.521506 93 88 84 40 9
-0.570057 -0.185662 0.522368 139 134 130 40 9
-0.567247 -0.204338 0.535906 101 96 92 40 9
-0.552702 -0.214965 0.540567 105 99 95 40 9
-0.553753 -0.178238 0.516598 142 136 132 40 9
-0.559218 -0.206430 0.512924 91 84 81 40 9
-0.570592 -0.200143 0.523537 108 102 99 40 9
-0.568636 -0.185725 0.538166 163 158 152 40 9
-0.101492 -0.279794 0.582370 133 131 124 40 9
-0.122519 -0.278418 0.580530 118 118 110 40 9
-0.091525 -0.294164 0.580310 136 135 125 40 9
-0.106684 -0.275782 0.586652 111 120 118 40 9
-0.118816 -0.288102 0.591556 129 130 125 40 9
-0.108477 -0.299249 0.591391 49 90 111 40 9
-0.103193 -0.282502 0.593479 112 122 113 40 9
-0.113699 -0.276463 0.590841 129 131 122 40 9
-0.108250 -0.293603 0.574544 130 129 124 40 9
-0.328238 0.046541 0.174879 27 27 30 40 3
-0.310488 0.036810 0.173465 23 23 26 40 3
-0.337762 0.022465 0.173099 34 35 37 40 3
-0.330048 0.008430 0.175526 22 22 25 40 3
-0.262099 0.012095 0.175712 22 25 28 40 3
-0.258450 -0.000669 0.175719 26 28 30 40 3
-0.283849 -0.002881 0.177410 22 23 24 40 3
-0.081176 -0.153231 0.539148 22 23 23 0 0
-0.102145 -0.148341 0.563497 132 131 124 0 0
-0.102657 -0.157654 0.566377 128 127 121 0 0
-0.081770 -0.151122 0.561441 83 83 80 0 0
-0.531396 0.001926 0.135193 27 30 38 14 7
-0.533271 -0.020998 0.153499 161 146 128 14 7
-0.507867 -0.007155 0.154296 167 149 124 14 7
-0.515604 0.005768 0.158186 36 33 30 14 7
-0.520027 -0.007718 0.154842 98 89 78 14 7
-0.260550 -0.320790 0.064062 29 32 38 0 0
-0.273864 -0.324882 0.071460 31 35 40 0 0
-0.269019 -0.330352 0.084785 29 33 38 0 0
-0.080325 -0.232427 0.253960 16 16 20 40 9
-0.505743 -0.068638 0.154023 201 184 159 14 7
-0.643718 -0.302848 0.144720 128 127 128 14 7
-0.527740 -0.159861 0.191739 37 33 34 40 9
-0.553161 -0.164137 0.187697 37 38 47 40 9
-0.433065 -0.181578 0.291914 47 48 50 40 9
-0.412589 -0.184998 0.292565 43 43 43 40 9
-0.420496 -0.179817 0.293055 41 41 39 40 9
-0.409116 -0.181922 0.307465 57 61 66 40 9
-0.418880 -0.182694 0.307922 38 39 44 40 9
-0.397285 -0.180560 0.313219 42 41 41 40 9
-0.403540 -0.179238 0.315162 58 61 69 40 9
-0.422724 -0.178815 0.301791 35 35 37 40 9
-0.165448 -0.328630 0.096263 82 80 79 0 0
-0.244682 -0.237441 0.436158 21 22 24 40 9
-0.220861 -0.244154 0.442854 21 21 25 40 9
-0.231219 -0.242698 0.441379 20 21 23 40 9
-0.237220 -0.243595 0.449392 22 22 25 40 9
-0.223534 -0.242245 0.426340 22 23 25 40 9
-0.237649 -0.240743 0.426220 23 24 25 40 9
-0.238958 -0.237145 0.419320 23 24 26 40 9
-0.194681 -0.263747 0.275129 49 50 57 40 9
-0.190990 -0.265609 0.252249 47 48 57 40 9
-0.217178 -0.247277 0.267706 38 39 49 40 9
-0.212874 -0.254264 0.255633 36 37 47 40 9
-0.686385 -0.058487 0.250057 132 134 140 0 0
-0.696934 -0.058376 0.280196 133 132 127 0 0
-0.685605 -0.057286 0.265314 105 103 106 0 0
-0.371600 -0.192311 0.338669 63 67 71 40 9
-0.385352 -0.187836 0.336067 49 50 56 40 9
-0.376192 -0.184483 0.318944 54 55 59 40 9
-0.381113 -0.188661 0.323812 53 54 58 40 9
-0.394120 -0.187252 0.329253 50 55 72 40 9
-0.400124 -0.188996 0.355323 46 48 49 40 9
-0.539611 -0.331648 0.152565 190 188 191 14 7
-0.541526 -0.343553 0.156286 57 56 61 14 7
-0.553336 -0.331700 0.158967 120 120 122 14 7
-0.562056 -0.349358 0.152947 182 180 174 14 7
-0.543953 -0.353810 0.146321 131 128 127 14 7
-0.546500 -0.324331 0.156211 153 152 155 14 7
-0.141596 -0.328758 0.516162 27 29 28 40 9
-0.065622 -0.252613 0.151550 196 165 140 14 7
-0.057555 -0.232783 0.155309 108 105 106 14 7
-0.194051 -0.274163 0.159235 180 181 174 14 7
-0.203446 -0.284538 0.160435 144 139 132 14 7
-0.408561 -0.174007 0.247554 34 33 36 40 9
-0.401214 -0.174774 0.227387 73 67 60 40 9
-0.278738 -0.238503 0.507515 22 22 26 40 9
-0.284719 -0.239151 0.484544 22 23 25 40 9
-0.271561 -0.240236 0.476679 118 116 117 40 9
-0.253871 -0.244680 0.502607 21 22 25 40 9
-0.261543 -0.240431 0.488733 21 22 25 40 9
-0.273942 -0.241026 0.488827 22 23 25 40 9
-0.156614 -0.290724 0.522577 39 38 41 40 9
-0.148570 -0.300229 0.518413 31 33 32 40 9
-0.162287 -0.298586 0.524671 37 36 40 40 9
-0.153960 -0.276882 0.514851 29 32 32 40 9
-0.204264 -0.268658 0.314234 41 42 49 40 9
-0.222015 -0.261245 0.310528 32 34 41 40 9
-0.185080 -0.269430 0.287175 35 38 48 40 9
-0.191925 -0.268500 0.300969 32 34 42 40 9
-0.092474 -0.248950 0.403868 35 37 38 40 9
-0.078828 -0.260993 0.410154 42 45 47 40 9
-0.092530 -0.257772 0.414653 37 39 38 40 9
-0.091976 -0.254937 0.391320 62 63 71 40 9
-0.083999 -0.262968 0.399074 46 55 67 40 9
-0.088136 -0.261148 0.394375 65 66 72 40 9
-0.100515 -0.259528 0.382935 48 54 71 40 9
-0.690816 -0.026341 0.287493 185 193 171 0 0
-0.705132 -0.043339 0.210135 175 174 175 0 0
-0.327710 -0.180435 0.285044 59 61 67 40 9
-0.309594 -0.185866 0.307019 69 69 71 40 9
-0.323906 -0.184390 0.306987 47 47 53 40 9
-0.462281 -0.303000 0.150467 127 128 136 14 7
-0.449741 -0.310687 0.149848 124 123 125 14 7
-0.473272 -0.304592 0.154186 180 182 187 14 7
-0.456933 -0.316081 0.152084 149 151 155 14 7
-0.278808 -0.222127 0.193065 133 132 126 40 9
-0.292355 -0.225967 0.172696 135 134 138 14 7
-0.285514 -0.239953 0.163483 32 32 34 14 7
-0.280982 -0.233401 0.167796 69 71 76 14 7
-0.297327 -0.228315 0.183511 166 167 167 40 9
-0.200227 -0.261262 0.241486 79 81 90 40 9
-0.167124 -0.237322 0.288450 29 32 39 40 9
-0.425620 -0.226412 0.366517 57 59 59 40 9
-0.432429 -0.223438 0.373086 60 60 70 40 9
-0.417602 -0.230145 0.370508 67 70 76 40 9
-0.416926 -0.229363 0.351843 97 98 102 40 9
-0.476461 0.075876 0.155057 73 68 55 14 7
-0.490487 0.078454 0.158055 39 41 39 14 7
-0.483067 0.061624 0.155394 40 39 38 14 7
-0.404353 -0.166017 0.200707 24 24 25 40 9
-0.398324 -0.171155 0.209482 28 28 29 40 9
-0.420153 -0.164835 0.205274 28 28 28 40 9
-0.712627 -0.049685 0.271233 146 146 142 0 0
-0.699331 -0.055188 0.268317 141 134 130 0 0
-0.727071 -0.063245 0.279424 166 173 154 0 0
-0.705309 -0.051993 0.286583 104 131 62 0 0
-0.721115 -0.056849 0.285937 166 188 136 0 0
-0.711519 -0.059704 0.279896 153 164 134 0 0
-0.721246 -0.040340 0.269388 153 164 139 0 0
-0.169679 -0.325699 0.151564 118 111 98 0 0
-0.156796 -0.346876 0.153168 167 160 144 0 0
-0.294484 -0.222795 0.419917 28 26 26 40 9
-0.295365 -0.224877 0.433549 88 83 85 40 9
-0.302930 -0.222188 0.441045 122 117 119 40 9
-0.291155 -0.230280 0.445584 39 34 38 40 9
-0.295659 -0.229009 0.438865 140 135 136 40 9
-0.649864 -0.150240 0.153239 253 242 219 14 7
-0.638910 -0.125053 0.154815 210 197 176 14 7
-0.626491 -0.128457 0.153188 247 241 220 14 7
-0.652635 -0.113159 0.155010 185 173 151 14 7
-0.032805 -0.159752 0.153696 174 167 147 14 7
-0.026916 -0.193249 0.159012 140 146 137 14 7
-0.036262 -0.176206 0.155389 64 80 88 14 7
-0.498053 -0.184187 0.440754 123 123 127 40 9
-0.501247 -0.196822 0.416397 149 143 139 40 9
-0.494673 -0.187388 0.427476 87 83 80 40 9
-0.502631 -0.200657 0.423721 117 113 108 40 9
-0.475822 -0.185492 0.432005 26 27 30 40 9
-0.487724 -0.181961 0.442696 32 32 35 40 9
-0.486178 -0.185344 0.417761 33 32 34 40 9
-0.485641 -0.179715 0.425476 28 30 33 40 9
-0.120428 -0.278617 0.508226 26 27 26 40 9
-0.106992 -0.298492 0.511054 22 23 23 40 9
-0.135232 -0.283879 0.514556 28 29 30 40 9
-0.291583 -0.530990 0.123631 177 182 187 14 5
-0.002518 -0.083522 0.156292 158 150 126 14 7
0.029561 -0.089548 0.159459 152 143 122 14 7
0.002141 -0.063898 0.156996 151 143 124 14 7
-0.575928 -0.360105 0.115900 147 139 134 14 7
-0.591191 -0.369097 0.121011 157 152 148 14 7
-0.600331 -0.369807 0.120838 144 138 133 14 7
-0.711806 -0.046802 0.183585 120 115 105 0 0
-0.712623 -0.059364 0.167509 190 175 159 14 7
-0.713614 -0.076011 0.159607 214 207 191 14 7
-0.727138 -0.047034 0.167854 146 134 120 14 7
-0.712970 -0.046692 0.170157 122 120 114 0 0
-0.718274 -0.052520 0.161499 172 167 161 14 7
-0.701547 -0.056248 0.172996 155 152 143 0 0
-0.700820 -0.050406 0.181325 151 135 116 0 0
-0.724843 -0.047865 0.180447 123 120 112 0 0
-0.431192 -0.178906 0.169042 22 23 26 14 7
-0.185614 -0.295167 0.531753 55 53 50 40 9
-0.186070 -0.279134 0.531845 41 41 43 40 9
-0.184872 -0.279528 0.541966 41 41 43 40 9
-0.172070 -0.292417 0.535708 42 42 45 40 9
-0.186041 -0.295759 0.546896 42 42 46 40 9
-0.199073 -0.296603 0.541068 45 44 48 40 9
-0.184649 -0.268506 0.523601 50 49 49 40 9
-0.169497 -0.274736 0.520871 45 46 45 40 9
-0.761181 -0.027342 0.170080 116 117 111 0 0
-0.753255 0.009243 0.174695 31 29 29 0 0
-0.747511 -0.023100 0.174873 120 118 112 0 0
-0.757289 -0.009082 0.185305 54 67 48 0 0
-0.761015 -0.016642 0.194323 80 89 73 0 0
-0.763945 -0.004259 0.176033 83 84 76 0 0
-0.762344 -0.017553 0.181310 88 91 79 0 0
-0.755238 -0.019762 0.182491 112 112 99 0 0
-0.752055 0.003336 0.185169 71 67 64 0 0
-0.760368 0.003662 0.171726 75 72 70 0 0
-0.774267 -0.179981 0.163595 206 202 189 14 7
-0.568189 -0.200388 0.577855 109 102 99 40 9
-0.554403 -0.212709 0.573571 106 100 96 40 9
-0.552161 -0.187845 0.582745 194 190 181 40 9
-0.568252 -0.185542 0.578586 182 177 172 40 9
-0.385839 -0.213155 0.504281 28 28 30 40 9
-0.417060 -0.207423 0.502289 30 29 33 40 9
-0.303032 -0.243825 0.368614 150 145 140 40 9
-0.288821 -0.241766 0.384389 228 219 213 40 9
-0.282082 -0.227620 0.353909 29 29 39 40 9
-0.316260 -0.241549 0.352163 157 156 153 40 9
-0.301766 -0.241805 0.360963 126 124 121 40 9
-0.285356 -0.239404 0.364796 62 60 61 40 9
-0.397131 -0.199504 0.408590 29 29 31 40 9
-0.383924 -0.208377 0.442323 25 25 26 40 9
-0.390943 -0.201466 0.425087 30 31 33 40 9
-0.527608 0.080270 0.186936 117 112 104 14 7
-0.551215 0.077608 0.173268 163 150 127 14 7
-0.558934 0.092697 0.161381 177 166 144 14 7
-0.546008 0.062960 0.178599 180 172 156 14 7
-0.544101 0.087262 0.176888 80 79 79 14 7
-0.545022 0.073213 0.179236 128 123 119 14 7
-0.241873 -0.704981 0.428541 36 33 44 40 1
-0.231381 -0.696531 0.433791 22 16 28 40 1
-0.258078 -0.700667 0.434534 61 58 64 40 1
-0.252713 -0.708863 0.437248 31 29 38 40 1
-0.384850 -0.177523 0.193883 25 25 27 40 9
-0.382806 -0.179538 0.228037 27 27 29 40 9
-0.382671 -0.173757 0.204872 27 27 28 40 9
-0.707018 0.034756 0.291107 110 106 101 0 0
-0.504981 -0.183645 0.433666 103 105 107 40 9
-0.516413 -0.188907 0.426086 121 118 112 40 9
-0.515762 -0.180896 0.442478 108 102 96 40 9
-0.522916 -0.190388 0.440059 93 88 84 40 9
-0.522894 -0.184751 0.431832 125 126 122 40 9
-0.379858 -0.729782 0.124178 255 254 249 14 5
-0.716272 -0.165024 0.155098 166 151 128 14 7
-0.737873 -0.158763 0.157542 203 197 179 14 7
-0.077782 -0.292362 0.166921 79 84 100 14 7
-0.070346 -0.300939 0.159254 93 133 161 14 7
-0.074946 -0.281821 0.159675 52 65 83 14 7
-0.019069 -0.158443 0.579403 133 135 121 40 8
-0.711499 -0.028299 0.180104 109 105 101 0 0
-0.235078 -0.274169 0.422831 64 64 66 40 9
-0.239681 -0.268459 0.415796 18 19 21 40 9
-0.256989 -0.264235 0.414817 21 19 19 40 9
-0.222094 -0.566234 0.130463 166 167 169 14 5
-0.271273 -0.677275 0.124759 213 206 207 14 5
-0.269697 -0.661006 0.126662 198 188 180 14 5
-0.134795 -0.197631 0.153432 221 217 192 14 7
-0.137443 -0.206659 0.155322 202 200 177 14 7
-0.510926 -0.185089 0.491988 29 31 33 40 9
-0.484108 -0.189370 0.485074 30 30 33 40 9
-0.472735 -0.194615 0.504749 30 31 33 40 9
-0.483636 -0.191998 0.496826 29 29 31 40 9
-0.474801 -0.190814 0.478002 31 31 33 40 9
-0.494460 -0.188103 0.508241 29 30 32 40 9
-0.054128 -0.171940 0.561992 240 239 225 0 0
-0.065939 -0.174511 0.564985 232 229 222 0 0
-0.081960 -0.159227 0.567239 178 174 168 0 0
-0.048974 -0.161987 0.556140 142 144 131 0 0
-0.041425 -0.155789 0.551763 31 33 20 40 8
-0.052396 -0.153973 0.545428 78 79 71 0 0
-0.061199 -0.153059 0.536377 22 22 23 0 0
-0.056557 -0.159170 0.567964 206 204 190 0 0
-0.050916 -0.177552 0.547525 119 121 110 0 0
-0.063499 -0.153801 0.560924 89 89 87 0 0
-0.245327 -0.053072 0.151663 112 108 104 14 7
-0.257968 -0.054890 0.155329 85 79 69 40 3
-0.285049 -0.263017 0.412512 144 136 132 40 9
-0.346548 -0.333475 0.156255 116 115 120 14 7
-0.315301 -0.328444 0.152402 197 186 173 14 7
-0.326509 -0.309062 0.152372 119 117 112 14 7
-0.351805 -0.302443 0.156106 185 176 163 14 7
-0.609666 -0.166904 0.235219 49 49 51 40 9
-0.272777 -0.755915 0.526747 65 63 82 40 1
-0.301511 -0.771109 0.447223 124 115 163 40 1
-0.147430 -0.136023 0.151341 216 210 180 14 7
-0.174687 -0.182335 0.152295 221 214 187 14 7
-0.788408 -0.130354 0.137304 167 164 151 14 7
-0.795619 -0.141835 0.137685 174 170 157 14 7
-0.450138 -0.194700 0.470194 26 27 30 40 9
-0.442150 -0.192547 0.450584 30 31 33 40 9
-0.460228 -0.192184 0.461379 31 30 32 40 9
-0.233410 -0.175165 0.155562 217 213 183 14 7
-0.307286 -0.210895 0.401951 135 128 124 40 9
-0.313817 -0.200263 0.390763 134 125 122 40 9
-0.248856 -0.765059 0.347637 113 103 151 40 1
-0.071352 -0.155915 0.509650 82 84 77 0 0
-0.118061 -0.303321 0.578510 118 119 112 40 9
-0.129383 -0.301299 0.587315 28 73 94 40 9
-0.118925 -0.305629 0.585157 36 75 100 40 9
-0.516759 -0.083867 0.155032 225 213 190 14 7
-0.511315 -0.112147 0.157538 180 172 168 14 7
-0.520338 -0.107637 0.155361 219 207 185 14 7
-0.259201 -0.760631 0.454580 106 99 146 40 1
-0.280719 -0.764379 0.449511 115 108 153 40 1
-0.284178 -0.764968 0.477243 126 118 163 40 1
-0.267493 -0.760342 0.462305 115 111 142 40 1
-0.758254 -0.014843 0.219281 111 90 94 0 0
-0.756632 -0.010556 0.219178 111 90 94 0 0
-0.749823 -0.004598 0.212720 82 77 77 0 0
-0.756075 -0.009759 0.199539 142 144 138 0 0
-0.755843 -0.015772 0.205133 111 101 99 0 0
-0.579850 -0.189000 0.164268 31 29 30 14 7
-0.587109 -0.180113 0.158758 31 30 31 14 7
-0.290322 -0.242241 0.544254 24 25 25 40 9
-0.295152 -0.244259 0.563095 25 25 26 40 9
-0.306727 -0.239205 0.560234 26 24 27 40 9
-0.181023 -0.570796 0.129099 128 128 139 14 5
-0.173185 -0.554039 0.125072 129 128 135 14 5
-0.191084 -0.557215 0.128076 175 174 177 14 5
-0.104795 -0.024008 0.170317 29 31 34 14 7
-0.073443 -0.237690 0.244303 22 21 22 40 9
-0.053412 -0.265613 0.257230 27 26 30 40 8
-0.050631 -0.263529 0.232028 51 65 75 40 8
-0.060358 -0.258302 0.229899 27 28 23 40 9
-0.059170 -0.263129 0.231766 30 31 27 40 8
-0.078242 -0.269337 0.225609 24 25 25 40 9
-0.070578 -0.274218 0.223094 27 29 33 40 9
-0.072107 -0.259124 0.234595 23 21 22 40 8
-0.065728 -0.247613 0.239507 30 30 31 40 9
-0.076059 -0.251218 0.235610 47 45 47 40 9
-0.059662 -0.259412 0.245661 29 29 28 40 8
-0.064295 -0.263657 0.253233 88 88 92 40 8
-0.077084 -0.264004 0.245740 26 24 26 40 8
-0.083694 -0.264599 0.231981 35 33 35 40 8
-0.727665 -0.047296 0.190082 122 118 109 0 0
-0.732932 0.054799 0.305497 57 57 59 0 0
-0.746734 0.042691 0.289600 59 57 57 0 0
-0.742915 0.052846 0.292974 56 53 53 0 0
-0.730639 0.051203 0.315854 86 86 85 0 0
-0.754954 0.039511 0.316788 127 127 125 0 0
-0.734937 0.041866 0.318725 57 56 58 0 0
-0.752062 0.042357 0.305739 64 64 64 0 0
-0.724260 0.062859 0.299507 64 61 62 0 0
-0.720125 0.046107 0.306270 56 53 54 0 0
-0.735448 0.031052 0.301431 51 49 48 0 0
-0.719012 0.039858 0.299614 51 49 48 0 0
-0.482707 -0.290040 0.156053 39 39 47 14 7
-0.486254 -0.281638 0.157953 106 109 115 14 7
-0.491575 -0.302435 0.156756 49 49 57 14 7
-0.358762 -0.175939 0.169838 21 21 23 14 7
-0.366960 -0.177954 0.196617 23 22 24 40 9
-0.372856 -0.159459 0.163655 22 23 27 14 7
-0.374076 -0.168545 0.167199 22 23 27 14 7
-0.270264 -0.019601 0.176758 32 24 24 40 3
-0.280389 -0.041961 0.169744 115 101 84 40 3
-0.278067 -0.768372 0.419545 116 108 154 40 1
-0.295412 -0.234199 0.204123 114 114 114 40 9
-0.285000 -0.231253 0.211931 133 129 122 40 9
-0.291034 -0.232114 0.197758 138 134 129 40 9
-0.679592 -0.273910 0.157794 130 129 128 14 7
-0.700826 -0.260342 0.162215 214 211 196 14 7
-0.699099 -0.271391 0.157539 214 211 196 14 7
-0.140456 -0.256060 0.376575 31 29 30 40 9
-0.132334 -0.256982 0.358627 36 36 34 40 9
-0.143839 -0.250408 0.351122 30 31 32 40 9
-0.152144 -0.248060 0.365717 28 29 30 40 9
-0.135994 -0.255219 0.344205 33 32 32 40 9
-0.125496 -0.256572 0.373426 35 33 32 40 9
-0.312635 -0.213894 0.413827 141 134 130 40 9
-0.335530 -0.206833 0.415607 163 157 155 40 9
-0.316005 -0.211894 0.439251 189 187 188 40 9
-0.308033 -0.213961 0.425502 123 118 114 40 9
-0.321079 -0.207250 0.423314 163 160 156 40 9
-0.333809 -0.211380 0.434917 170 168 166 40 9
-0.049478 -0.253591 0.414715 30 32 35 40 9
-0.071662 -0.256007 0.415002 57 69 86 40 9
-0.075506 -0.254746 0.387626 28 32 42 40 9
-0.055645 -0.255703 0.394744 62 63 69 40 9
-0.071307 -0.253548 0.379231 52 57 67 40 9
-0.069145 -0.258333 0.399633 50 52 58 40 9
-0.058469 -0.251074 0.407594 30 32 36 40 9
-0.072538 -0.257101 0.402574 57 66 90 40 9
-0.158340 -0.237341 0.270784 21 21 24 40 9
-0.173766 -0.235911 0.267434 20 19 23 40 9
-0.516736 0.067782 0.187799 111 114 112 14 7
-0.510650 0.076908 0.186917 71 72 71 14 7
-0.508370 0.054144 0.187280 87 91 87 14 7
-0.443425 -0.039143 0.162223 39 31 27 40 3
-0.452243 -0.022792 0.163413 55 46 35 40 3
-0.432971 -0.040377 0.166712 33 27 30 40 3
-0.441888 -0.022142 0.172952 44 34 30 40 3
-0.403948 -0.049179 0.158128 77 66 57 40 3
-0.398844 -0.048943 0.163334 140 125 104 40 3
-0.387204 -0.048332 0.155788 36 27 27 40 3
-0.359762 -0.179000 0.204547 70 68 67 40 9
-0.347782 -0.186353 0.223096 136 131 126 40 9
-0.335815 -0.175610 0.193431 115 114 109 40 9
-0.344252 -0.180653 0.208174 104 99 99 40 9
-0.349582 -0.180374 0.193907 85 83 81 40 9
-0.325710 -0.176231 0.204139 142 138 131 40 9
-0.004999 -0.152131 0.541264 40 41 42 40 8
-0.029896 -0.156820 0.535562 34 36 30 40 8
-0.038376 -0.154124 0.538695 163 164 154 0 0
0.001584 -0.153003 0.522962 21 22 21 40 8
-0.006756 -0.156395 0.518526 22 22 22 40 8
-0.018842 -0.152539 0.530600 22 23 24 40 8
-0.741646 0.080933 0.258529 84 80 94 0 0
-0.744208 0.091593 0.231849 120 118 122 0 0
-0.742846 0.006820 0.231215 131 131 137 0 0
-0.748489 -0.016601 0.238734 128 118 119 0 0
-0.750194 -0.001065 0.247131 93 92 98 0 0
-0.752482 -0.013005 0.236510 119 107 108 0 0
-0.756324 -0.011004 0.247554 132 133 136 0 0
-0.753236 -0.008143 0.229101 115 102 101 0 0
-0.073395 -0.180981 0.490863 82 84 86 0 0
-0.077076 -0.187063 0.503504 95 94 95 0 0
-0.248761 -0.196637 0.160510 32 31 30 14 7
-0.635851 -0.180452 0.153648 233 218 196 14 7
-0.650432 -0.185190 0.154509 238 225 200 14 7
-0.230464 -0.609252 0.130755 64 57 54 14 5
-0.242798 -0.603828 0.130616 51 45 43 14 5
-0.424341 -0.187492 0.329096 63 65 71 40 9
-0.429711 -0.182238 0.318102 66 70 76 40 9
-0.417763 -0.181618 0.321620 61 63 71 40 9
-0.410430 -0.182598 0.336060 64 67 74 40 9
-0.405302 -0.173146 0.325918 69 76 83 40 9
-0.424930 -0.184665 0.347472 58 64 69 40 9
-0.234920 -0.195607 0.157908 163 150 124 14 7
-0.260129 -0.178143 0.157838 195 194 161 14 7
-0.744062 -0.114021 0.157158 137 137 134 14 7
-0.723266 -0.117645 0.156594 163 154 137 14 7
-0.749611 -0.138752 0.157893 210 209 210 14 7
-0.237393 -0.714985 0.123118 162 153 143 14 5
-0.562506 0.173795 0.154399 235 216 187 14 7
-0.596113 0.157163 0.153600 219 201 176 14 7
-0.671659 0.068688 0.157679 137 116 108 0 0
-0.667148 0.048164 0.155647 131 115 103 0 0
-0.672566 0.041343 0.157878 126 111 102 0 0
-0.414773 -0.241736 0.448906 31 31 32 40 9
-0.198975 -0.069277 0.152043 141 129 113 14 7
-0.218757 -0.056601 0.152710 110 105 104 40 3
-0.233266 -0.082581 0.149940 172 155 128 14 7
-0.037722 -0.235999 0.252527 16 17 20 40 9
-0.042384 -0.236362 0.267687 40 44 54 40 9
-0.044894 -0.243262 0.283723 38 39 41 40 9
-0.067061 -0.241777 0.282274 39 41 44 40 9
-0.060932 -0.235146 0.274191 33 34 37 40 9
-0.070292 -0.239886 0.269659 24 29 35 40 9
-0.050329 -0.237545 0.278512 45 49 51 40 9
-0.052004 -0.238566 0.267592 39 43 52 40 9
-0.060894 -0.234150 0.263690 18 20 25 40 9
-0.185836 -0.233412 0.277044 34 35 43 40 9
-0.210486 -0.252681 0.276552 52 53 62 40 9
-0.200964 -0.258269 0.284117 57 58 66 40 9
-0.213552 -0.248977 0.283669 48 49 56 40 9
-0.190105 -0.232821 0.259928 27 30 36 40 9
-0.205101 -0.227586 0.260607 19 19 22 40 9
-0.195414 -0.234793 0.282673 29 30 34 40 9
-0.279843 -0.318503 0.058093 22 23 26 0 0
-0.288265 -0.321505 0.061264 10 13 14 0 0
-0.285908 -0.316597 0.053632 22 23 27 0 0
-0.379662 -0.015958 0.178338 36 37 39 40 3
-0.357601 -0.011093 0.178524 22 23 25 40 3
-0.062005 -0.274489 0.594302 170 173 152 40 9
-0.046168 -0.271865 0.590416 166 170 150 40 9
-0.074423 -0.268243 0.591253 132 147 141 40 9
-0.208602 -0.636419 0.127493 147 133 114 14 5
-0.206841 -0.646456 0.128410 143 130 109 14 5
-0.522746 -0.369969 0.124967 148 140 135 14 7
-0.065225 -0.172519 0.474008 35 35 38 0 0
-0.431517 -0.180370 0.280496 44 43 43 40 9
-0.426594 -0.178035 0.260101 31 30 28 40 9
-0.416651 -0.176774 0.273793 44 47 55 40 9
-0.406067 -0.181324 0.278280 53 54 59 40 9
-0.397696 -0.190515 0.282749 50 52 59 40 9
-0.404834 -0.185161 0.286366 50 52 59 40 9
-0.418079 -0.181893 0.281455 42 42 41 40 9
-0.405594 -0.182646 0.265907 32 31 31 40 9
-0.414089 -0.178440 0.258682 40 38 37 40 9
-0.137681 -0.322430 0.057068 13 15 16 0 0
-0.285468 -0.222246 0.330971 165 162 155 40 9
-0.292521 -0.228801 0.319369 173 170 161 40 9
-0.290518 -0.229544 0.353406 87 86 91 40 9
-0.280806 -0.224878 0.344293 34 32 40 40 9
-0.296711 -0.231181 0.340815 101 102 104 40 9
-0.310149 -0.240003 0.321014 150 149 146 40 9
-0.171103 -0.247709 0.371373 30 30 32 40 9
-0.340953 -0.728035 0.499424 94 91 124 40 1
-0.320293 -0.734458 0.503364 123 114 167 40 1
-0.327847 -0.733002 0.504265 127 118 172 40 1
-0.314115 -0.723735 0.499121 117 107 160 40 1
-0.548883 0.106520 0.160688 181 169 152 14 7
-0.519411 0.110644 0.173274 153 159 160 14 7
-0.534430 0.106814 0.171450 118 116 113 14 7
-0.414943 -0.735216 0.133067 160 148 124 14 5
-0.404151 -0.737614 0.134695 135 132 111 14 5
-0.210364 -0.099540 0.153100 197 180 146 14 7
-0.213756 -0.084124 0.150465 172 156 129 14 7
-0.374728 -0.261200 0.571790 72 73 71 40 9
-0.102386 -0.265533 0.372631 58 52 47 40 9
-0.109430 -0.267284 0.365035 60 54 48 40 9
-0.106801 -0.277674 0.371584 48 44 40 40 9
-0.091211 -0.281413 0.371139 35 42 53 40 9
-0.093792 -0.279041 0.362094 39 40 39 40 9
-0.103045 -0.267656 0.358872 39 39 38 40 9
-0.098006 -0.272247 0.353545 57 66 86 40 9
-0.110961 -0.273172 0.355163 46 44 42 40 9
-0.100345 -0.283706 0.364404 53 63 81 40 9
-0.110219 -0.282564 0.365418 45 51 63 40 9
-0.126458 -0.290418 0.366836 49 55 69 40 9
-0.108318 -0.288908 0.373540 55 55 57 40 9
-0.154101 -0.360026 0.157385 133 125 127 0 0
-0.143357 -0.369826 0.144026 81 77 73 0 0
-0.133382 -0.378918 0.142098 154 144 141 14 7
-0.153842 -0.355939 0.146905 136 123 115 0 0
-0.123842 -0.353948 0.155170 47 45 43 14 7
-0.128720 -0.368056 0.149442 99 102 104 14 7
-0.430536 -0.209107 0.561855 33 33 35 40 9
-0.415506 -0.213684 0.561873 31 33 33 40 9
-0.431581 -0.209701 0.550677 30 31 34 40 9
-0.568607 -0.320243 0.158356 118 116 120 14 7
-0.582422 -0.308622 0.158358 107 106 104 14 7
-0.468705 0.064211 0.155320 127 115 94 14 7
-0.463706 0.044764 0.157422 134 120 101 14 7
-0.463493 0.033377 0.154802 39 40 45 14 7
-0.187572 -0.191221 0.153534 223 216 190 14 7
-0.746518 -0.099197 0.148986 165 158 145 14 7
-0.741947 -0.084755 0.148374 190 176 162 14 7
-0.746723 -0.070251 0.142705 145 146 159 0 0
-0.744612 -0.086595 0.134996 153 154 159 0 0
-0.768560 -0.077261 0.140862 140 140 144 0 0
-0.765144 -0.090237 0.135552 141 141 142 0 0
-0.758833 -0.064945 0.150675 169 164 168 0 0
-0.694200 0.063657 0.218907 58 39 44 0 0
-0.692925 0.054509 0.206357 94 73 54 0 0
-0.693011 0.077078 0.201331 81 64 63 0 0
-0.689897 0.068417 0.185920 87 68 48 0 0
-0.691317 0.075722 0.214960 135 105 102 0 0
-0.493175 -0.206758 0.403402 162 160 157 40 9
-0.483601 -0.209683 0.408698 177 171 168 40 9
-0.204880 -0.250812 0.476036 22 22 24 40 9
-0.218206 -0.251963 0.482801 19 20 23 40 9
-0.191114 -0.249536 0.455463 19 20 24 40 9
-0.197109 -0.252482 0.468967 21 22 24 40 9
-0.201227 -0.255255 0.502989 20 21 25 40 9
-0.208964 -0.252895 0.485755 20 21 23 40 9
-0.199027 -0.284381 0.386010 23 24 25 40 9
-0.192368 -0.288470 0.410508 13 14 17 40 9
-0.177854 -0.308853 0.431593 27 27 32 40 9
-0.197192 -0.296685 0.436575 22 23 25 40 9
-0.435591 -0.235204 0.454528 32 33 36 40 9
-0.437684 -0.243285 0.475333 135 135 134 40 9
-0.443940 -0.228017 0.443218 103 103 106 40 9
-0.423142 -0.243038 0.459297 51 55 63 40 9
-0.446098 -0.237352 0.469186 141 139 135 40 9
-0.169937 -0.249749 0.410383 25 25 28 40 9
-0.154581 -0.253309 0.386635 30 30 31 40 9
-0.165014 -0.250329 0.397680 28 28 29 40 9
-0.182410 -0.247346 0.384576 29 28 32 40 9
-0.151857 -0.256642 0.400981 30 29 29 40 9
-0.302178 -0.217108 0.407088 23 21 19 40 9
-0.301117 -0.205804 0.391045 29 24 23 40 9
-0.279708 -0.222768 0.390664 21 19 17 40 9
-0.407527 -0.238817 0.381947 83 84 95 40 9
-0.413520 -0.233135 0.370088 106 110 115 40 9
-0.662318 -0.030881 0.206977 135 117 103 0 0
-0.672072 -0.011226 0.222894 195 192 189 0 0
-0.299553 -0.786073 0.266784 131 121 163 40 1
-0.311294 -0.792592 0.261129 130 119 161 40 1
-0.319762 -0.791458 0.274029 136 125 168 40 1
-0.090249 -0.247662 0.345104 46 45 48 40 9
-0.106516 -0.253720 0.334936 39 39 38 40 9
-0.112229 -0.246617 0.335360 37 37 39 40 9
-0.088525 -0.263195 0.339031 72 74 85 40 9
-0.107809 -0.253439 0.354469 29 28 31 40 9
-0.307088 -0.101658 0.152274 189 171 142 14 7
-0.331005 -0.125226 0.152801 186 166 140 14 7
-0.624542 -0.358694 0.139224 127 127 126 14 7
-0.608339 -0.348164 0.144792 181 179 174 14 7
-0.622098 -0.342901 0.144885 127 127 126 14 7
-0.744339 -0.045298 0.289337 68 69 81 0 0
-0.732705 -0.065176 0.301805 69 69 80 0 0
-0.757965 -0.056805 0.307252 100 101 110 0 0
-0.520412 -0.324294 0.158139 222 223 223 14 7
-0.695181 -0.053132 0.250726 131 122 120 0 0
-0.363094 -0.202120 0.369989 36 37 39 40 9
-0.371215 -0.201201 0.387929 39 41 47 40 9
-0.353319 -0.196975 0.363560 48 50 52 40 9
-0.239628 -0.302461 0.492009 133 130 130 40 9
-0.247391 -0.294481 0.493437 120 117 116 40 9
-0.264991 -0.274308 0.482814 66 59 58 40 9
-0.233502 -0.286387 0.486736 117 116 116 40 9
-0.256633 -0.287787 0.489952 161 156 155 40 9
-0.185312 -0.264442 0.235330 70 68 76 40 9
-0.205590 -0.255498 0.232689 108 107 110 40 9
-0.187256 -0.248180 0.224789 30 30 35 40 9
-0.219263 -0.236003 0.228191 19 19 23 40 9
-0.208829 -0.250466 0.228406 121 120 123 40 9
-0.191010 -0.252762 0.224815 20 20 26 40 9
-0.195976 -0.233231 0.232769 29 29 33 40 9
-0.568675 0.079845 0.158958 180 165 143 14 7
-0.715399 0.118740 0.223094 146 145 143 0 0
-0.696270 0.104023 0.229661 210 206 213 0 0
-0.707814 0.112042 0.229050 214 212 223 0 0
-0.708624 0.104701 0.243122 213 209 213 0 0
-0.722442 0.103063 0.235973 182 180 186 0 0
-0.659171 -0.039874 0.207846 144 142 136 0 0
-0.665279 -0.047076 0.194568 169 163 152 0 0
-0.681255 -0.059009 0.207907 138 126 118 0 0
-0.662133 -0.040790 0.220547 186 166 141 0 0
-0.677570 -0.056249 0.186068 175 168 153 0 0
-0.669171 -0.050634 0.217228 204 197 182 0 0
-0.188286 -0.316405 0.149629 80 92 100 14 7
-0.212373 -0.314230 0.156686 173 168 158 14 7
-0.202207 -0.314759 0.151190 183 177 164 14 7
-0.155715 -0.236982 0.295911 39 43 51 40 9
-0.180924 -0.241468 0.291360 28 29 32 40 9
-0.160292 -0.241299 0.307890 39 42 50 40 9
-0.168772 -0.239935 0.295325 29 30 35 40 9
-0.178831 -0.241772 0.303187 44 48 55 40 9
-0.063129 -0.268107 0.157095 59 70 82 14 7
-0.046135 -0.251133 0.169623 53 89 107 14 7
-0.044770 -0.277947 0.171275 49 63 73 14 7
-0.048450 -0.255819 0.180820 230 232 235 14 7
-0.238279 -0.255453 0.330303 28 30 39 40 9
-0.296383 -0.032994 0.169284 40 37 37 40 3
-0.339320 -0.025499 0.174824 43 40 40 40 3
-0.324074 -0.006704 0.176111 28 29 31 40 3
-0.519510 -0.219927 0.490359 146 147 149 40 9
-0.535376 -0.220255 0.493807 114 110 106 40 9
-0.523798 -0.225927 0.504744 165 157 153 40 9
-0.523900 -0.212317 0.484201 94 93 93 40 9
-0.400677 -0.369919 0.127963 125 115 106 14 7
-0.792151 -0.054157 0.142595 147 147 151 0 0
-0.789363 -0.062716 0.139311 99 99 113 0 0
-0.761033 -0.058723 0.149049 164 164 166 0 0
-0.789147 -0.079317 0.141833 137 136 134 0 0
-0.790136 -0.071513 0.140230 167 166 168 0 0
-0.779501 -0.083592 0.145025 162 161 163 0 0
-0.775595 -0.068516 0.145270 179 178 185 0 0
-0.565988 -0.165071 0.255507 45 44 44 40 9
-0.676949 0.164050 0.158966 228 210 197 14 7
-0.663806 0.129200 0.153916 223 200 185 14 7
-0.686159 0.173772 0.155923 255 255 254 14 7
-0.701629 0.182566 0.157113 255 255 254 14 7
-0.218728 -0.615403 0.123693 105 94 81 14 5
-0.203044 -0.622670 0.127463 136 127 107 14 5
-0.214890 -0.607694 0.126647 63 55 47 14 5
-0.531475 -0.128922 0.153996 217 203 186 14 7
-0.523660 -0.136764 0.155904 202 190 172 14 7
-0.534119 -0.166757 0.155744 187 183 157 14 7
-0.755175 0.072912 0.231113 155 150 161 0 0
-0.753377 0.048810 0.246092 79 49 50 0 0
-0.760025 0.063089 0.246846 187 183 192 0 0
-0.762476 0.063933 0.229744 180 173 184 0 0
-0.756245 0.053952 0.223071 58 46 40 0 0
-0.579255 -0.347049 0.145591 210 208 200 14 7
-0.589100 -0.354693 0.145611 148 146 148 14 7
-0.574792 -0.359594 0.145631 162 161 166 14 7
-0.593041 -0.363600 0.140297 230 228 225 14 7
-0.575604 -0.370011 0.135056 165 162 166 14 7
-0.606867 -0.365658 0.140346 217 217 214 14 7
-0.631448 -0.228821 0.157562 37 37 36 14 7
-0.624879 -0.222841 0.152902 109 107 98 14 7
-0.640370 -0.223470 0.154620 147 141 127 14 7
-0.657763 -0.236841 0.154956 171 167 155 14 7
-0.391093 -0.706170 0.128326 254 250 242 14 5
-0.393102 -0.721134 0.128245 255 252 245 14 5
-0.395123 -0.736067 0.133626 255 253 248 14 5
-0.401628 -0.716735 0.128219 230 224 211 14 5
-0.311375 -0.784422 0.333485 128 117 160 40 1
-0.301912 -0.781537 0.344187 138 127 173 40 1
-0.218512 -0.281557 0.428122 123 124 125 40 9
-0.203070 -0.303808 0.435272 82 84 87 40 9
-0.218208 -0.295381 0.438481 76 77 78 40 9
-0.701501 0.006153 0.289008 134 130 129 0 0
-0.714489 0.027642 0.292677 95 92 87 0 0
-0.089670 -0.262781 0.483717 31 34 35 40 9
-0.094901 -0.260969 0.478576 39 44 48 40 9
-0.279969 -0.700628 0.123516 84 76 69 14 5
-0.290225 -0.676565 0.124852 135 128 125 14 5
-0.139060 -0.148711 0.529156 100 99 94 0 0
-0.100815 -0.149995 0.541552 107 106 103 0 0
-0.127990 -0.151806 0.536637 137 133 129 0 0
-0.120865 -0.150884 0.521684 83 81 76 0 0
-0.182726 -0.249009 0.419810 18 19 22 40 9
-0.204950 -0.248828 0.439591 19 20 24 40 9
-0.195645 -0.246151 0.426399 24 25 25 40 9
-0.100535 -0.262775 0.425115 41 40 38 40 9
-0.180808 -0.147690 0.526823 74 74 75 0 0
-0.495229 -0.174947 0.305416 108 108 106 40 9
-0.503638 -0.185982 0.299094 50 51 52 40 9
-0.503610 -0.180825 0.311018 185 188 190 40 9
-0.516553 -0.180124 0.309201 94 98 104 40 9
-0.526789 -0.178533 0.310796 49 50 53 40 9
-0.513599 -0.172944 0.316508 62 65 72 40 9
-0.504219 -0.179154 0.296136 122 124 124 40 9
-0.509151 -0.190598 0.311665 106 107 112 40 9
-0.521479 -0.187842 0.308304 71 75 85 40 9
-0.510621 -0.178013 0.324076 50 54 56 40 9
-0.511221 -0.179830 0.290736 149 151 149 40 9
-0.521437 -0.177937 0.316088 52 55 57 40 9
-0.524007 -0.185686 0.317277 55 56 60 40 9
-0.530549 -0.178357 0.313230 53 54 58 40 9
-0.454307 -0.378486 0.131324 128 122 116 14 7
-0.385823 -0.311938 0.149848 202 208 212 14 7
-0.471004 -0.377145 0.127290 161 158 155 14 7
-0.451480 -0.371605 0.130343 112 108 102 14 7
-0.429429 -0.365639 0.133604 142 142 143 14 7
-0.454264 -0.363170 0.140248 181 180 183 14 7
-0.459141 -0.372704 0.133937 178 177 180 14 7
-0.449001 -0.198650 0.492970 31 31 34 40 9
-0.438840 -0.202268 0.507279 30 31 33 40 9
-0.462808 -0.196963 0.519671 32 31 34 40 9
-0.457359 -0.194360 0.485210 30 30 32 40 9
-0.465661 -0.197035 0.504726 32 31 35 40 9
-0.374858 -0.207251 0.454490 27 27 30 40 9
-0.402170 -0.202465 0.448525 26 26 28 40 9
-0.392426 -0.205450 0.460035 30 30 31 40 9
-0.391187 -0.208243 0.469567 31 31 33 40 9
-0.353824 -0.054848 0.158226 146 132 110 40 3
-0.074472 -0.190089 0.161912 121 107 89 14 7
-0.164153 -0.314866 0.202905 73 76 84 0 0
-0.196191 -0.308349 0.204021 90 92 99 0 0
-0.325868 -0.240453 0.332766 119 120 122 40 9
-0.320609 -0.244956 0.324422 120 121 130 40 9
-0.338346 -0.240905 0.335190 89 92 97 40 9
-0.328400 -0.246054 0.348947 110 113 116 40 9
-0.434445 -0.331780 0.151538 171 166 161 14 7
-0.423913 -0.341451 0.151316 187 181 171 14 7
-0.458711 -0.337422 0.150142 146 141 136 14 7
-0.450015 -0.331960 0.150614 137 134 132 14 7
-0.436701 -0.350208 0.146151 160 156 152 14 7
-0.433581 -0.358879 0.142996 202 200 195 14 7
-0.443122 -0.356602 0.148776 182 183 181 14 7
-0.176210 -0.326762 0.061702 13 13 13 0 0
-0.221257 -0.294514 0.154684 72 71 69 14 7
-0.254477 -0.297125 0.153261 170 168 151 14 7
-0.212578 -0.330305 0.152584 190 187 169 14 7
-0.221822 -0.308920 0.153154 192 190 170 14 7
-0.673797 0.003926 0.204917 148 112 71 0 0
-0.380439 -0.221360 0.587452 180 180 173 40 9
-0.407324 -0.223901 0.587650 177 178 158 40 9
-0.384344 -0.229676 0.589112 149 146 131 40 9
-0.455730 0.006575 0.161059 116 110 100 40 3
-0.212578 -0.269337 0.595262 18 51 72 40 9
-0.203525 -0.258934 0.585777 101 101 104 40 9
-0.212485 -0.264263 0.576643 91 97 103 40 9
-0.200856 -0.260620 0.590923 33 66 84 40 9
-0.219002 -0.260214 0.591057 30 60 75 40 9
-0.288301 -0.054487 0.162114 130 120 101 40 3
-0.301469 -0.055128 0.156672 139 129 110 40 3
-0.303484 -0.044434 0.164447 89 78 68 40 3
-0.278675 -0.242438 0.556655 27 28 31 40 9
-0.270879 -0.247403 0.557195 27 24 27 40 9
-0.276615 -0.247290 0.566831 55 54 57 40 9
-0.266406 -0.249432 0.545888 25 25 26 40 9
-0.524217 -0.188426 0.466049 227 224 217 40 9
-0.507478 -0.186079 0.452115 115 111 102 40 9
-0.500306 -0.187933 0.474577 235 231 221 40 9
-0.539679 -0.188395 0.471281 240 236 231 40 9
-0.512666 -0.189957 0.462220 230 226 220 40 9
-0.528392 -0.187845 0.477053 247 245 242 40 9
-0.560872 -0.190350 0.157960 37 34 34 14 7
-0.387714 -0.358760 0.120943 124 118 113 0 0
-0.398329 -0.349308 0.113826 117 108 99 0 0
-0.376850 -0.363052 0.123583 118 111 107 0 0
-0.386702 -0.368626 0.125166 129 121 113 0 0
-0.362349 -0.328709 0.151971 203 209 217 14 7
-0.371880 -0.317119 0.153856 173 179 184 14 7
-0.362560 -0.317279 0.157706 200 201 209 14 7
-0.476068 0.022286 0.153135 157 144 120 14 7
-0.488107 0.018562 0.153198 176 157 128 14 7
-0.056755 -0.173005 0.522455 15 13 13 0 0
-0.055700 -0.157121 0.531594 56 57 54 0 0
-0.051673 -0.178114 0.537654 23 22 24 0 0
-0.059379 -0.164682 0.514704 27 26 24 0 0
-0.496399 -0.180553 0.341862 52 54 60 40 9
-0.518024 -0.182226 0.323135 82 83 91 40 9
-0.500321 -0.178692 0.330591 58 58 67 40 9
-0.504063 -0.191994 0.324921 79 79 85 40 9
-0.516285 -0.182535 0.330420 55 59 67 40 9
-0.516645 -0.188590 0.338664 61 61 66 40 9
-0.500572 -0.193158 0.338326 61 61 66 40 9
-0.513834 -0.182599 0.341045 125 126 127 40 9
-0.497280 -0.216162 0.454444 93 88 83 40 9
-0.485935 -0.213361 0.420025 162 156 151 40 9
-0.481916 -0.215638 0.434552 123 117 113 40 9
-0.496675 -0.209391 0.423009 178 171 166 40 9
-0.496588 -0.218310 0.439254 131 131 127 40 9
-0.504064 -0.207752 0.429631 116 111 107 40 9
-0.751981 0.033472 0.274770 119 119 117 0 0
-0.751658 0.028471 0.268394 117 117 115 0 0
-0.746334 0.015654 0.257196 82 83 89 0 0
-0.746774 0.016996 0.279734 118 117 113 0 0
-0.751410 0.016018 0.272234 119 120 115 0 0
-0.756213 0.013800 0.266415 117 112 119 0 0
-0.162080 -0.237141 0.160167 51 52 57 14 7
-0.167206 -0.258599 0.154894 51 54 60 14 7
-0.173788 -0.233179 0.160034 42 45 51 14 7
-0.190961 -0.254685 0.155949 48 53 61 14 7
-0.179806 -0.266307 0.155244 62 65 70 14 7
-0.685452 0.016982 0.237270 88 68 54 0 0
-0.678153 0.010507 0.217275 110 94 81 0 0
-0.478364 -0.187054 0.469618 232 233 233 40 9
-0.492340 -0.188504 0.472313 241 241 238 40 9
-0.494846 -0.185262 0.460851 168 166 159 40 9
-0.495633 -0.179255 0.451664 175 172 165 40 9
-0.477992 -0.185984 0.450764 143 143 142 40 9
-0.806522 -0.127747 0.133843 146 145 140 14 7
-0.805287 -0.121936 0.158126 165 165 151 14 7
-0.804231 -0.127233 0.139212 141 139 129 14 7
-0.817368 -0.125506 0.131351 167 164 150 14 7
-0.811591 -0.133102 0.154835 180 181 169 14 7
-0.807365 -0.112941 0.142322 179 174 161 14 7
-0.818434 -0.130839 0.147170 196 194 177 14 7
-0.811968 -0.118904 0.146955 188 186 167 14 7
-0.813650 -0.130802 0.141053 190 187 169 14 7
-0.802001 -0.134241 0.142201 192 186 169 14 7
-0.816052 -0.115346 0.141558 178 173 157 14 7
-0.302450 0.025180 0.173443 25 27 33 40 3
-0.283748 0.030967 0.176331 27 28 35 40 3
-0.696543 0.225156 0.154379 125 68 222 14 7
-0.689095 0.216288 0.156332 106 6 243 14 7
-0.612355 -0.079941 0.156278 255 254 246 14 7
-0.481739 -0.158862 0.243589 44 41 38 40 9
-0.491707 -0.156258 0.246343 43 43 41 40 9
-0.509960 -0.153571 0.235361 47 43 41 40 9
-0.527415 -0.149072 0.231503 71 80 75 40 9
-0.517605 -0.150405 0.249106 132 134 130 40 9
-0.144578 -0.286248 0.287407 29 31 36 40 9
-0.157984 -0.285220 0.298950 40 40 46 40 9
-0.138991 -0.281394 0.312133 27 29 28 40 9
-0.146698 -0.294801 0.307618 28 28 28 40 9
-0.140802 -0.295187 0.312569 30 32 33 40 9
-0.138770 -0.291714 0.301024 20 20 21 40 9
-0.158478 -0.286066 0.306952 32 34 39 40 9
-0.127094 -0.301856 0.337960 30 30 34 40 9
-0.140552 -0.298159 0.348619 33 32 35 40 9
-0.503638 -0.185430 0.482060 127 123 122 40 9
-0.521818 -0.186958 0.486841 133 130 130 40 9
-0.539469 -0.191158 0.483465 25 27 30 40 9
-0.510428 -0.183145 0.500089 33 36 39 40 9
-0.530708 -0.178685 0.501903 35 37 39 40 9
-0.097601 -0.274794 0.240952 34 34 43 40 8
-0.109042 -0.262065 0.228598 39 41 50 40 9
-0.096305 -0.283670 0.231670 32 32 35 40 8
-0.108559 -0.270225 0.222459 37 38 47 40 9
-0.375934 0.059300 0.175049 28 29 32 40 3
-0.391594 0.062696 0.175036 18 20 22 40 3
-0.262528 -0.770243 0.327161 123 113 163 40 1
-0.254544 -0.767276 0.326567 115 106 152 40 1
-0.279544 -0.774000 0.311837 125 115 161 40 1
-0.275993 -0.771430 0.338702 126 117 163 40 1
-0.273357 -0.772834 0.327426 130 120 166 40 1
-0.266249 -0.770284 0.340921 119 111 158 40 1
-0.274798 -0.769285 0.353579 120 110 157 40 1
-0.227169 -0.330992 0.151756 174 168 156 14 7
-0.221927 -0.338192 0.151304 204 196 186 14 7
-0.255982 -0.251702 0.582145 114 111 101 40 9
-0.261390 -0.246648 0.586646 123 124 110 40 9
-0.267865 -0.244688 0.582102 130 130 125 40 9
-0.258344 -0.258428 0.591486 116 111 99 40 9
-0.269364 -0.254705 0.592580 117 114 100 40 9
-0.118297 -0.259058 0.388310 45 43 42 40 9
-0.135982 -0.264380 0.408714 42 41 40 40 9
-0.139766 -0.259859 0.395510 33 32 36 40 9
-0.262838 -0.535241 0.125912 214 214 216 14 5
-0.084306 -0.247377 0.370161 57 67 87 40 9
-0.076983 -0.245290 0.358286 57 65 85 40 9
-0.096391 -0.251623 0.362256 41 43 53 40 9
-0.107502 -0.259243 0.360332 39 39 38 40 9
-0.097102 -0.262845 0.375300 53 61 80 40 9
-0.114403 -0.254297 0.375565 45 43 41 40 9
-0.090084 -0.252524 0.356157 58 65 88 40 9
-0.102824 -0.250602 0.341928 45 45 48 40 9
-0.100982 -0.263787 0.365022 47 49 53 40 9
-0.113143 -0.255465 0.365567 45 44 39 40 9
-0.551982 0.003559 0.136714 97 91 88 14 7
-0.524434 0.016404 0.159590 88 88 86 14 7
-0.540514 -0.000471 0.132062 105 108 122 14 7
-0.532775 -0.005191 0.133371 105 108 122 14 7
-0.532523 0.000173 0.148982 90 90 94 14 7
-0.538708 0.014101 0.141461 60 59 67 14 7
-0.533027 0.007217 0.147534 30 30 35 14 7
-0.540537 -0.007299 0.130756 102 103 105 14 7
-0.557883 -0.003666 0.141663 164 167 185 14 7
-0.539867 -0.003176 0.139482 164 171 192 14 7
-0.271066 -0.777054 0.266639 116 107 150 40 1
-0.332644 -0.184452 0.255350 208 200 195 40 9
-0.335233 -0.188172 0.265429 250 246 243 40 9
-0.322659 -0.180812 0.277112 100 98 97 40 9
-0.355508 -0.191696 0.263749 252 249 248 40 9
-0.341433 -0.184904 0.279797 128 123 119 40 9
-0.360153 -0.189341 0.278793 40 37 37 40 9
-0.193446 -0.038695 0.153965 54 57 64 40 3
-0.170590 -0.054634 0.149177 91 90 90 14 7
-0.174460 -0.041829 0.149956 107 107 111 14 7
-0.196804 -0.052705 0.150926 88 88 87 14 7
-0.183135 -0.046101 0.153897 51 47 50 40 3
-0.483749 -0.199646 0.272265 145 147 149 40 9
-0.506980 -0.200528 0.264922 47 47 45 40 9
-0.481966 -0.200599 0.285989 141 142 142 40 9
-0.499852 -0.196044 0.275123 136 138 136 40 9
-0.410412 -0.705683 0.123972 239 236 230 14 5
-0.427492 -0.694571 0.119539 163 160 151 14 5
-0.419585 -0.707356 0.122997 125 123 117 14 5
-0.104557 -0.362977 0.133786 145 142 127 0 0
-0.091130 -0.371953 0.134383 128 126 112 0 0
-0.124191 -0.383664 0.153172 23 24 29 14 7
-0.107523 -0.393436 0.155784 22 23 29 14 7
-0.091262 -0.374987 0.149689 28 33 39 14 7
-0.109985 -0.364053 0.151837 33 39 45 14 7
-0.120166 -0.370367 0.151991 40 46 54 14 7
-0.129054 -0.392882 0.144119 149 139 129 0 0
-0.128477 -0.389609 0.137388 59 63 65 0 0
-0.115251 -0.392081 0.134407 41 48 54 0 0
-0.744543 0.080604 0.247174 99 95 109 0 0
-0.406814 -0.199971 0.428677 25 26 28 40 9
-0.409560 -0.195566 0.415772 30 31 31 40 9
-0.424122 -0.196083 0.421004 23 24 26 40 9
-0.423082 -0.195730 0.435015 31 34 38 40 9
-0.150736 -0.302556 0.573229 183 182 180 40 9
-0.157796 -0.298153 0.594124 59 79 82 40 9
-0.131344 -0.292896 0.591513 83 97 94 40 9
-0.143808 -0.300637 0.593110 133 130 113 40 9
-0.177596 -0.244889 0.356052 28 30 34 40 9
-0.209995 -0.240257 0.361695 28 30 35 40 9
-0.179895 -0.244440 0.366062 25 26 28 40 9
-0.202572 -0.240071 0.374499 29 29 32 40 9
-0.196696 -0.241254 0.364294 31 33 40 40 9
-0.214468 -0.236149 0.350157 29 32 38 40 9
-0.266490 -0.771877 0.299529 117 108 155 40 1
-0.260442 -0.769666 0.288954 121 113 157 40 1
-0.277983 -0.777077 0.290868 123 114 160 40 1
-0.338735 -0.612963 0.128628 75 76 75 14 5
-0.368041 -0.626818 0.125939 38 38 31 14 5
-0.355861 -0.616858 0.129893 75 76 75 14 5
-0.769101 0.121170 0.193484 124 118 116 0 0
-0.752017 0.143104 0.206926 131 128 130 0 0
-0.761243 0.142103 0.203059 143 142 153 0 0
-0.621646 -0.185261 0.154523 234 222 196 14 7
-0.622159 -0.208788 0.156121 95 91 81 14 7
-0.110972 -0.151878 0.555028 107 108 108 0 0
-0.124461 -0.148598 0.545666 34 34 34 0 0
-0.110160 -0.147677 0.547969 26 27 29 0 0
-0.682935 0.032744 0.200433 142 119 87 0 0
-0.167699 -0.290824 0.323106 60 60 63 40 9
-0.175774 -0.284643 0.344239 66 65 71 40 9
-0.170991 -0.278642 0.323848 26 27 26 40 9
-0.179854 -0.280467 0.326780 35 39 46 40 9
-0.176657 -0.285457 0.333585 34 35 39 40 9
-0.190172 -0.276606 0.329903 31 36 41 40 9
-0.172157 -0.295017 0.344784 48 48 54 40 9
-0.489108 -0.192043 0.516115 29 30 32 40 9
-0.218149 -0.215182 0.243279 18 18 20 40 9
-0.319338 -0.232432 0.527826 27 27 29 40 9
-0.331841 -0.231257 0.536804 27 28 28 40 9
-0.681176 -0.073301 0.161723 187 183 168 14 7
-0.688382 -0.063674 0.161566 132 127 118 14 7
-0.251554 -0.683092 0.125775 134 125 120 14 5
-0.322984 -0.055114 0.161570 146 130 108 40 3
-0.333250 -0.049736 0.164468 78 68 59 40 3
-0.313738 -0.035061 0.171831 109 96 81 40 3
-0.411194 -0.184630 0.346835 58 63 70 40 9
-0.430721 -0.185562 0.363125 55 59 66 40 9
-0.415676 -0.189802 0.379772 37 38 40 40 9
-0.413243 -0.190628 0.368874 32 34 34 40 9
-0.542098 0.042912 0.171239 183 185 185 14 7
-0.525980 0.049465 0.184754 51 51 50 14 7
-0.542217 0.031578 0.162184 85 85 88 14 7
-0.534923 0.041574 0.179740 87 87 87 14 7
-0.512623 0.037038 0.184323 56 55 53 14 7
-0.528987 0.026116 0.176135 67 67 64 14 7
-0.374767 -0.133398 0.153771 73 63 52 14 7
-0.397893 -0.124386 0.153917 47 41 35 14 7
-0.691932 0.147358 0.156877 236 202 184 14 7
-0.702123 0.140126 0.156334 228 193 176 14 7
-0.678886 -0.084390 0.155756 248 242 220 14 7
-0.671489 -0.069110 0.156694 188 184 168 14 7
-0.404916 -0.058631 0.151790 155 159 173 14 7
-0.400421 -0.044192 0.154723 147 149 166 40 3
-0.383583 -0.051584 0.150578 149 154 169 14 7
-0.172355 -0.353436 0.126899 123 112 109 0 0
-0.274857 -0.780618 0.242238 130 120 164 40 1
-0.568943 0.104543 0.155347 194 180 153 14 7
-0.573722 0.080834 0.155214 194 178 154 14 7
-0.026397 -0.153653 0.541992 63 61 57 40 8
-0.003788 -0.153551 0.573783 42 43 34 40 8
-0.020964 -0.153094 0.564490 218 221 207 40 8
-0.227920 -0.289386 0.566853 37 38 40 40 9
-0.219458 -0.305840 0.564102 44 45 47 40 9
-0.237179 -0.297771 0.568116 67 68 67 40 9
-0.203905 -0.299991 0.558819 46 46 48 40 9
-0.150535 -0.278320 0.570018 55 77 93 40 9
-0.128617 -0.272762 0.586816 83 104 109 40 9
-0.141988 -0.272926 0.586515 33 75 99 40 9
-0.130867 -0.275298 0.591044 88 119 134 40 9
-0.140189 -0.279258 0.594230 141 141 127 40 9
-0.272054 -0.275585 0.153948 48 49 52 14 7
-0.287334 -0.280215 0.158830 50 54 57 14 7
-0.296925 -0.289943 0.156231 114 113 117 14 7
-0.368068 -0.738985 0.123834 230 225 216 14 5
-0.375985 -0.709207 0.126184 255 252 245 14 5
-0.656144 -0.312135 0.143696 194 191 183 14 7
-0.664610 -0.271691 0.154099 152 152 148 14 7
-0.667177 -0.293217 0.141874 110 109 110 14 7
-0.292446 -0.192769 0.281960 29 29 36 40 9
-0.313749 -0.180613 0.265966 30 31 39 40 9
-0.325152 -0.180966 0.260329 148 144 139 40 9
-0.304212 -0.185571 0.291059 26 28 35 40 9
-0.314659 -0.180766 0.290211 31 33 41 40 9
-0.697390 0.057422 0.244298 173 150 147 0 0
-0.699764 0.050729 0.258217 166 148 145 0 0
-0.687532 0.080528 0.241715 196 172 168 0 0
-0.742065 -0.072164 0.279498 161 162 157 0 0
-0.744845 -0.055552 0.274574 135 136 133 0 0
-0.754534 -0.062312 0.274586 166 167 162 0 0
-0.760187 -0.051203 0.270537 166 167 161 0 0
-0.731604 -0.049420 0.272858 173 175 166 0 0
-0.729351 -0.050179 0.285621 127 132 122 0 0
-0.602173 -0.138003 0.152439 254 254 254 14 7
-0.616371 -0.136744 0.152650 254 255 250 14 7
-0.587378 -0.151763 0.153585 254 253 254 14 7
-0.620030 -0.163103 0.154967 254 255 253 14 7
-0.062298 -0.230276 0.253265 35 36 38 40 9
-0.055614 -0.239071 0.244200 37 37 40 40 9
-0.196186 -0.333865 0.099352 100 93 87 0 0
-0.174064 -0.346104 0.117684 139 128 116 0 0
-0.203699 -0.352490 0.120516 131 121 111 0 0
-0.182038 -0.337507 0.107042 171 160 148 0 0
-0.432926 -0.055976 0.161789 155 138 114 40 3
-0.420715 -0.028917 0.172168 29 23 28 40 3
-0.442001 -0.051137 0.161472 35 29 25 40 3
-0.246613 -0.242116 0.476605 77 75 78 40 9
-0.268554 -0.242531 0.463996 35 34 37 40 9
-0.283738 -0.234674 0.459714 34 29 28 40 9
-0.430630 -0.189718 0.375197 38 36 37 40 9
-0.454581 -0.183441 0.380842 38 38 39 40 9
-0.456464 -0.180379 0.358739 42 44 46 40 9
-0.440995 -0.181000 0.355721 43 43 46 40 9
-0.046810 -0.250810 0.210418 122 180 210 14 7
-0.053896 -0.265053 0.205891 139 193 226 14 7
-0.044561 -0.247344 0.187810 231 233 239 14 7
-0.293470 -0.788872 0.122981 173 165 148 14 5
-0.187966 -0.236018 0.308785 29 30 34 40 9
-0.207813 -0.231095 0.309629 36 38 44 40 9
-0.199061 -0.237499 0.298845 32 34 38 40 9
-0.557439 0.044613 0.153587 14 15 21 14 7
-0.169010 -0.049251 0.162890 119 113 103 40 3
-0.199602 -0.049253 0.163987 150 136 114 40 3
-0.184992 -0.050963 0.160317 156 142 119 40 3
-0.176889 -0.034317 0.172114 29 26 26 40 3
-0.288308 -0.657655 0.125403 214 206 203 14 5
-0.351984 0.056565 0.175278 28 29 32 40 3
-0.344833 0.055562 0.174217 28 29 33 40 3
-0.365760 0.052582 0.173468 26 27 30 40 3
-0.345955 0.070395 0.169883 29 30 32 14 7
-0.349600 0.074013 0.160450 32 35 39 14 7
-0.174135 -0.270278 0.578345 120 120 122 40 9
