ply
format ascii 1.0
element vertex 1076
property float x
property float y
property float z
property uchar red
property uchar green
property uchar blue
property uchar semantic_label
property uchar instance_label
end_header
0.698272 -0.644253 -0.100793 120 104 83 1 12
0.698467 -0.651546 -0.087298 120 104 82 1 12
0.598836 -0.316215 0.593135 133 118 95 1 10
0.631398 -0.473629 0.260892 178 168 156 1 11
0.614229 -0.467753 0.260986 178 169 158 1 11
0.592647 -0.414919 0.225888 152 135 101 1 10
0.591293 -0.421589 0.227229 153 140 111 1 10
0.597203 -0.400915 0.213154 150 137 103 1 10
0.611654 -0.409954 0.133618 139 120 94 1 10
0.611160 -0.423191 0.134114 143 126 99 1 10
0.587444 -0.296847 0.357095 152 135 104 1 10
0.580789 -0.279792 0.348920 152 136 106 1 10
0.629945 -0.332604 -0.168737 48 51 50 1 10
0.635942 -0.321340 -0.163484 33 34 35 1 10
0.640475 -0.326209 -0.159940 36 33 37 1 10
0.637905 -0.329513 -0.142269 30 30 32 1 10
0.633764 -0.327197 -0.149494 34 32 36 1 10
0.704117 -0.632386 0.109739 148 134 112 1 12
0.705907 -0.608972 0.078073 142 128 101 1 12
0.705758 -0.630560 0.087276 143 130 106 1 12
0.613695 -0.423596 0.057432 130 118 91 1 10
0.613212 -0.436173 0.071576 136 121 95 1 10
0.613574 -0.433327 0.085733 132 119 93 1 10
0.621370 -0.483056 -0.211860 98 82 63 1 11
0.708164 -0.554948 0.510239 168 161 148 1 12
0.641601 -0.380767 0.023711 113 105 98 1 10
0.623596 -0.395138 0.029443 130 122 108 1 10
0.643049 -0.372097 0.030550 43 40 36 1 10
0.642430 -0.384334 0.033435 53 47 41 1 10
0.644219 -0.367693 0.039962 52 51 45 1 10
0.642398 -0.384104 0.045068 67 64 56 1 10
0.628812 -0.389483 0.036716 88 83 70 1 10
0.696572 -0.507358 0.370439 143 130 105 1 12
0.694086 -0.499937 0.352349 142 129 99 1 12
0.709128 -0.493698 0.099606 148 130 98 1 12
0.707842 -0.508902 0.097134 144 126 94 1 12
0.707785 -0.497414 0.087478 143 125 94 1 12
0.693896 -0.543122 -0.209920 100 87 66 1 12
0.685265 -0.548892 -0.206714 105 90 68 1 12
0.644778 -0.463084 0.577611 150 141 119 1 11
0.668470 -0.467716 0.580399 150 142 120 1 11
0.563397 -0.160527 0.490215 233 233 227 15 4
0.637200 -0.482478 -0.177056 66 58 45 1 11
0.613039 -0.479418 -0.189367 60 54 41 1 11
0.596298 -0.456209 0.258872 163 152 129 1 11
0.589411 -0.430161 0.267047 158 140 113 1 10
0.568933 -0.255798 0.552586 140 125 102 1 10
0.707096 -0.631787 0.285113 202 198 191 1 12
0.707955 -0.659901 0.293103 212 204 191 1 12
0.705941 -0.646517 0.262701 203 197 187 1 12
0.706780 -0.647745 0.283286 207 202 190 1 12
0.592500 -0.404454 0.244194 153 138 101 1 10
0.707282 -0.492623 0.576270 130 115 93 1 12
0.592279 -0.412907 0.258022 155 138 102 1 10
0.590553 -0.425447 0.249421 152 137 105 1 10
0.591422 -0.410449 0.272930 154 138 109 1 10
0.662583 -0.483878 0.005104 126 110 85 1 11
0.651998 -0.482464 -0.013224 123 110 87 1 11
0.635994 -0.475943 0.011240 130 114 86 1 11
0.638377 -0.478505 -0.005091 127 114 89 1 11
0.681068 -0.486646 0.086760 144 128 98 1 11
0.694050 -0.489189 0.081529 141 125 97 1 11
0.692486 -0.485047 0.101869 149 133 102 1 11
0.674245 -0.485135 0.104923 148 131 98 1 11
0.709365 -0.518711 0.183307 160 138 109 1 12
0.707084 -0.512550 0.204874 160 140 110 1 12
0.708953 -0.526938 0.197788 162 142 110 1 12
0.705050 -0.502936 0.193958 160 141 107 1 12
0.702310 -0.647870 0.017193 132 119 95 1 12
0.702858 -0.659059 0.036589 135 118 94 1 12
0.702527 -0.643595 0.033729 134 119 94 1 12
0.701637 -0.660959 0.018851 131 115 95 1 12
0.601664 -0.454201 0.382464 182 175 161 1 11
0.592343 -0.439284 0.377216 182 174 158 1 11
0.596172 -0.448636 0.377950 187 180 167 1 11
0.594344 -0.423659 0.392531 181 173 157 1 10
0.673048 -0.594656 -0.354675 68 52 38 0 0
0.656364 -0.581699 -0.358535 90 86 80 0 0
0.664964 -0.584056 -0.354927 51 50 42 0 0
0.667597 -0.589709 -0.343834 67 57 43 0 0
0.678694 -0.593916 -0.338590 72 56 41 0 0
0.673946 -0.599649 -0.368894 59 50 36 0 0
0.693715 -0.643012 -0.206391 109 96 73 1 12
0.694252 -0.652971 -0.190315 119 104 79 1 12
0.690855 -0.661040 -0.195984 114 97 76 1 12
0.695794 -0.638955 -0.187187 111 100 77 1 12
0.700567 -0.629743 -0.094038 119 104 84 1 12
0.699916 -0.617172 -0.081617 120 106 82 1 12
0.545921 -0.327138 0.276295 170 164 146 1 10
0.525938 -0.324759 0.295760 180 174 153 40 6
0.707494 -0.497354 0.071150 141 121 90 1 12
0.707872 -0.497548 0.053678 132 117 88 1 12
0.569000 -0.035805 0.258952 201 196 185 15 4
0.621767 -0.339284 -0.126246 48 29 29 1 10
0.619504 -0.354067 -0.120858 70 45 48 1 10
0.635495 -0.478045 0.077486 145 127 97 1 11
0.625830 -0.473207 0.095986 139 125 98 1 11
0.702321 -0.660517 -0.001589 128 112 89 1 12
0.695941 -0.687660 0.002667 125 109 87 4 3
0.701569 -0.673360 0.000134 129 113 89 1 12
0.695149 -0.686456 -0.010904 128 112 90 4 3
0.691168 -0.690438 0.008219 126 110 88 4 3
0.703945 -0.568383 -0.101460 116 99 79 1 12
0.705123 -0.555531 -0.088167 118 101 77 1 12
0.705499 -0.542169 -0.102351 113 100 74 1 12
0.692738 -0.601263 -0.351605 86 70 55 0 0
0.700618 -0.589472 -0.254326 81 68 50 0 0
0.701185 -0.595227 -0.274247 72 55 39 0 0
0.706406 -0.597764 -0.263773 96 83 63 0 0
0.563806 -0.304748 0.317678 172 161 131 40 6
0.527570 -0.311275 0.306279 168 161 138 40 6
0.541782 -0.310058 0.310351 168 161 138 40 6
0.551729 -0.316731 0.308757 172 165 139 40 6
0.555781 -0.327020 0.296856 179 170 146 40 6
0.664277 -0.470762 0.526486 155 146 123 1 11
0.662557 -0.470421 0.510295 158 150 129 1 11
0.680264 -0.476034 0.511824 160 149 128 1 12
0.689934 -0.684758 -0.164609 113 102 75 4 3
0.692931 -0.673069 -0.154091 118 101 79 1 12
0.586932 -0.309147 0.332237 153 138 110 1 10
0.589190 -0.310929 0.347738 152 135 104 1 10
0.705724 -0.565522 0.115360 148 129 99 1 12
0.705129 -0.551429 0.098406 144 126 96 1 12
0.706874 -0.562330 0.068658 146 128 99 1 12
0.706892 -0.542926 0.090508 146 128 97 1 12
0.636543 -0.361392 -0.080472 70 58 58 1 10
0.695534 -0.500873 0.388850 141 126 99 1 12
0.617908 -0.467990 0.092134 146 131 106 1 11
0.619681 -0.469483 0.144097 153 134 103 1 11
0.628122 -0.473446 0.141285 151 131 100 1 11
0.696537 -0.517882 0.410343 144 129 103 1 12
0.697911 -0.527025 0.420221 149 133 108 1 12
0.706073 -0.651653 0.174394 183 176 169 1 12
0.709358 -0.643540 0.214890 183 177 174 1 12
0.707314 -0.651496 0.195618 183 176 168 1 12
0.569853 -0.268640 0.343465 156 141 108 15 4
0.626357 -0.411815 -0.103884 149 145 124 1 10
0.627059 -0.407789 -0.093759 141 137 123 1 10
0.607244 -0.417533 -0.099047 145 141 125 1 10
0.617752 -0.405486 -0.070695 132 129 117 1 10
0.623260 -0.415543 -0.115493 146 142 121 1 10
0.631601 -0.330694 -0.133556 21 21 22 1 10
0.606039 -0.404054 0.162738 143 128 101 1 10
0.606722 -0.419623 0.151988 145 125 97 1 10
0.601645 -0.418649 0.167629 146 130 98 1 10
0.603135 -0.429001 0.164316 150 130 98 1 10
0.610077 -0.403550 0.148020 142 124 96 1 10
0.604442 -0.400744 0.178118 144 129 100 1 10
0.694152 -0.675067 -0.076602 117 103 79 1 12
0.699686 -0.650701 -0.061400 119 104 81 1 12
0.697533 -0.659915 -0.067740 120 106 83 1 12
0.699373 -0.570326 0.289041 171 163 146 1 12
0.700690 -0.544033 0.286277 164 150 126 1 12
0.587583 -0.287942 0.425758 147 132 103 1 10
0.578229 -0.271777 0.433869 146 132 103 15 4
0.700413 -0.591012 0.345931 199 193 178 1 12
0.700012 -0.588719 0.356404 201 195 183 1 12
0.705568 -0.593208 0.255802 186 177 169 1 12
0.701256 -0.574591 0.270534 180 172 162 1 12
0.600910 -0.437976 0.177872 154 134 102 1 10
0.606607 -0.456688 0.170501 149 134 103 1 11
0.604547 -0.439143 0.153820 152 131 100 1 10
0.602114 -0.441134 0.164981 148 129 99 1 10
0.705550 -0.630944 0.203190 186 181 174 1 12
0.708072 -0.621985 0.223655 191 186 180 1 12
0.687346 -0.549898 -0.216223 98 85 65 1 12
0.688111 -0.550000 -0.233778 113 94 70 1 12
0.683420 -0.548499 -0.240710 107 90 68 1 12
0.678761 -0.565593 -0.239731 104 89 67 1 12
0.688550 -0.539503 -0.221233 124 105 79 1 12
0.689707 -0.556068 -0.216079 105 85 59 1 12
0.602949 -0.449828 0.190231 156 139 108 1 10
0.607203 -0.458857 0.197251 157 140 112 1 11
0.696926 -0.513309 0.263609 152 136 106 1 12
0.692838 -0.501404 0.251176 154 135 104 1 12
0.666685 -0.654489 -0.380565 59 51 34 4 3
0.686718 -0.646525 -0.392144 56 46 32 4 3
0.669530 -0.657022 -0.386263 53 45 31 4 3
0.669342 -0.642971 -0.380235 57 48 33 4 3
0.679436 -0.634886 -0.381783 63 54 41 4 3
0.706984 -0.522644 -0.022357 126 109 83 1 12
0.703309 -0.525662 -0.044974 118 105 76 1 12
0.703386 -0.539058 -0.048986 124 107 82 1 12
0.651584 -0.339054 0.169638 40 35 33 1 10
0.643196 -0.336275 0.183466 37 34 32 1 10
0.703873 -0.677489 0.140995 161 156 147 1 12
0.705102 -0.682659 0.122970 151 146 141 1 12
0.708798 -0.533245 0.507878 160 153 137 1 12
0.707906 -0.520076 0.527042 135 125 100 1 12
0.605819 -0.440753 0.138215 146 128 99 1 10
0.696448 -0.497890 -0.164866 94 82 61 1 11
0.702968 -0.501599 -0.144686 100 89 67 1 11
0.705314 -0.503123 -0.171389 97 87 64 1 11
0.636334 -0.344806 0.186622 50 42 37 1 10
0.558566 -0.254338 0.515512 140 129 106 1 10
0.572587 -0.262167 0.502683 145 130 109 15 4
0.557722 -0.254481 0.501325 147 136 117 15 4
0.545775 -0.250872 0.511956 153 143 124 15 4
0.634504 -0.380464 -0.040104 141 138 127 1 10
0.627219 -0.385866 -0.029290 146 141 129 1 10
0.635239 -0.392899 -0.048077 131 126 115 1 10
0.636918 -0.386308 -0.045629 120 117 109 1 10
0.626802 -0.400998 -0.021731 146 139 123 1 10
0.623913 -0.398248 -0.038964 139 134 122 1 10
0.635502 -0.369181 -0.029838 140 137 130 1 10
0.589731 -0.341352 0.429711 154 138 112 1 10
0.588771 -0.329503 0.407876 153 137 111 1 10
0.590404 -0.352999 0.410558 152 137 111 1 10
0.587383 -0.326976 0.332042 158 143 110 1 10
0.569345 -0.335776 0.294933 186 176 151 1 10
0.585877 -0.356611 0.305176 161 143 110 1 10
0.586713 -0.374202 0.312486 161 145 113 1 10
0.584770 -0.353966 0.326630 161 145 118 1 10
0.596706 -0.453209 0.338595 194 187 172 1 11
0.588885 -0.429144 0.332747 184 177 162 1 10
0.591029 -0.443751 0.334233 189 182 167 1 11
0.606551 -0.458694 0.368977 185 177 162 1 11
0.593432 -0.442995 0.358892 188 181 166 1 11
0.700391 -0.638617 -0.293620 87 75 62 1 12
0.680601 -0.651284 -0.302270 83 71 58 1 12
0.686842 -0.649647 -0.283956 88 77 64 1 12
0.682068 -0.650721 -0.297026 86 75 57 1 12
0.704486 -0.541510 -0.081376 120 103 81 1 12
0.702729 -0.531372 -0.068010 121 104 80 1 12
0.704424 -0.515195 -0.073752 120 104 78 1 12
0.703471 -0.513389 -0.051031 119 104 80 1 12
0.702433 -0.504019 -0.070427 116 100 76 1 12
0.599885 -0.443418 0.463707 189 179 167 1 11
0.603986 -0.444579 0.489799 183 175 162 1 11
0.608199 -0.450686 0.484609 190 181 169 1 11
0.707167 -0.668485 0.107182 141 132 119 1 12
0.704893 -0.690104 0.079442 131 122 109 1 12
0.581667 -0.338405 0.309467 191 179 151 1 10
0.583000 -0.323062 0.321629 181 168 138 1 10
0.573824 -0.319940 0.315863 173 162 132 40 6
0.623247 -0.457047 0.557912 171 163 146 1 11
0.612253 -0.449851 0.560529 178 171 156 1 11
0.649004 -0.485697 -0.145398 102 88 69 1 11
0.648099 -0.485493 -0.160634 95 82 64 1 11
0.708215 -0.598913 0.475386 203 196 179 1 12
0.708510 -0.585717 0.475581 197 190 178 1 12
0.677194 -0.667179 -0.338616 88 75 59 4 3
0.675414 -0.655931 -0.347355 90 77 59 4 3
0.672203 -0.634513 -0.354702 102 89 68 4 3
0.667502 -0.642850 -0.367183 95 83 62 4 3
0.670454 -0.641608 -0.350560 96 82 62 4 3
0.676831 -0.640561 -0.347371 92 80 59 4 3
0.669155 -0.663211 -0.350137 88 76 58 4 3
0.667091 -0.651938 -0.350171 90 78 59 4 3
0.665002 -0.657101 -0.363199 76 66 45 4 3
0.691149 -0.641281 -0.362746 102 88 67 4 3
0.589823 -0.388828 0.228366 150 132 101 1 10
0.589064 -0.362947 0.227143 144 130 102 1 10
0.567068 -0.149225 0.565176 197 191 168 15 4
0.564935 -0.151742 0.547640 203 199 180 15 4
0.625979 -0.370089 0.148390 138 124 91 1 10
0.544206 -0.214065 0.308022 234 237 230 15 4
0.586763 -0.372611 0.248662 138 122 95 1 10
0.588213 -0.381015 0.259986 151 134 101 1 10
0.599012 -0.317990 0.537289 135 120 95 1 10
0.694257 -0.526167 -0.208993 114 98 77 1 12
0.685378 -0.531738 -0.235026 105 90 66 1 12
0.686288 -0.514137 -0.223885 130 116 86 1 12
0.680603 -0.506776 -0.240415 106 92 68 1 12
0.679158 -0.499806 -0.237394 106 92 68 1 12
0.693018 -0.513800 -0.207672 110 96 72 1 12
0.606020 -0.454154 0.066540 138 124 98 1 10
0.608456 -0.458619 0.056732 140 125 99 1 10
0.540862 -0.252833 0.450588 153 139 115 15 4
0.572622 -0.264214 0.478895 150 135 108 15 4
0.554789 -0.255245 0.485198 146 135 113 15 4
0.632049 -0.465139 0.438111 165 158 140 1 11
0.613480 -0.470856 -0.164953 120 107 82 1 11
0.622623 -0.477683 -0.166642 113 98 76 1 11
0.545951 -0.220482 0.508448 225 224 211 15 4
0.547177 -0.224876 0.498604 225 225 212 15 4
0.549849 -0.216044 0.514283 225 225 212 15 4
0.552833 -0.209786 0.524122 224 222 205 15 4
0.545207 -0.217556 0.492910 226 226 214 15 4
0.557294 -0.164407 0.324557 251 251 245 15 4
0.596125 -0.316879 0.523862 138 125 100 1 10
0.696117 -0.528729 0.321358 156 139 112 1 12
0.693034 -0.503178 0.304106 151 136 106 1 12
0.694189 -0.515939 0.309203 150 135 105 1 12
0.695735 -0.505690 0.323768 149 133 104 1 12
0.587092 -0.339460 0.349594 156 141 111 1 10
0.586987 -0.348070 0.338984 158 142 112 1 10
0.588528 -0.357675 0.359361 153 138 112 1 10
0.588666 -0.333735 0.364569 153 139 112 1 10
0.704453 -0.572617 0.097066 143 128 101 1 12
0.704302 -0.594885 0.110058 147 131 101 1 12
0.704377 -0.602196 0.094867 146 128 102 1 12
0.605479 -0.401924 0.054227 125 114 89 1 10
0.608193 -0.410443 0.059918 134 119 99 1 10
0.612155 -0.397986 0.065792 129 116 88 1 10
0.617366 -0.395332 0.072314 129 119 92 1 10
0.559124 -0.208314 0.544536 217 213 191 15 4
0.553592 -0.217612 0.544574 213 207 183 15 4
0.554829 -0.219902 0.561187 210 204 180 15 4
0.565705 -0.202703 0.562539 210 203 179 15 4
0.700795 -0.632164 0.404253 210 205 184 1 12
0.702442 -0.640932 0.395203 211 206 186 1 12
0.611018 -0.373794 0.138589 141 124 95 1 10
0.607961 -0.375089 0.151408 140 122 93 1 10
0.602358 -0.372256 0.161300 139 121 89 1 10
0.595438 -0.366221 0.161567 120 104 79 1 10
0.608027 -0.382824 0.158083 145 129 92 1 10
0.611836 -0.370623 0.155336 141 126 93 1 10
0.639566 -0.482658 -0.121782 103 89 71 1 11
0.618142 -0.471528 -0.152469 114 102 80 1 11
0.617315 -0.471417 -0.109783 123 112 90 1 11
0.626081 -0.477357 -0.108014 112 101 80 1 11
0.614544 -0.465394 -0.143274 118 106 86 1 10
0.623763 -0.476981 -0.145029 113 102 81 1 11
0.632929 -0.481075 -0.143750 107 95 75 1 11
0.624680 -0.412774 -0.136351 154 149 127 1 10
0.618300 -0.423744 -0.139078 151 143 120 1 10
0.630940 -0.394941 -0.137483 155 149 130 1 10
0.628811 -0.398833 -0.121896 153 149 127 1 10
0.631256 -0.404801 -0.106853 153 149 127 1 10
0.700689 -0.600877 -0.199326 109 94 71 1 12
0.703333 -0.591236 -0.198506 101 88 64 1 12
0.702951 -0.584114 -0.188830 103 87 70 1 12
0.706750 -0.660042 0.138394 162 154 143 1 12
0.704889 -0.641438 0.176305 165 156 143 1 12
0.704122 -0.668053 0.173969 175 169 161 1 12
0.704353 -0.671677 0.157622 175 169 164 1 12
0.650080 -0.468117 0.494486 161 150 132 1 11
0.634604 -0.462894 0.508486 156 147 128 1 11
0.707289 -0.499632 0.558645 132 118 95 1 12
0.617127 -0.393425 0.107151 134 119 91 1 10
0.615229 -0.409696 0.076053 133 117 87 1 10
0.680925 -0.665696 -0.390614 58 49 34 4 3
0.689442 -0.655090 -0.395801 55 47 33 4 3
0.690017 -0.670090 -0.402376 47 37 27 4 3
0.591944 -0.331324 0.444332 152 136 107 1 10
0.615891 -0.414800 -0.006042 145 133 116 1 10
0.625610 -0.404812 -0.009494 146 137 123 1 10
0.613996 -0.427023 -0.015473 136 126 106 1 10
0.702064 -0.618519 0.435953 207 201 185 1 12
0.702799 -0.605441 0.437468 205 200 183 1 12
0.704414 -0.624055 0.447055 208 202 185 1 12
0.703213 -0.561686 -0.186378 102 89 65 1 12
0.703899 -0.568901 -0.180362 102 88 65 1 12
0.695330 -0.549937 -0.202144 115 100 74 1 12
0.689378 -0.563915 -0.206251 109 90 65 1 12
0.698208 -0.560644 -0.194380 129 110 82 1 12
0.702652 -0.571297 -0.197937 116 97 73 1 12
0.702054 -0.547612 -0.190132 104 88 66 1 12
0.707914 -0.548729 -0.178433 102 87 64 1 12
0.695735 -0.511580 0.431075 146 131 106 1 12
0.707666 -0.528049 0.537619 142 130 110 1 12
0.709126 -0.541787 0.524858 155 146 128 1 12
0.705925 -0.514748 0.535040 135 122 97 1 12
0.583434 -0.354137 0.289790 156 145 108 1 10
0.577546 -0.343611 0.290533 183 176 153 1 10
0.577574 -0.345507 0.276220 160 149 127 1 10
0.575616 -0.336139 0.281423 187 181 161 1 10
0.560994 -0.330974 0.291217 187 180 161 1 10
0.699158 -0.513610 0.453131 150 137 111 1 12
0.697363 -0.520038 0.442907 151 137 111 1 12
0.699441 -0.541736 0.444555 166 159 140 1 12
0.697588 -0.531293 0.430877 163 154 131 1 12
0.700992 -0.529943 0.457573 158 147 124 1 12
0.704473 -0.549849 0.480204 167 160 143 1 12
0.595235 -0.371835 0.479832 148 135 111 1 10
0.593929 -0.339321 0.472986 150 138 112 1 10
0.591466 -0.327359 0.454127 151 136 109 1 10
0.593830 -0.326905 0.498651 148 133 107 1 10
0.705670 -0.504011 -0.086321 109 96 73 1 12
0.704723 -0.503357 -0.105476 107 94 72 1 12
0.559098 -0.169224 0.342355 248 249 242 15 4
0.555603 -0.154296 0.354993 245 245 240 15 4
0.558746 -0.157876 0.382198 243 244 236 15 4
0.559284 -0.179366 0.367426 244 244 237 15 4
0.614972 -0.438029 -0.030884 133 123 105 1 10
0.613824 -0.450830 -0.025199 134 126 107 1 10
0.616567 -0.463831 -0.025534 134 122 103 1 11
0.613307 -0.461486 -0.041511 132 120 100 1 10
0.665642 -0.595743 -0.372280 38 35 24 0 0
0.708513 -0.536083 0.209321 163 144 114 1 12
0.709537 -0.555745 0.210573 168 153 129 1 12
0.706930 -0.581446 0.206340 175 164 153 1 12
0.706535 -0.572705 0.240225 174 166 154 1 12
0.700186 -0.545222 0.224886 159 143 112 1 12
0.705053 -0.567915 0.225734 172 162 149 1 12
0.700219 -0.581555 0.414278 196 190 176 1 12
0.701307 -0.592994 0.430199 203 195 181 1 12
0.702507 -0.583033 0.310096 202 193 185 1 12
0.703255 -0.594636 0.314222 201 194 184 1 12
0.704891 -0.597334 0.329464 204 199 185 1 12
0.702406 -0.583390 0.329139 201 193 181 1 12
0.687568 -0.494876 0.295638 158 145 115 1 11
0.705592 -0.557790 0.022299 130 114 86 1 12
0.710026 -0.537541 -0.182882 98 86 64 1 12
0.711447 -0.515389 -0.182353 98 87 66 1 12
0.702036 -0.527796 -0.198462 106 90 67 1 12
0.701395 -0.541054 -0.200892 108 92 68 1 12
0.600738 -0.444247 0.203317 156 139 106 1 10
0.590832 -0.447451 0.250342 155 140 105 1 11
0.590695 -0.448950 0.228777 155 145 124 1 10
0.597316 -0.444272 0.218691 157 141 115 1 10
0.606493 -0.460499 0.216355 160 145 125 1 11
0.597937 -0.460460 0.229037 163 148 130 1 11
0.609104 -0.462672 0.312720 193 187 174 1 11
0.684529 -0.683015 -0.253745 91 77 63 1 12
0.687957 -0.676067 -0.254163 92 78 65 1 12
0.670150 -0.693099 -0.191544 106 90 69 4 3
0.705165 -0.630707 -0.340148 87 76 59 1 12
0.698161 -0.606487 -0.356955 90 77 59 0 0
0.699472 -0.603246 -0.331073 84 71 51 0 0
0.700969 -0.609375 -0.341485 82 70 51 0 0
0.694273 -0.604705 -0.364784 77 67 49 0 0
0.699889 -0.638323 -0.358373 98 85 65 0 0
0.699946 -0.616509 -0.361954 92 80 59 0 0
0.625718 -0.363032 -0.055685 64 56 54 1 10
0.627977 -0.363907 -0.073371 95 87 86 1 10
0.631793 -0.366843 -0.045215 64 58 56 1 10
0.656082 -0.486831 -0.123143 104 91 72 1 11
0.696917 -0.550519 0.416972 173 165 150 1 12
0.699106 -0.567770 0.397518 192 186 173 1 12
0.684242 -0.665528 -0.276888 95 80 67 1 12
0.687717 -0.646015 -0.272041 92 80 66 1 12
0.690052 -0.653837 -0.257177 99 87 72 1 12
0.694991 -0.627992 -0.246516 98 89 69 1 12
0.692561 -0.640140 -0.256339 95 82 66 1 12
0.703633 -0.623349 -0.328174 83 71 57 1 12
0.707366 -0.616807 -0.290721 82 71 55 1 12
0.558486 -0.143098 0.388985 242 241 234 15 4
0.558658 -0.142387 0.372782 242 241 235 15 4
0.681558 -0.491653 -0.105227 110 96 75 1 11
0.696968 -0.495921 -0.083981 111 99 77 1 11
0.708085 -0.569227 0.187414 161 148 132 1 12
0.708362 -0.564498 0.215222 168 156 144 1 12
0.706864 -0.548936 0.189553 160 143 115 1 12
0.609584 -0.467654 0.228272 165 157 139 1 11
0.603538 -0.462496 0.257063 172 163 154 1 11
0.679053 -0.541603 -0.242781 107 90 68 1 12
0.606914 -0.438459 0.575449 163 155 141 1 11
0.603598 -0.408932 0.577246 162 153 139 1 10
0.656574 -0.566098 -0.237398 101 85 64 0 0
0.598393 -0.427250 0.484559 179 167 152 1 10
0.598679 -0.407749 0.482282 180 169 156 1 10
0.699345 -0.619519 -0.067059 123 108 86 1 12
0.700079 -0.632868 -0.080422 121 106 85 1 12
0.701367 -0.619797 -0.055004 125 111 88 1 12
0.700949 -0.631222 -0.062505 126 108 87 1 12
0.636037 -0.478774 0.054635 133 121 89 1 11
0.649218 -0.480321 0.024326 128 114 89 1 11
0.669005 -0.486255 0.041042 129 115 87 1 11
0.563167 -0.183287 0.438706 243 241 234 15 4
0.561699 -0.198137 0.436188 240 239 234 15 4
0.560406 -0.196707 0.415884 240 240 234 15 4
0.707564 -0.504363 -0.124986 108 91 70 1 12
0.569516 -0.334154 0.252846 144 133 118 1 10
0.585445 -0.363661 0.275404 137 121 92 1 10
0.587728 -0.340601 0.267300 157 147 131 1 10
0.580465 -0.355095 0.260210 127 113 86 1 10
0.587626 -0.348392 0.244638 111 94 78 1 10
0.573828 -0.337949 0.236000 159 149 135 1 10
0.588173 -0.343722 0.245327 109 94 82 1 10
0.582437 -0.338650 0.249357 135 126 109 1 10
0.573171 -0.332620 0.273531 163 156 139 1 10
0.591425 -0.386032 0.408581 157 144 116 1 10
0.589629 -0.369327 0.410284 152 139 113 1 10
0.589997 -0.361319 0.435401 155 140 114 1 10
0.590146 -0.375317 0.424283 160 146 122 1 10
0.596207 -0.390239 0.453454 168 156 133 1 10
0.592206 -0.377309 0.441247 155 142 115 1 10
0.701400 -0.486384 0.557213 128 117 95 1 12
0.696240 -0.628448 -0.141995 115 101 78 1 12
0.700221 -0.615321 -0.126022 118 102 82 1 12
0.698928 -0.624620 -0.117098 118 101 80 1 12
0.699527 -0.601379 -0.139193 116 100 81 1 12
0.599357 -0.430545 0.511118 167 159 145 1 10
0.598839 -0.401828 0.491724 165 156 139 1 10
0.598365 -0.423605 0.502172 167 159 144 1 10
0.597353 -0.392875 0.501837 162 152 134 1 10
0.598745 -0.400443 0.530613 162 152 135 1 10
0.687600 -0.683757 -0.232946 98 86 69 1 12
0.690610 -0.664878 -0.215598 107 91 74 1 12
0.686267 -0.682425 -0.214264 105 90 72 1 12
0.702789 -0.586061 0.014869 133 119 98 1 12
0.703352 -0.577559 0.026633 133 117 91 1 12
0.705054 -0.586997 0.043541 137 120 94 1 12
0.622351 -0.469234 0.157962 152 134 101 1 11
0.636054 -0.475005 0.160553 159 138 109 1 11
0.548504 -0.216715 0.478085 226 226 217 15 4
0.547575 -0.225660 0.479179 226 226 216 15 4
0.553635 -0.209730 0.492606 230 231 221 15 4
0.610738 -0.450584 0.537358 176 167 156 1 11
0.605282 -0.435479 0.558042 169 161 147 1 11
0.661026 -0.481465 0.278007 173 164 143 1 11
0.666333 -0.484822 0.225461 169 158 140 1 11
0.637531 -0.476267 0.242986 169 158 141 1 11
0.656772 -0.480564 0.259198 172 161 143 1 11
0.615463 -0.390454 0.068002 104 95 74 1 10
0.600929 -0.389352 0.062600 81 77 63 1 10
0.617806 -0.391584 0.056081 66 65 53 1 10
0.596835 -0.392626 0.062984 81 75 59 1 10
0.586248 -0.394190 0.053750 82 77 59 1 10
0.602074 -0.389047 0.053919 66 64 56 1 10
0.619725 -0.424746 -0.172160 110 100 81 1 11
0.622940 -0.421644 -0.156587 134 123 101 1 10
0.619592 -0.424867 -0.165016 121 108 91 1 11
0.625310 -0.406281 -0.144793 144 136 115 1 10
0.619009 -0.407544 -0.163250 129 117 97 1 10
0.616857 -0.432317 -0.158363 140 131 105 1 10
0.628518 -0.399993 -0.176133 94 83 70 1 10
0.626121 -0.417709 -0.173055 104 94 77 1 10
0.696775 -0.490538 0.169600 164 149 116 1 11
0.701863 -0.496285 0.196849 163 149 117 1 12
0.694137 -0.489390 0.195230 164 151 120 1 11
0.565941 -0.191230 0.553332 209 200 177 15 4
0.569372 -0.161438 0.581685 195 187 161 15 4
0.565926 -0.194234 0.586963 202 193 166 15 4
0.567460 -0.192149 0.573035 197 189 163 15 4
0.597216 0.177191 -0.093522 141 135 123 1 10
0.611299 -0.404380 0.016804 135 124 107 1 10
0.604712 -0.404630 0.032026 132 124 104 1 10
0.596418 -0.398738 0.038778 91 85 74 1 10
0.605717 -0.414298 0.037786 132 120 99 1 10
0.555788 -0.256406 0.450156 155 137 108 15 4
0.567758 -0.261027 0.459903 152 137 110 15 4
0.555617 -0.254612 0.464051 153 138 112 15 4
0.562047 -0.260223 0.438250 154 136 108 15 4
0.706472 -0.622952 0.303720 209 203 191 1 12
0.704860 -0.619849 0.327919 207 201 187 1 12
0.703910 -0.612098 -0.040348 132 117 94 1 12
0.701459 -0.635945 -0.041095 127 111 87 1 12
0.702820 -0.635698 -0.016041 129 114 90 1 12
0.702110 -0.595059 -0.045164 131 114 93 1 12
0.697585 -0.530209 0.300590 159 144 112 1 12
0.649798 -0.560992 -0.245765 71 60 43 0 0
0.703823 -0.613679 -0.026547 133 118 93 1 12
0.702186 -0.608487 -0.008951 129 114 92 1 12
0.702450 -0.633334 -0.001784 135 120 99 1 12
0.703599 -0.603216 0.028348 132 117 95 1 12
0.616611 -0.425022 -0.046149 139 133 115 1 10
0.615636 -0.429300 -0.027892 142 131 115 1 10
0.619397 -0.408585 -0.038892 142 135 120 1 10
0.621282 -0.416188 -0.025774 144 132 115 1 10
0.704554 -0.593687 0.458319 207 201 183 1 12
0.683697 -0.491378 -0.181571 95 81 62 1 11
0.696584 -0.497427 -0.195921 103 89 67 1 11
0.682299 -0.491904 -0.203337 87 74 53 1 11
0.611832 -0.456400 -0.119735 128 121 97 1 10
0.585424 -0.363197 0.245216 108 91 70 1 10
0.578347 -0.268256 0.455847 147 133 103 15 4
0.585621 -0.280996 0.437774 147 132 100 1 10
0.585273 -0.276013 0.457192 147 132 103 1 10
0.710078 -0.498535 0.112533 153 138 103 1 11
0.705769 -0.503766 0.130740 146 130 95 1 11
0.549113 -0.256281 0.407346 154 139 112 15 4
0.571690 -0.265607 0.414522 152 137 109 15 4
0.544918 -0.252918 0.428518 154 138 112 15 4
0.704505 -0.649168 0.108371 151 141 121 1 12
0.596471 -0.332913 0.526000 139 129 105 1 10
0.595793 -0.356545 0.498876 140 127 104 1 10
0.595045 -0.327162 0.508726 140 127 104 1 10
0.597670 -0.356930 0.509113 143 130 106 1 10
0.597073 -0.280626 0.563709 130 116 92 1 10
0.590607 -0.269627 0.567240 131 117 92 1 10
0.678906 -0.679375 -0.340735 86 73 54 4 3
0.667486 -0.677134 -0.357572 82 71 49 4 3
0.667613 -0.689637 -0.348540 84 72 51 4 3
0.664776 -0.682310 -0.360824 82 70 51 4 3
0.628333 -0.374856 0.105713 140 121 95 1 10
0.617849 -0.378769 0.115809 138 121 91 1 10
0.623340 -0.370663 0.135686 140 121 94 1 10
0.698410 -0.491916 0.481929 143 128 102 1 12
0.677042 -0.476240 0.487928 152 142 117 1 11
0.690204 -0.483239 0.495324 145 133 107 1 11
0.686968 -0.482553 0.452228 153 144 118 1 11
0.702343 -0.506145 0.476645 142 128 102 1 12
0.693298 -0.647846 -0.144628 118 104 79 1 12
0.696510 -0.670175 -0.120087 115 100 77 1 12
0.697226 -0.642754 -0.122385 119 100 80 1 12
0.706793 -0.532032 0.006050 132 114 84 1 12
0.707444 -0.540831 -0.002253 124 109 82 1 12
0.707271 -0.520710 0.014938 130 113 85 1 12
0.657421 -0.571371 -0.264937 139 121 89 0 0
0.700694 -0.537461 0.271492 155 140 107 1 12
0.599029 -0.424147 0.196918 156 138 106 1 10
0.599202 -0.413675 0.212345 156 138 103 1 10
0.598949 -0.407465 0.189405 145 133 102 1 10
0.702513 -0.605227 0.368237 200 193 180 1 12
0.702054 -0.593341 0.389654 199 194 182 1 12
0.699841 -0.541800 0.252263 159 138 104 1 12
0.697761 -0.521098 0.258788 157 139 106 1 12
0.610505 -0.431080 -0.115331 144 136 114 1 10
0.612294 -0.431223 -0.094572 142 135 114 1 10
0.597964 -0.297030 0.535182 131 118 93 1 10
0.599234 -0.309429 0.561233 133 119 95 1 10
0.612098 -0.381030 0.116585 137 122 94 1 10
0.615773 -0.384896 0.127161 142 124 92 1 10
0.607660 -0.378236 0.138893 144 124 95 1 10
0.611214 -0.384785 0.145544 141 123 91 1 10
0.612219 -0.377027 0.125470 141 123 93 1 10
0.708825 -0.539935 0.535499 160 150 135 1 12
0.647104 -0.570084 -0.285542 145 127 100 0 0
0.695158 -0.627632 -0.200408 117 103 78 1 12
0.699172 -0.609352 -0.180116 117 102 78 1 12
0.700785 -0.611599 -0.218074 111 98 73 1 12
0.623999 -0.456862 0.577486 155 146 128 1 11
0.613919 -0.451368 0.570710 170 163 147 1 11
0.625375 -0.460736 0.486986 178 172 156 1 11
0.614275 -0.455586 0.483688 187 177 165 1 11
0.562104 -0.196359 0.489683 226 226 215 15 4
0.564073 -0.193771 0.509324 226 226 216 15 4
0.564374 -0.173399 0.505732 224 222 211 15 4
0.564258 -0.175029 0.520155 221 220 209 15 4
0.655457 -0.484161 0.051198 137 121 92 1 11
0.579135 -0.340320 0.222222 116 90 81 1 10
0.568193 -0.332035 0.228892 112 94 82 1 10
0.568426 -0.337387 0.216674 123 98 93 1 10
0.578595 -0.343544 0.206204 111 84 77 1 10
0.567720 -0.342651 0.204535 112 84 75 1 10
0.685967 -0.653219 -0.323599 83 71 56 1 12
0.695118 -0.646125 -0.305672 85 72 60 1 12
0.686902 -0.652804 -0.316625 80 68 56 1 12
0.701847 -0.633978 -0.325470 85 75 62 1 12
0.680320 -0.665460 -0.330227 81 67 52 1 12
0.706895 -0.687469 0.164338 175 174 171 1 12
0.704914 -0.693563 0.144402 167 163 159 1 12
0.563304 -0.265207 0.369103 152 136 108 15 4
0.553075 -0.259956 0.376276 152 137 108 15 4
0.559336 -0.261655 0.349693 157 143 110 15 4
0.555095 -0.261638 0.326742 158 143 111 15 4
0.542407 -0.256543 0.356224 159 143 111 15 4
0.618454 -0.464336 0.363486 173 168 149 1 11
0.636891 -0.471752 0.330823 173 165 144 1 11
0.675491 -0.690343 -0.306372 76 65 52 1 12
0.695931 -0.625524 -0.231051 104 93 68 1 12
0.702499 -0.613556 -0.235785 101 88 67 1 12
0.615798 -0.401821 -0.044808 137 131 121 1 10
0.605776 -0.406030 -0.050047 140 137 125 1 10
0.596524 -0.464308 -0.171595 86 76 63 1 11
0.614649 -0.437174 0.004736 134 123 104 1 10
0.615164 -0.460821 -0.004066 133 120 101 1 10
0.707550 -0.659899 0.246754 194 189 184 1 12
0.705198 -0.659882 0.279401 205 198 190 1 12
0.706875 -0.669596 0.261753 205 200 189 1 12
0.705354 -0.654472 0.256996 204 195 189 1 12
0.696474 -0.634167 -0.176768 122 108 82 1 12
0.695952 -0.623929 -0.160860 122 107 82 1 12
0.699335 -0.608107 -0.159497 119 99 80 1 12
0.698538 -0.622921 -0.182343 119 103 80 1 12
0.562724 -0.115785 0.550172 203 196 180 15 4
0.564703 -0.138240 0.541372 203 199 181 15 4
0.562879 -0.129940 0.527637 205 201 186 15 4
0.561859 -0.113732 0.530986 205 201 187 15 4
0.564472 -0.122334 0.560346 196 188 166 15 4
0.704276 -0.568624 0.457333 189 184 174 1 12
0.705168 -0.565700 0.478341 192 185 172 1 12
0.704658 -0.565139 0.495257 187 181 169 1 12
0.571186 -0.442982 -0.174680 31 29 27 1 11
0.569385 -0.438565 -0.165401 27 23 27 1 11
0.707994 -0.612797 -0.268324 87 74 57 1 12
0.703327 -0.626344 -0.300764 85 75 61 1 12
0.705354 -0.600108 -0.298010 84 70 54 0 0
0.703830 -0.626742 -0.281290 90 77 61 1 12
0.617041 -0.460038 0.434986 182 172 156 1 11
0.624707 -0.461612 0.460986 173 164 147 1 11
0.608211 -0.454920 0.450370 180 173 156 1 11
0.627781 -0.354361 0.174367 131 116 88 1 10
0.641385 -0.344797 0.151516 93 79 67 1 10
0.649704 -0.340772 0.161202 44 37 33 1 10
0.630513 -0.336777 0.149007 38 33 33 1 10
0.638589 -0.352377 0.153155 94 78 62 1 10
0.636224 -0.353092 0.172840 137 119 89 1 10
0.647285 -0.346253 0.169297 50 42 35 1 10
0.630477 -0.362766 0.156203 136 117 89 1 10
0.637380 -0.359339 0.141469 136 118 93 1 10
0.562332 -0.159038 0.447960 237 237 231 15 4
0.561937 -0.152425 0.469930 234 235 228 15 4
0.561175 -0.148249 0.450403 237 235 231 15 4
0.625046 -0.465054 0.398486 168 158 139 1 11
0.702997 -0.492494 0.543321 126 113 91 1 12
0.605134 -0.445032 0.532183 178 170 158 1 11
0.598871 -0.430707 0.530070 171 163 150 1 11
0.603020 -0.441396 0.509563 179 172 160 1 11
0.683598 -0.491557 0.224901 167 154 130 1 11
0.695907 -0.502797 0.227677 158 145 116 1 12
0.699058 -0.495538 0.211243 157 145 115 1 12
0.672466 -0.486274 0.256986 168 156 136 1 11
0.687365 -0.488499 0.212360 167 150 122 1 11
0.601605 -0.364864 0.578190 139 126 103 1 10
0.601273 -0.378172 0.576009 141 126 105 1 10
0.661379 -0.474872 0.416486 155 144 121 1 11
0.669148 -0.474790 0.451587 162 153 130 1 11
0.640581 -0.466337 0.464986 162 152 131 1 11
0.666156 -0.472893 0.479736 161 150 129 1 11
0.593093 -0.307190 0.470763 148 131 103 1 10
0.593566 -0.301680 0.478853 146 131 103 1 10
0.594542 -0.307560 0.502253 142 125 102 1 10
0.653942 -0.485170 -0.048392 122 107 84 1 11
0.636737 -0.478769 -0.026998 122 109 87 1 11
0.563766 -0.191118 0.443266 241 241 233 15 4
0.562540 -0.171516 0.465466 239 239 231 15 4
0.561897 -0.195920 0.467136 229 228 223 15 4
0.610560 -0.435788 0.108639 139 123 96 1 10
0.611543 -0.461353 0.089840 141 123 96 1 11
0.607699 -0.455205 0.121353 141 126 96 1 11
0.607658 -0.449351 0.084732 140 122 93 1 10
0.604661 -0.443486 0.113567 139 122 94 1 10
0.603196 -0.370064 0.182152 144 128 93 1 10
0.605102 -0.379847 0.188600 145 129 96 1 10
0.603902 -0.394832 0.191548 144 131 98 1 10
0.598199 -0.384974 0.212352 149 134 99 1 10
0.606020 -0.379661 0.174832 141 127 93 1 10
0.603063 -0.376878 0.202379 143 128 93 1 10
0.598507 -0.366473 0.205542 139 125 100 1 10
0.598496 -0.365093 0.212967 143 126 94 1 10
0.583011 -0.285816 0.334690 156 139 107 1 10
0.577646 -0.293763 0.325860 155 141 109 1 10
0.565288 -0.102802 0.562713 192 182 160 15 4
0.565400 -0.117547 0.575316 188 180 158 15 4
0.696271 -0.519645 0.276514 152 137 103 1 12
0.691853 -0.505020 0.288967 156 138 108 1 12
0.615517 -0.423090 -0.075495 136 131 117 1 10
0.616028 -0.428690 -0.072656 137 130 113 1 10
0.614250 -0.416697 -0.051673 138 133 117 1 10
0.705693 -0.596526 0.195501 183 174 169 1 12
0.706303 -0.601684 0.219806 180 171 165 1 12
0.707218 -0.598851 0.178839 176 166 156 1 12
0.706948 -0.581848 0.180528 174 160 150 1 12
0.691399 -0.494543 0.412827 142 126 99 1 12
0.683935 -0.485420 0.419251 149 136 112 1 11
0.686664 -0.488170 0.415440 142 127 101 1 11
0.674684 -0.479305 0.427035 152 140 115 1 11
0.680598 -0.492382 -0.155302 95 81 61 1 11
0.664083 -0.487581 -0.175605 100 85 65 1 11
0.593171 -0.348037 0.450044 154 139 114 1 10
0.593186 -0.373078 0.448685 154 138 113 1 10
0.702367 -0.624570 0.424607 211 205 187 1 12
0.700371 -0.597307 0.412740 202 197 182 1 12
0.701096 -0.610054 0.404890 208 202 186 1 12
0.701374 -0.630920 0.415516 209 203 184 1 12
0.708350 -0.532576 0.071866 135 119 91 1 12
0.708295 -0.511827 0.060176 133 116 86 1 12
0.706432 -0.521515 0.045347 137 116 90 1 12
0.706042 -0.586890 0.226625 176 172 163 1 12
0.707017 -0.584034 0.235972 179 174 167 1 12
0.704323 -0.606018 0.231464 185 179 173 1 12
0.708656 -0.580157 0.217882 178 170 161 1 12
0.706222 -0.579205 0.112791 149 130 102 1 12
0.706064 -0.588969 0.128075 149 134 109 1 12
0.707283 -0.585243 0.142765 151 137 112 1 12
0.589573 -0.357812 0.379986 153 139 111 1 10
0.684312 -0.568794 -0.227387 86 67 46 1 12
0.684422 -0.565549 -0.237159 91 74 56 1 12
0.679704 -0.575442 -0.234829 116 99 79 1 12
0.672137 -0.580802 -0.242186 77 62 44 0 0
0.570405 -0.254789 0.575464 138 123 98 1 10
0.707553 -0.535700 0.125758 151 130 99 1 12
0.709196 -0.537164 0.113369 151 130 98 1 12
0.682812 -0.681619 -0.390332 54 45 32 4 3
0.705598 -0.547732 -0.119711 109 95 72 1 12
0.704071 -0.560361 -0.137149 108 95 73 1 12
0.598739 -0.349404 0.559079 139 124 101 1 10
0.599301 -0.332786 0.546248 138 124 100 1 10
0.599213 -0.357793 0.540320 141 124 102 1 10
0.595748 -0.434387 0.446670 183 176 162 1 10
0.597201 -0.444488 0.443185 188 181 168 1 11
0.602088 -0.450316 0.449559 186 179 166 1 11
0.563903 -0.262258 0.404052 149 135 105 15 4
0.697278 -0.493861 0.031814 129 115 86 1 11
0.699554 -0.493823 0.009794 127 110 83 1 11
0.687537 -0.490289 0.039372 128 115 85 1 11
0.691694 -0.483263 0.507539 151 142 120 1 12
0.697891 -0.491595 0.498722 130 115 91 1 12
0.688342 -0.479937 0.535275 143 134 110 1 12
0.698512 -0.489337 0.534666 132 120 96 1 12
0.612392 -0.452402 -0.055220 132 121 104 1 10
0.612761 -0.454422 -0.142629 140 134 108 1 10
0.636328 -0.362441 -0.011392 118 114 112 1 10
0.639509 -0.356121 -0.000077 42 42 40 1 10
0.641091 -0.364519 0.005084 43 41 38 1 10
0.640096 -0.360195 0.016380 35 33 34 1 10
0.638163 -0.344744 -0.012941 42 34 37 1 10
0.634372 -0.347879 0.010866 34 31 30 1 10
0.657893 -0.476327 0.339663 164 154 132 1 11
0.674624 -0.481792 0.346920 156 147 122 1 11
0.636267 -0.469637 0.371299 170 161 144 1 11
0.669088 -0.479962 0.366236 156 147 125 1 11
0.658586 -0.574737 -0.280601 136 119 90 0 0
0.664613 -0.583697 -0.291273 136 119 91 0 0
0.686826 -0.591198 -0.291101 70 54 38 0 0
0.658678 -0.580250 -0.298756 129 112 87 0 0
0.662217 -0.575701 -0.292475 157 139 111 0 0
0.624841 -0.473359 0.226886 168 155 139 1 11
0.633364 -0.381348 -0.132265 154 151 136 1 10
0.637024 -0.384234 -0.115638 149 148 135 1 10
0.555808 -0.200139 0.327175 238 240 234 15 4
0.555657 -0.200716 0.350811 238 239 233 15 4
0.548285 -0.209533 0.367017 238 239 234 15 4
0.705033 -0.563248 0.048418 134 120 90 1 12
0.703801 -0.547754 -0.142781 107 90 69 1 12
0.703888 -0.553487 -0.165795 107 91 70 1 12
0.702798 -0.566048 -0.166889 104 93 69 1 12
0.697998 -0.493179 0.135269 150 135 102 1 11
0.699836 -0.489723 0.117570 153 135 103 1 11
0.690414 -0.485118 0.112288 151 134 100 1 11
0.680836 -0.486302 0.134183 155 139 106 1 11
0.586947 -0.379151 0.330951 164 148 119 1 10
0.590200 -0.400687 0.333148 167 150 122 1 10
0.586909 -0.395323 0.307943 162 146 113 1 10
0.611108 -0.423620 -0.117729 152 144 121 1 10
0.611793 -0.425115 -0.130551 152 144 121 1 10
0.557567 -0.201302 0.386325 237 236 230 15 4
0.700784 -0.579394 -0.164042 106 90 69 1 12
0.631533 -0.381224 0.062534 97 89 71 1 10
0.641124 -0.375334 0.050463 65 64 54 1 10
0.644368 -0.365735 0.052629 76 71 61 1 10
0.627512 -0.371027 0.074134 110 98 77 1 10
0.635062 -0.369497 0.061642 80 73 61 1 10
0.687358 -0.690476 -0.407516 49 41 29 4 3
0.702073 -0.503943 -0.051009 116 100 75 1 12
0.701647 -0.550632 0.238428 161 143 112 1 12
0.689923 -0.631823 -0.370633 89 76 57 4 3
0.701354 -0.563219 0.262297 162 145 113 1 12
0.686699 -0.664349 -0.343953 87 76 59 1 12
0.697313 -0.648767 -0.331156 88 75 59 1 12
0.688799 -0.654400 -0.344700 92 77 60 1 12
0.691710 -0.654573 -0.356379 94 81 61 1 12
0.698577 -0.646985 -0.353114 93 80 61 1 12
0.686508 -0.659649 -0.352698 90 77 59 4 3
0.685484 -0.646959 -0.355413 90 79 59 4 3
0.555685 -0.208153 0.453043 232 232 223 15 4
0.553436 -0.221802 0.580734 199 192 163 15 4
0.560554 -0.205223 0.585677 201 191 165 15 4
0.559180 -0.216803 0.587071 197 189 161 15 4
0.546858 -0.226383 0.577079 198 190 162 15 4
0.558051 -0.217501 0.568379 200 193 164 15 4
0.562477 -0.202590 0.577904 208 200 173 15 4
0.564448 -0.211596 0.558523 200 191 164 15 4
0.705707 -0.545293 0.016538 134 117 89 1 12
0.708258 -0.540630 0.057657 134 119 90 1 12
0.692590 -0.495601 0.319588 153 139 108 1 11
0.676521 -0.483793 0.314638 171 161 137 1 11
0.683184 -0.487867 0.310090 168 157 129 1 11
0.681811 -0.487270 0.330713 168 157 130 1 11
0.694643 -0.507101 0.336128 146 133 102 1 12
0.676294 -0.692981 -0.226066 99 84 68 4 3
0.666164 -0.492402 -0.229261 84 72 51 1 11
0.648599 -0.487120 -0.213732 96 81 59 1 11
0.646123 -0.487508 -0.222522 98 82 61 1 11
0.702650 -0.552777 0.455234 173 165 148 1 12
0.697641 -0.560280 0.433823 187 179 168 1 12
0.561401 -0.184290 0.407022 243 241 234 15 4
0.560345 -0.194499 0.381544 242 242 236 15 4
0.558367 -0.198816 0.374329 242 243 237 15 4
0.561105 -0.180972 0.383951 244 244 237 15 4
0.703232 -0.614513 0.280145 200 194 187 1 12
0.701812 -0.596745 0.281718 199 193 184 1 12
0.704570 -0.624461 0.265166 198 193 185 1 12
0.617775 -0.456080 0.514583 185 177 165 1 11
0.632968 -0.461993 0.530986 179 169 155 1 11
0.607918 -0.449282 0.507946 186 179 166 1 11
0.653524 -0.481084 0.121736 151 136 101 1 11
0.663717 -0.482759 0.131490 152 133 103 1 11
0.640609 -0.477906 0.123205 155 138 105 1 11
0.706394 -0.498260 0.163250 154 137 108 1 12
0.703165 -0.499485 0.140563 150 132 100 1 11
0.703855 -0.495445 0.156210 158 139 108 1 11
0.618854 -0.387589 0.078689 136 117 92 1 10
0.616147 -0.385002 0.096238 134 119 87 1 10
0.561620 -0.141477 0.504356 221 221 212 15 4
0.561786 -0.147581 0.518664 218 217 207 15 4
0.572404 -0.255054 0.562789 137 125 102 1 10
0.563116 -0.251255 0.593236 141 129 106 15 4
0.546481 -0.248394 0.574132 141 129 107 15 4
0.552155 -0.248715 0.564488 143 132 111 15 4
0.635897 -0.334430 0.116026 43 29 31 1 10
0.633299 -0.337125 0.132987 25 23 25 1 10
0.624501 -0.337252 0.141013 38 32 34 1 10
0.707565 -0.576479 0.163703 161 147 131 1 12
0.708643 -0.602201 0.148836 164 150 136 1 12
0.705824 -0.599233 0.057312 138 122 99 1 12
0.706926 -0.590191 0.081285 142 124 99 1 12
0.705090 -0.582023 0.066204 137 120 94 1 12
0.706004 -0.573626 0.077058 142 124 99 1 12
0.698609 -0.662620 -0.044825 121 103 81 1 12
0.696999 -0.680721 -0.059349 117 101 80 1 12
0.690876 -0.685846 -0.081944 116 99 79 4 3
0.691228 -0.686625 -0.057597 119 100 80 4 3
0.588473 -0.424034 0.319125 185 178 161 1 10
0.594624 -0.449273 0.319657 192 182 168 1 11
0.682769 -0.669511 -0.291821 80 67 54 1 12
0.682795 -0.678382 -0.278690 89 76 59 1 12
0.679781 -0.685892 -0.273424 81 67 53 1 12
0.591501 -0.351187 0.401402 153 139 110 1 10
0.657073 -0.475069 0.393486 156 147 124 1 11
0.674470 -0.481595 0.393111 154 145 121 1 11
0.706187 -0.660038 0.374051 215 210 189 1 12
0.703185 -0.641716 0.379860 209 203 184 1 12
0.707388 -0.667125 0.391732 211 208 188 1 12
0.704826 -0.643945 0.369278 209 206 187 1 12
0.706390 -0.668619 0.357517 219 212 194 1 12
0.669704 -0.470665 0.548866 151 143 122 1 11
0.598570 -0.393418 0.039951 94 88 77 1 10
0.607298 -0.400225 0.033320 106 99 82 1 10
0.609137 -0.396423 0.042958 94 88 75 1 10
0.680320 -0.475550 0.535062 148 140 119 1 11
0.690921 -0.477907 0.552701 137 127 105 1 12
0.613278 -0.361294 0.168438 108 91 70 1 10
0.599405 -0.360567 0.166194 73 57 45 1 10
0.587234 -0.359985 0.174659 66 52 43 1 10
0.639254 -0.481554 -0.048308 118 104 82 1 11
0.704202 -0.504083 -0.028711 117 103 74 1 12
0.704068 -0.530300 -0.084549 115 99 75 1 12
0.703873 -0.519497 -0.090014 112 99 75 1 12
0.707082 -0.509051 -0.102786 114 98 77 1 12
0.593726 -0.437097 0.425553 181 174 160 1 11
0.594111 -0.419084 0.410927 181 171 155 1 10
0.593760 -0.398566 0.425807 173 161 141 1 10
0.703809 -0.656919 0.087978 143 129 108 1 12
0.705278 -0.671697 0.077885 144 130 112 1 12
0.709032 -0.527470 -0.145231 106 91 69 1 12
0.710651 -0.516495 -0.127793 107 93 69 1 12
0.709327 -0.508656 -0.145113 104 91 69 1 11
0.707700 -0.532255 -0.133150 107 94 70 1 12
0.707178 -0.531567 -0.114840 106 94 72 1 12
0.705589 -0.519799 -0.107871 110 95 72 1 12
0.707734 -0.539169 0.040173 135 117 88 1 12
0.705686 -0.530571 0.030132 134 116 88 1 12
0.706425 -0.518194 0.029107 133 116 85 1 12
0.639387 -0.367973 0.020163 33 32 29 1 10
0.635763 -0.356007 0.045201 29 29 27 1 10
0.633444 -0.361215 0.030906 32 29 29 1 10
0.630274 -0.353988 0.021617 32 31 32 1 10
0.702398 -0.505657 0.498527 134 121 97 1 12
0.705345 -0.510882 0.511923 129 114 90 1 12
0.699673 -0.674362 -0.036630 123 105 85 1 12
0.698639 -0.679496 -0.026471 124 107 85 1 12
0.687637 -0.690584 -0.027124 119 104 82 4 3
0.696218 -0.684339 -0.037304 121 105 82 4 3
0.694964 -0.643905 -0.167577 116 105 78 1 12
0.693393 -0.661727 -0.173868 120 104 77 1 12
0.618746 -0.470890 -0.046819 131 118 95 1 11
0.626918 -0.476263 -0.040291 126 110 90 1 11
0.619604 -0.468490 -0.007688 129 118 94 1 11
0.626171 -0.473472 -0.010745 127 116 93 1 11
0.707326 -0.506210 -0.012586 125 108 80 1 12
0.589795 -0.317071 0.397661 149 133 102 1 10
0.589037 -0.331103 0.384488 149 132 103 1 10
0.589374 -0.301329 0.398168 147 133 102 1 10
0.690456 -0.494710 0.336425 148 135 102 1 11
0.688560 -0.491051 0.349189 147 137 107 1 11
0.683514 -0.487277 0.364868 151 140 114 1 11
0.690677 -0.493259 0.375986 146 133 105 1 11
0.627429 -0.336615 0.190996 33 31 32 1 10
0.645346 -0.331339 0.176375 36 32 28 1 10
0.675717 -0.625569 -0.361376 82 69 49 4 3
0.604397 -0.427753 -0.159427 126 118 97 1 11
0.603133 -0.422541 -0.170256 41 28 35 1 11
0.595513 -0.414571 0.434402 179 171 155 1 10
0.598517 -0.419328 0.463549 178 170 154 1 10
0.598001 -0.412577 0.449660 175 163 145 1 10
0.703313 -0.665440 0.057402 133 119 96 1 12
0.700904 -0.686898 0.056468 130 119 99 1 12
0.696882 -0.691288 0.049783 131 117 91 4 3
0.687651 -0.493566 -0.060196 114 99 77 1 11
0.685870 -0.492010 -0.077603 111 99 74 1 11
0.696132 -0.497079 -0.035836 115 100 74 1 11
0.696703 -0.498957 -0.064692 114 100 72 1 11
0.568235 -0.172007 0.568482 195 186 161 15 4
0.661597 -0.483351 0.102986 147 130 101 1 11
0.650746 -0.481473 0.085486 148 131 99 1 11
0.680183 -0.662175 -0.313689 82 67 53 1 12
0.682312 -0.677438 -0.323131 81 67 52 1 12
0.680778 -0.681811 -0.317942 79 65 49 1 12
0.673122 -0.692928 -0.335686 84 71 52 4 3
0.681122 -0.680058 -0.301920 81 68 52 1 12
0.597265 -0.389836 0.476179 166 153 133 1 10
0.595270 -0.374844 0.498958 153 139 118 1 10
0.612924 -0.441267 -0.126009 146 135 111 1 10
0.607788 -0.430582 -0.127887 148 139 116 1 10
0.603802 -0.430579 -0.141224 139 130 104 1 10
0.704245 -0.642959 0.049391 138 122 97 1 12
0.704494 -0.624271 0.076764 140 124 98 1 12
0.675171 -0.489880 -0.043546 119 103 78 1 11
0.689962 -0.492516 -0.021421 113 104 85 1 11
0.675816 -0.487969 -0.020102 122 105 81 1 11
0.702432 -0.498608 -0.012978 120 104 79 1 11
0.702265 -0.619445 -0.257631 105 90 71 1 12
0.707389 -0.607550 -0.256007 92 78 61 1 12
0.698712 -0.631167 -0.269542 94 81 65 1 12
0.702278 -0.583219 -0.088110 120 103 78 1 12
0.700870 -0.592552 -0.101622 116 99 77 1 12
0.700938 -0.599517 -0.079885 120 103 78 1 12
0.573440 -0.259299 0.537303 139 127 103 1 10
0.551888 -0.249735 0.554168 139 127 104 1 10
0.558563 -0.251484 0.538698 139 127 105 1 10
0.703183 -0.572672 0.000238 128 113 87 1 12
0.703128 -0.591043 0.008459 131 116 89 1 12
0.619051 -0.469875 0.281377 187 181 171 1 11
0.632215 -0.369810 -0.011110 133 130 122 1 10
0.631798 -0.391576 0.001515 145 139 125 1 10
0.631814 -0.392697 -0.014885 147 139 125 1 10
0.631277 -0.382517 -0.008368 139 133 122 1 10
0.634774 -0.375881 0.000791 95 92 87 1 10
0.640696 -0.375750 0.015263 96 93 84 1 10
0.632201 -0.386919 0.015467 116 112 102 1 10
0.622721 -0.394749 0.009919 138 128 113 1 10
0.697850 -0.520011 0.386228 140 125 99 1 12
0.695835 -0.537681 0.394926 155 144 124 1 12
0.703653 -0.561303 -0.048989 125 108 84 1 12
0.705061 -0.564190 -0.020211 125 107 81 1 12
0.701705 -0.548829 -0.051820 125 106 81 1 12
0.703859 -0.545335 -0.029699 124 108 83 1 12
0.670273 -0.481187 0.329272 161 150 126 1 11
0.665418 -0.480633 0.297486 171 162 144 1 11
0.663131 -0.479067 0.316986 174 165 146 1 11
0.669069 -0.581383 -0.254023 126 108 77 0 0
0.689524 -0.588973 -0.267705 83 65 46 0 0
0.667335 -0.584900 -0.271122 90 71 50 0 0
0.664615 -0.573381 -0.241285 113 97 72 0 0
0.661788 -0.577484 -0.260564 135 118 85 0 0
0.662615 -0.568683 -0.253298 145 127 97 0 0
0.688549 -0.593473 -0.320607 67 53 37 0 0
0.667314 -0.586681 -0.308164 110 95 72 0 0
0.670786 -0.587542 -0.330329 74 56 42 0 0
0.609003 -0.419644 0.016238 139 130 114 1 10
0.612665 -0.423839 0.001819 143 131 114 1 10
0.626567 -0.469267 0.321986 185 176 157 1 11
0.626828 -0.470402 0.300340 179 173 159 1 11
0.695620 -0.549332 0.388360 182 174 161 1 12
0.697996 -0.581502 0.371707 193 185 172 1 12
0.696127 -0.540746 0.376769 169 158 141 1 12
0.593776 -0.451881 0.283819 168 153 132 1 11
0.601611 -0.460999 0.282705 182 172 162 1 11
0.591150 -0.442185 0.305155 175 167 149 1 10
0.602818 -0.458217 0.317261 185 176 165 1 11
0.705238 -0.573028 0.135423 152 136 108 1 12
0.708048 -0.541927 0.146063 153 136 107 1 12
0.708639 -0.566453 0.165431 156 142 115 1 12
0.707483 -0.549660 0.165561 158 140 110 1 12
0.592073 -0.284066 0.504729 138 124 98 1 10
0.595088 -0.289801 0.523269 134 120 95 1 10
0.587272 -0.273364 0.513235 137 122 98 1 10
0.612869 -0.442557 0.051825 137 122 97 1 10
0.707101 -0.665378 0.233004 196 193 188 1 12
0.704616 -0.698856 0.203566 192 189 186 1 12
0.706131 -0.681532 0.226169 196 195 189 1 12
0.709830 -0.526862 0.163015 162 139 106 1 12
0.707897 -0.515031 0.130762 156 134 101 1 12
0.709963 -0.532383 0.146321 156 136 104 1 12
0.708802 -0.517845 0.147674 154 135 104 1 12
0.709985 -0.511974 0.165587 154 134 102 1 12
0.592186 -0.310662 0.441658 149 132 105 1 10
0.589806 -0.322397 0.422400 150 135 105 1 10
0.589436 -0.301728 0.415833 150 132 105 1 10
0.604354 -0.348036 0.184110 43 42 37 1 10
0.620073 -0.348645 0.181054 62 50 43 1 10
0.602791 -0.339625 0.191619 41 39 37 1 10
0.596336 -0.354411 0.197082 128 115 90 1 10
0.591253 -0.354965 0.183216 53 43 38 1 10
0.596856 -0.359369 0.190244 84 70 55 1 10
0.604333 -0.352931 0.181489 52 44 36 1 10
0.589099 -0.283640 0.478090 147 129 103 1 10
0.590401 -0.288880 0.460098 147 131 103 1 10
0.581679 -0.272008 0.484945 149 132 104 1 10
0.593445 -0.289655 0.496134 144 127 102 1 10
0.593456 -0.436360 0.399410 182 174 158 1 11
0.597126 -0.445294 0.404313 186 180 166 1 11
0.603038 -0.452725 0.407250 184 177 163 1 11
0.606762 -0.454585 0.430245 182 174 158 1 11
0.598403 -0.448218 0.416773 187 180 167 1 11
0.592479 -0.392901 0.381163 161 145 119 1 10
0.590001 -0.376906 0.373735 153 138 112 1 10
0.591151 -0.374813 0.397145 154 140 113 1 10
0.573347 -0.344863 0.199770 110 80 73 1 10
0.583687 -0.349361 0.193322 52 45 45 1 10
0.587656 -0.340857 0.192973 55 48 48 1 10
