ply
format ascii 1.0
element vertex 1128
property float x
property float y
property float z
property uchar red
property uchar green
property uchar blue
property uchar semantic_label
property uchar instance_label
end_header
-1.311266 1.082808 0.055141 0 0 255 92 17
-1.343791 1.059657 0.010141 0 0 255 92 17
-1.353492 1.042873 0.043141 0 0 255 92 17
-1.326294 1.069822 0.008652 0 0 255 92 17
-1.380055 1.076623 -0.067859 0 0 255 92 17
-1.336663 1.064328 0.052141 0 0 255 92 17
-1.361661 1.091014 0.199142 0 0 255 92 17
-1.390729 1.055266 -0.016858 0 0 255 92 17
-1.395984 1.073832 -0.019858 0 0 255 92 17
-1.398540 1.105099 0.097142 0 0 255 92 17
-1.362592 1.043351 -0.016858 0 0 255 92 17
-1.363265 1.056211 -0.073859 0 0 255 92 17
-1.348212 1.082141 0.127141 0 0 255 92 17
-1.314650 1.067347 0.034142 0 0 255 92 17
-1.307170 1.084159 0.004141 0 0 255 92 17
-1.360300 1.068565 0.151141 0 0 255 92 17
-1.325855 1.078929 -0.046859 0 0 255 92 17
-1.340030 1.066607 0.121141 0 0 255 92 17
-1.377303 1.060713 0.022141 0 0 255 92 17
-1.372674 1.061278 0.049142 0 0 255 92 17
-1.340999 1.094417 0.145141 0 0 255 92 17
-1.381948 1.067724 0.073141 0 0 255 92 17
-1.343796 1.059631 0.037141 0 0 255 92 17
-1.401126 1.064070 0.043141 0 0 255 92 17
-1.329436 1.076624 0.082142 0 0 255 92 17
-1.327761 1.060933 -0.043859 0 0 255 92 17
-1.390414 1.071182 0.105744 0 0 255 92 17
-1.376456 1.050271 -0.046859 0 0 255 92 17
-1.401161 1.085735 0.031142 0 0 255 92 17
-1.376651 1.098928 0.223141 0 0 255 92 17
-1.361876 1.046715 0.071218 0 0 255 92 17
-1.403908 1.083252 0.067142 0 0 255 92 17
-1.333117 1.052154 0.070141 0 0 255 92 17
-1.382858 1.063443 0.005649 0 0 255 92 17
-1.309262 1.092239 0.019141 0 0 255 92 17
-1.399026 1.059518 0.016142 0 0 255 92 17
-1.375201 1.085034 0.214141 0 0 255 92 17
-1.341552 1.099051 0.169141 0 0 255 92 17
-1.344526 1.070630 -0.066336 0 0 255 92 17
-1.364141 1.079350 0.124141 0 0 255 92 17
-1.352669 1.075607 0.190141 0 0 255 92 17
-1.340667 1.074351 0.100142 0 0 255 92 17
-1.377065 1.047405 -0.022859 0 0 255 92 17
-1.363908 1.051587 0.088141 0 0 255 92 17
-1.341223 1.100598 0.194613 0 0 255 92 17
-1.322432 1.073567 -0.016858 0 0 255 92 17
-1.375308 1.092508 0.154141 0 0 255 92 17
-1.356781 1.056255 -0.004858 0 0 255 92 17
-1.331856 1.049535 0.019141 0 0 255 92 17
-1.351815 1.075246 0.220141 0 0 255 92 17
-1.356632 1.042533 0.013033 0 0 255 92 17
-1.317002 1.061712 0.019141 0 0 255 92 17
-1.386889 1.061233 0.088141 0 0 255 92 17
-1.375571 1.086430 0.172141 0 0 255 92 17
-1.325645 1.101735 0.121141 0 0 255 92 17
-1.366005 1.070578 -0.067859 0 0 255 92 17
-1.374145 1.061145 0.115142 0 0 255 92 17
-1.334907 1.080853 0.142141 0 0 255 92 17
-1.368718 1.043383 0.040141 0 0 255 92 17
-1.388453 1.051548 -0.001858 0 0 255 92 17
-1.390527 1.056217 0.067142 0 0 255 92 17
-1.405709 1.071367 0.030624 0 0 255 92 17
-1.367838 1.076384 0.226142 0 0 255 92 17
-1.353847 1.055635 0.022141 0 0 255 92 17
-1.349954 1.059516 -0.080031 0 0 255 92 17
-1.349966 1.088321 0.235141 0 0 255 92 17
-1.367007 1.051440 -0.058859 0 0 255 92 17
-1.352601 1.061497 -0.037858 0 0 255 92 17
-1.372182 1.070375 0.142396 0 0 255 92 17
-1.341918 1.068464 0.085142 0 0 255 92 17
-1.346889 1.073937 0.154141 0 0 255 92 17
-1.329548 1.068944 0.040141 0 0 255 92 17
-1.319330 1.080610 0.043141 0 0 255 92 17
-1.379993 1.105772 0.149688 0 0 255 92 17
-1.335047 1.057510 -0.058859 0 0 255 92 17
-1.310814 1.084934 -0.034424 0 0 255 92 17
-1.333956 1.048213 -0.010859 0 0 255 92 17
-1.406988 1.079777 -0.010859 0 0 255 92 17
-1.333554 1.078961 -0.070858 0 0 255 92 17
-1.386563 1.067297 -0.007859 0 0 255 92 17
-1.344646 1.079856 0.178141 0 0 255 92 17
-1.383738 1.066697 -0.022859 0 0 255 92 17
-1.388684 1.093750 -0.082859 0 0 255 92 17
-1.379782 1.049049 0.061141 0 0 255 92 17
-1.395176 1.092059 -0.055858 0 0 255 92 17
-1.346533 1.075615 -0.082859 0 0 255 92 17
-1.392093 1.099143 0.115142 0 0 255 92 17
-1.389457 1.061249 -0.049859 0 0 255 92 17
-1.372756 1.082765 0.196141 0 0 255 92 17
-1.313691 1.094746 0.085142 0 0 255 92 17
-1.329774 1.088964 0.106141 0 0 255 92 17
-1.323443 1.075350 0.061141 0 0 255 92 17
-1.362310 1.087962 0.178141 0 0 255 92 17
-1.340528 1.060579 0.108542 0 0 255 92 17
-1.340551 1.082053 0.115142 0 0 255 92 17
-1.328383 1.067199 -0.004858 0 0 255 92 17
-1.331583 1.052544 -0.028859 0 0 255 92 17
-1.382550 1.064885 0.040141 0 0 255 92 17
-1.344934 1.054276 0.094141 0 0 255 92 17
-1.340711 1.045283 0.037990 0 0 255 92 17
-1.352231 1.092098 0.211141 0 0 255 92 17
-1.386729 1.076534 0.118142 0 0 255 92 17
-1.325855 1.057460 0.059719 0 0 255 92 17
-1.356957 1.113144 0.235759 0 0 255 92 17
-1.369576 1.068214 0.085142 0 0 255 92 17
-1.340893 1.044434 0.010141 0 0 255 92 17
-1.376364 1.065130 -0.048392 0 0 255 92 17
-1.351968 1.064474 0.076141 0 0 255 92 17
-1.350209 1.087173 0.152646 0 0 255 92 17
-1.333894 1.077363 0.127141 0 0 255 92 17
-1.353073 1.044844 0.060983 0 0 255 92 17
-1.357671 1.066502 0.136141 0 0 255 92 17
-1.373559 1.078325 -0.082859 0 0 255 92 17
-1.392210 1.080765 -0.073859 0 0 255 92 17
-1.392428 1.076131 -0.034858 0 0 255 92 17
-1.394903 1.078916 0.094141 0 0 255 92 17
-1.389528 1.067927 -0.061859 0 0 255 92 17
-1.407547 1.077149 0.004141 0 0 255 92 17
-1.361142 1.050168 -0.046859 0 0 255 92 17
-1.314532 1.088791 -0.007859 0 0 255 92 17
-1.379299 1.065753 0.059642 0 0 255 92 17
-1.404715 1.089558 0.055141 0 0 255 92 17
-1.358778 1.042989 0.031142 0 0 255 92 17
-1.375272 1.084699 0.130141 0 0 255 92 17
-1.324669 1.087879 0.118142 0 0 255 92 17
-1.362453 1.072861 0.103141 0 0 255 92 17
-1.404768 1.077301 -0.028859 0 0 255 92 17
-1.388867 1.078455 0.076141 0 0 255 92 17
-1.390934 1.054307 0.025141 0 0 255 92 17
-1.394217 1.075058 0.043141 0 0 255 92 17
-1.382036 1.052875 -0.034858 0 0 255 92 17
-1.325101 1.072635 0.100142 0 0 255 92 17
-1.407212 1.093155 0.020745 0 0 255 92 17
-1.365720 1.093537 0.211141 0 0 255 92 17
-1.314719 1.080993 0.031142 0 0 255 92 17
-1.317335 1.061783 0.004141 0 0 255 92 17
-1.398154 1.063627 0.058108 0 0 255 92 17
-1.332191 1.056515 0.082142 0 0 255 92 17
-1.352690 1.046643 -0.031859 0 0 255 92 17
-1.372092 1.056376 0.001141 0 0 255 92 17
-1.399160 1.102173 0.082142 0 0 255 92 17
-1.346715 1.060325 -0.019858 0 0 255 92 17
-1.369722 1.096379 0.235141 0 0 255 92 17
-1.380239 1.046900 0.046142 0 0 255 92 17
-1.398285 1.077432 0.022141 0 0 255 92 17
-1.340162 1.088104 0.190141 0 0 255 92 17
-1.341223 1.100598 0.224538 0 0 255 92 17
-1.398707 1.075450 -0.049859 0 0 255 92 17
-1.316931 1.077033 0.082142 0 0 255 92 17
-1.344878 1.061504 0.061141 0 0 255 92 17
-1.337508 1.096742 0.157142 0 0 255 92 17
-1.365823 1.121162 0.232141 0 0 255 92 17
-1.380107 1.047523 -0.010135 0 0 255 92 17
-1.392009 1.056187 0.040141 0 0 255 92 17
-1.365267 1.074055 0.172141 0 0 255 92 17
-1.329562 1.068876 -0.025859 0 0 255 92 17
-1.311954 1.072908 0.007141 0 0 255 92 17
-1.354577 1.066632 -0.060362 0 0 255 92 17
-1.347601 1.085013 0.139141 0 0 255 92 17
-1.312203 1.092830 0.064142 0 0 255 92 17
-1.316180 1.083007 -0.055858 0 0 255 92 17
-1.324668 1.054141 0.028141 0 0 255 92 17
-1.377522 1.096046 0.142141 0 0 255 92 17
-1.388103 1.067625 0.017664 0 0 255 92 17
-1.311255 1.097295 -0.036370 0 0 255 92 17
-1.372452 1.061231 -0.022859 0 0 255 92 17
-1.374767 1.087077 0.226142 0 0 255 92 17
-1.395350 1.076811 -0.001858 0 0 255 92 17
-1.340919 1.102025 0.181141 0 0 255 92 17
-1.387479 1.070559 -0.078366 0 0 255 92 17
-1.332129 1.100090 0.139141 0 0 255 92 17
-1.403653 1.095466 -0.042597 0 0 255 92 17
-1.396141 1.058667 0.004141 0 0 255 92 17
-1.323660 1.067788 0.088141 0 0 255 92 17
-1.365565 1.058225 0.022141 0 0 255 92 17
-1.321092 1.071783 0.025141 0 0 255 92 17
-1.328935 1.071827 -0.037858 0 0 255 92 17
-1.364949 1.061122 0.058141 0 0 255 92 17
-1.310802 1.075730 -0.016858 0 0 255 92 17
-1.373638 1.070684 -0.058859 0 0 255 92 17
-1.346906 1.117141 0.230733 0 0 255 92 17
-1.346295 1.047873 0.070141 0 0 255 92 17
-1.404594 1.091037 0.043141 0 0 255 92 17
-1.323931 1.095375 -0.079859 0 0 255 92 17
-1.331758 1.080184 0.094141 0 0 255 92 17
-1.350420 1.093352 0.196141 0 0 255 92 17
-1.401110 1.070389 0.067142 0 0 255 92 17
-1.404600 1.091013 -0.031859 0 0 255 92 17
-1.349669 1.060856 0.118142 0 0 255 92 17
-1.365838 1.085797 0.154141 0 0 255 92 17
-1.349760 1.077876 0.208142 0 0 255 92 17
-1.402960 1.073849 0.055141 0 0 255 92 17
-1.374258 1.086151 0.184141 0 0 255 92 17
-1.322496 1.056746 -0.004858 0 0 255 92 17
-1.342579 1.057948 0.022141 0 0 255 92 17
-1.314687 1.079623 -0.043859 0 0 255 92 17
-1.401124 1.064076 -0.016858 0 0 255 92 17
-1.323485 1.060024 -0.031859 0 0 255 92 17
-1.328448 1.074123 -0.079859 0 0 255 92 17
-1.383570 1.081996 0.106141 0 0 255 92 17
-1.374677 1.058637 -0.072973 0 0 255 92 17
-1.403569 1.067003 0.007141 0 0 255 92 17
-1.363195 1.083799 0.233295 0 0 255 92 17
-1.336300 1.053547 -0.043859 0 0 255 92 17
-1.384068 1.091303 0.133142 0 0 255 92 17
-1.309751 1.075510 0.040141 0 0 255 92 17
-1.375372 1.098656 0.173664 0 0 255 92 17
-1.374382 1.060027 0.034142 0 0 255 92 17
-1.333750 1.063608 -0.016858 0 0 255 92 17
-1.371883 1.071784 0.097142 0 0 255 92 17
-1.353952 1.069567 -0.072322 0 0 255 92 17
-1.321007 1.094703 0.097142 0 0 255 92 17
-1.380332 1.046464 0.022141 0 0 255 92 17
-1.354661 1.051806 -0.055858 0 0 255 92 17
-1.312675 1.076183 0.064142 0 0 255 92 17
-1.350398 1.093347 0.223141 0 0 255 92 17
-1.347974 1.089765 0.166142 0 0 255 92 17
-1.361281 1.043521 -0.004858 0 0 255 92 17
-1.378442 1.105442 0.187141 0 0 255 92 17
-1.375906 1.081720 0.118142 0 0 255 92 17
-1.342210 1.095954 0.208142 0 0 255 92 17
-1.363253 1.054668 0.100142 0 0 255 92 17
-1.339715 1.045071 -0.001858 0 0 255 92 17
-1.332901 1.074293 -0.055858 0 0 255 92 17
-1.368758 1.043197 0.010141 0 0 255 92 17
-1.318255 1.064356 -0.022859 0 0 255 92 17
-1.371754 1.094820 0.196141 0 0 255 92 17
-1.344642 1.079856 0.229141 0 0 255 92 17
-1.362316 1.059076 0.112274 0 0 255 92 17
-1.410913 1.090174 0.034142 0 0 255 92 17
-1.319999 1.077685 0.013142 0 0 255 92 17
-1.358389 1.091979 0.188664 0 0 255 92 17
-1.334035 1.062266 0.014680 0 0 255 92 17
-1.321424 1.078307 -0.067859 0 0 255 92 17
-1.385792 1.064066 0.098668 0 0 255 92 17
-1.361832 1.075781 0.196141 0 0 255 92 17
-1.322380 1.068990 -0.049859 0 0 255 92 17
-1.340361 1.061360 -0.070858 0 0 255 92 17
-1.320299 1.083598 0.106141 0 0 255 92 17
-1.339293 1.090987 0.178141 0 0 255 92 17
-1.315837 1.079867 -0.025859 0 0 255 92 17
-1.331256 1.067809 0.061141 0 0 255 92 17
-1.350725 1.070318 0.100142 0 0 255 92 17
-1.374053 1.061571 0.011662 0 0 255 92 17
-1.310395 1.094045 0.007141 0 0 255 92 17
-1.373976 1.047508 0.070141 0 0 255 92 17
-1.409266 1.090525 0.010141 0 0 255 92 17
-1.316428 1.079993 -0.001858 0 0 255 92 17
-1.371710 1.087030 0.145141 0 0 255 92 17
-1.385923 1.077875 -0.058859 0 0 255 92 17
-1.355519 1.062199 0.064142 0 0 255 92 17
-1.325047 1.075691 0.071798 0 0 255 92 17
-1.348742 1.065216 0.130141 0 0 255 92 17
-1.339935 1.048938 -0.034858 0 0 255 92 17
-1.374923 1.043056 0.031142 0 0 255 92 17
-1.387810 1.068996 0.049142 0 0 255 92 17
-1.319068 1.060530 0.043141 0 0 255 92 17
-1.329961 1.067005 -0.070858 0 0 255 92 17
-1.362316 1.059076 0.044672 0 0 255 92 17
-1.397080 1.068672 -0.040859 0 0 255 92 17
-1.363723 1.059375 -0.034858 0 0 255 92 17
-1.335453 1.062567 0.004141 0 0 255 92 17
-1.368609 1.066548 0.133142 0 0 255 92 17
-1.387733 1.098216 0.125584 0 0 255 92 17
-1.401623 1.079699 0.079141 0 0 255 92 17
-1.369277 1.091226 0.163141 0 0 255 92 17
-1.376805 1.077491 0.148740 0 0 255 92 17
-1.382951 1.084931 -0.076859 0 0 255 92 17
-1.382756 1.066488 0.112141 0 0 255 92 17
-1.398118 1.060552 0.031142 0 0 255 92 17
-1.399127 1.094504 0.094141 0 0 255 92 17
-1.331076 1.052436 0.052141 0 0 255 92 17
-1.379683 1.099572 0.235141 0 0 255 92 17
-1.383806 1.066711 -0.037858 0 0 255 92 17
-1.354817 1.051065 0.094141 0 0 255 92 17
-1.342156 1.052914 -0.052858 0 0 255 92 17
-1.380282 1.093566 0.163141 0 0 255 92 17
-1.405366 1.072980 0.016142 0 0 255 92 17
-1.357059 1.073294 0.181141 0 0 255 92 17
-1.398730 1.089773 0.073141 0 0 255 92 17
-1.397038 1.083306 -0.025859 0 0 255 92 17
-1.351980 1.056880 0.004141 0 0 255 92 17
-1.409947 1.081469 0.028141 0 0 255 92 17
-1.365067 1.074996 0.113675 0 0 255 92 17
-1.392668 1.103864 0.106141 0 0 255 92 17
-1.336786 1.078186 -0.084246 0 0 255 92 17
-1.391608 1.083705 0.112141 0 0 255 92 17
-1.357661 1.080973 0.133142 0 0 255 92 17
-1.380730 1.044588 0.004223 0 0 255 92 17
-1.361286 1.063919 -0.082859 0 0 255 92 17
-1.350168 1.044088 -0.013859 0 0 255 92 17
-1.393986 1.068801 0.094141 0 0 255 92 17
-1.361068 1.064945 0.080684 0 0 255 92 17
-1.374439 1.103050 0.214141 0 0 255 92 17
-1.384984 1.082297 0.128510 0 0 255 92 17
-1.323645 1.056991 0.013142 0 0 255 92 17
-1.378236 1.056326 0.089992 0 0 255 92 17
-1.338188 1.086014 0.124141 0 0 255 92 17
-1.391322 1.062175 0.079141 0 0 255 92 17
-1.400464 1.067185 -0.026393 0 0 255 92 17
-1.390568 1.084879 -0.064859 0 0 255 92 17
-1.362561 1.072356 0.160141 0 0 255 92 17
-1.317438 1.097061 -0.061859 0 0 255 92 17
-1.323349 1.090665 0.088141 0 0 255 92 17
-1.336834 1.047526 0.028141 0 0 255 92 17
-1.362653 1.057488 -0.013859 0 0 255 92 17
-1.384244 1.071345 0.082142 0 0 255 92 17
-1.314502 1.096447 0.073141 0 0 255 92 17
-1.370292 1.079270 0.205141 0 0 255 92 17
-1.327693 1.070119 0.052141 0 0 255 92 17
-1.332496 1.069503 -0.046859 0 0 255 92 17
-1.391187 1.081969 0.085142 0 0 255 92 17
-1.353212 1.058616 0.040141 0 0 255 92 17
-1.393518 1.077977 0.067142 0 0 255 92 17
-1.334106 1.068415 0.112141 0 0 255 92 17
-1.395316 1.084493 -0.046859 0 0 255 92 17
-1.342469 1.094729 0.234447 0 0 255 92 17
-1.386648 1.055047 -0.025859 0 0 255 92 17
-1.322309 1.081243 -0.037858 0 0 255 92 17
-1.343565 1.085761 0.214141 0 0 255 92 17
-1.371881 1.064176 0.124141 0 0 255 92 17
-1.339546 1.079622 0.151141 0 0 255 92 17
-1.345963 1.078297 0.166142 0 0 255 92 17
-1.382858 1.063443 -0.070745 0 0 255 92 17
-1.374968 1.089369 0.205141 0 0 255 92 17
-1.373756 1.062971 0.067142 0 0 255 92 17
-1.398993 1.082207 0.052141 0 0 255 92 17
-1.313878 1.099383 -0.052858 0 0 255 92 17
-1.326894 1.088351 -0.073859 0 0 255 92 17
-1.401233 1.077992 0.037141 0 0 255 92 17
-1.372977 1.073610 -0.073859 0 0 255 92 17
-1.315022 1.067426 -0.013859 0 0 255 92 17
-1.311939 1.085173 0.013142 0 0 255 92 17
-1.405715 1.092837 0.064142 0 0 255 92 17
-1.367184 1.050602 0.079141 0 0 255 92 17
-1.308570 1.078323 -0.007859 0 0 255 92 17
-1.338630 1.090846 0.136141 0 0 255 92 17
-1.353637 1.042195 0.022141 0 0 255 92 17
-1.317589 1.067971 0.064142 0 0 255 92 17
-1.371304 1.045652 -0.013679 0 0 255 92 17
-1.365412 1.065868 -0.058859 0 0 255 92 17
-1.352149 1.069183 0.145141 0 0 255 92 17
-1.351974 1.064448 -0.049859 0 0 255 92 17
-1.325140 1.081845 -0.058859 0 0 255 92 17
-1.339280 1.066448 -0.039432 0 0 255 92 17
-1.334677 1.080805 0.106141 0 0 255 92 17
-1.359499 1.043468 -0.025859 0 0 255 92 17
-1.364747 1.076502 0.217142 0 0 255 92 17
-1.403828 1.094644 -0.052858 0 0 255 92 17
-1.309901 1.089234 0.028141 0 0 255 92 17
-1.380208 1.056745 -0.052858 0 0 255 92 17
-1.318703 1.083544 0.064142 0 0 255 92 17
-1.377486 1.045427 0.013142 0 0 255 92 17
-1.339041 1.067574 -0.058859 0 0 255 92 17
-1.373945 1.047657 -0.031859 0 0 255 92 17
-1.331856 1.064870 0.103141 0 0 255 92 17
-1.319756 1.077633 0.052141 0 0 255 92 17
-1.357586 1.052471 -0.064859 0 0 255 92 17
-1.355353 1.077402 0.121141 0 0 255 92 17
-1.383193 1.061861 0.031142 0 0 255 92 17
-1.349648 1.060963 -0.028859 0 0 255 92 17
-1.343617 1.074902 0.109141 0 0 255 92 17
-1.373137 1.065890 0.076141 0 0 255 92 17
-1.386489 1.082617 0.097142 0 0 255 92 17
-1.387028 1.058254 -0.040859 0 0 255 92 17
-1.369248 1.069751 -0.084122 0 0 255 92 17
-1.356329 1.043952 0.052141 0 0 255 92 17
-1.312825 1.089904 0.049142 0 0 255 92 17
-1.335377 1.062551 0.034142 0 0 255 92 17
-1.392540 1.090037 0.118981 0 0 255 92 17
-1.321063 1.071777 0.001141 0 0 255 92 17
-1.393507 1.056630 -0.007859 0 0 255 92 17
-1.404612 1.080335 -0.019858 0 0 255 92 17
-1.332155 1.092537 0.121141 0 0 255 92 17
-1.389637 1.067951 0.001141 0 0 255 92 17
-1.349146 1.077746 0.198859 0 0 255 92 17
-1.359885 1.041653 0.004141 0 0 255 92 17
-1.397354 1.075725 -0.010859 0 0 255 92 17
-1.318951 1.071328 -0.040859 0 0 255 92 17
-1.344913 1.061511 0.046142 0 0 255 92 17
-1.336950 1.048556 0.046142 0 0 255 92 17
-1.353955 1.091036 0.175141 0 0 255 92 17
-1.335170 1.090111 0.151141 0 0 255 92 17
-1.365167 1.074522 0.235141 0 0 255 92 17
-1.340226 1.051314 0.076141 0 0 255 92 17
-1.382382 1.051248 0.070141 0 0 255 92 17
-1.368706 1.072305 0.151141 0 0 255 92 17
-1.400609 1.080929 0.013142 0 0 255 92 17
-1.313221 1.085445 0.082142 0 0 255 92 17
-1.398710 1.089870 -0.064859 0 0 255 92 17
-1.379838 1.084270 0.154141 0 0 255 92 17
-1.387479 1.070559 0.065535 0 0 255 92 17
-1.333356 1.049854 -0.019858 0 0 255 92 17
-1.394899 1.081337 0.103141 0 0 255 92 17
-1.382768 1.097161 0.151141 0 0 255 92 17
-1.339422 1.048076 0.064142 0 0 255 92 17
-1.319678 1.059214 0.034142 0 0 255 92 17
-1.346932 1.044877 0.049142 0 0 255 92 17
-1.376679 1.063650 -0.001858 0 0 255 92 17
-1.342835 1.094807 0.217142 0 0 255 92 17
-1.373246 1.079802 0.235062 0 0 255 92 17
-1.392916 1.073836 -0.067859 0 0 255 92 17
-1.320565 1.074738 0.034142 0 0 255 92 17
-1.380373 1.078249 0.136141 0 0 255 92 17
-1.353508 1.071659 0.160141 0 0 255 92 17
-1.316056 1.076847 0.073141 0 0 255 92 17
-1.325542 1.058930 0.070141 0 0 255 92 17
-1.368759 1.086478 0.136141 0 0 255 92 17
-1.350272 1.058020 -0.010859 0 0 255 92 17
-1.392540 1.090037 -0.075370 0 0 255 92 17
-1.395561 1.063076 0.070141 0 0 255 92 17
-1.358939 1.074961 0.226142 0 0 255 92 17
-1.345088 1.079950 0.187141 0 0 255 92 17
-1.320625 1.074751 -0.007859 0 0 255 92 17
-1.352040 1.056892 0.013142 0 0 255 92 17
-1.321112 1.071787 0.043141 0 0 255 92 17
-1.365581 1.058147 -0.004858 0 0 255 92 17
-1.343781 1.059699 0.001141 0 0 255 92 17
-1.335330 1.062541 0.043141 0 0 255 92 17
-1.353204 1.058658 0.031142 0 0 255 92 17
-1.335432 1.070123 0.079141 0 0 255 92 17
-1.393971 1.068872 -0.053735 0 0 255 92 17
-1.340662 1.074380 -0.073859 0 0 255 92 17
-1.367888 1.061717 -0.043859 0 0 255 92 17
-1.306633 1.090179 -0.002460 0 0 255 92 17
-1.341407 1.085302 0.235439 0 0 255 92 17
-1.336392 1.071968 0.091141 0 0 255 92 17
-1.337882 1.058597 0.100142 0 0 255 92 17
-1.327616 1.063606 -0.055858 0 0 255 92 17
-1.338840 1.054087 0.087728 0 0 255 92 17
-1.390746 1.069616 -0.028859 0 0 255 92 17
-1.378052 1.071622 -0.086928 0 0 255 92 17
-1.341042 1.085225 0.169141 0 0 255 92 17
-1.380064 1.076588 0.100142 0 0 255 92 17
-1.341348 1.069955 0.130141 0 0 255 92 17
-1.350560 1.042238 0.034142 0 0 255 92 17
-1.351278 1.067722 -0.082859 0 0 255 92 17
-1.311229 1.072753 0.028141 0 0 255 92 17
-1.383193 1.061867 -0.013859 0 0 255 92 17
-1.321950 1.075830 0.091141 0 0 255 92 17
-1.378491 1.083984 0.163148 0 0 255 92 17
-1.323495 1.082994 0.082142 0 0 255 92 17
-1.358446 1.048425 0.082142 0 0 255 92 17
-1.323561 1.075375 -0.028859 0 0 255 92 17
-1.326621 1.068288 0.031142 0 0 255 92 17
-1.310380 1.081774 0.046142 0 0 255 92 17
-1.326623 1.068275 0.019141 0 0 255 92 17
-1.403579 1.066956 0.022141 0 0 255 92 17
-1.376245 1.094554 0.214141 0 0 255 92 17
-1.381322 1.070661 -0.052858 0 0 255 92 17
-1.315765 1.082919 -0.016858 0 0 255 92 17
-1.387640 1.092062 0.112141 0 0 255 92 17
-1.392855 1.088550 0.094141 0 0 255 92 17
-1.368398 1.044892 -0.025859 0 0 255 92 17
-1.395653 1.060962 -0.022859 0 0 255 92 17
-1.355578 1.047486 -0.040859 0 0 255 92 17
-1.313056 1.073142 0.049142 0 0 255 92 17
-1.395551 1.061439 0.049142 0 0 255 92 17
-1.401386 1.085783 -0.013859 0 0 255 92 17
-1.337410 1.075242 0.136141 0 0 255 92 17
-1.363796 1.066541 0.142141 0 0 255 92 17
-1.347511 1.042155 0.016142 0 0 255 92 17
-1.334532 1.099176 0.148142 0 0 255 92 17
-1.307700 1.081205 0.025141 0 0 255 92 17
-1.368343 1.045151 0.064142 0 0 255 92 17
-1.342078 1.045574 -0.010859 0 0 255 92 17
-1.369320 1.054982 0.094141 0 0 255 92 17
-1.362652 1.043069 0.046142 0 0 255 92 17
-1.370389 1.049958 -0.040859 0 0 255 92 17
-1.368886 1.057025 0.106141 0 0 255 92 17
-1.389657 1.067955 -0.016858 0 0 255 92 17
-1.401733 1.075639 -0.037858 0 0 255 92 17
-1.320998 1.094738 -0.070858 0 0 255 92 17
-1.313854 1.067177 0.013142 0 0 255 92 17
-1.311570 1.095808 -0.019858 0 0 255 92 17
-1.352334 1.106039 0.235141 0 0 255 92 17
-1.320719 1.074771 -0.055858 0 0 255 92 17
-1.405511 1.072296 -0.004858 0 0 255 92 17
-1.350515 1.042449 0.007141 0 0 255 92 17
-1.371171 1.079361 0.175141 0 0 255 92 17
-1.333339 1.086654 0.115142 0 0 255 92 17
-1.346114 1.063156 -0.043859 0 0 255 92 17
-1.402907 1.084548 0.022141 0 0 255 92 17
-1.347776 1.069765 0.091141 0 0 255 92 17
-1.346112 1.063170 0.070141 0 0 255 92 17
-1.396800 1.075607 0.085142 0 0 255 92 17
-1.326884 1.095912 0.115142 0 0 255 92 17
-1.320360 1.093097 0.106141 0 0 255 92 17
-1.368474 1.058960 -0.079859 0 0 255 92 17
-1.344517 1.092097 0.157142 0 0 255 92 17
-1.379897 1.068947 0.121141 0 0 255 92 17
-1.399032 1.088349 0.100142 0 0 255 92 17
-1.369411 1.091254 0.175141 0 0 255 92 17
-1.316499 1.101477 0.089256 0 0 255 92 17
-1.333811 1.048892 0.010141 0 0 255 92 17
-1.402562 1.071740 0.046142 0 0 255 92 17
-1.325477 1.063514 0.079141 0 0 255 92 17
-1.368763 1.094184 0.220141 0 0 255 92 17
-1.361321 1.107046 0.232141 0 0 255 92 17
-1.384228 1.056993 0.076141 0 0 255 92 17
-1.347614 1.077420 0.118142 0 0 255 92 17
-1.404382 1.071085 -0.013859 0 0 255 92 17
-1.323381 1.081471 -0.076859 0 0 255 92 17
-1.372088 1.056388 -0.064859 0 0 255 92 17
-1.353657 1.056529 -0.070858 0 0 255 92 17
-1.353459 1.086313 0.145141 0 0 255 92 17
-1.373888 1.047919 0.052141 0 0 255 92 17
-1.332042 1.057215 -0.049859 0 0 255 92 17
-1.314265 1.067265 0.043141 0 0 255 92 17
-1.316349 1.079976 0.022141 0 0 255 92 17
-1.362756 1.071438 -0.075381 0 0 255 92 17
-1.364816 1.068809 0.094141 0 0 255 92 17
-1.358703 1.090504 0.232141 0 0 255 92 17
-1.329779 1.082287 0.121141 0 0 255 92 17
-1.323211 1.056898 0.049142 0 0 255 92 17
-1.314512 1.088787 -0.025859 0 0 255 92 17
-1.370473 1.082279 0.220141 0 0 255 92 17
-1.403666 1.080980 -0.001858 0 0 255 92 17
-1.377440 1.092961 0.181141 0 0 255 92 17
-1.384073 1.086577 -0.085858 0 0 255 92 17
-1.332720 1.092657 0.142141 0 0 255 92 17
-1.345358 1.080008 0.220141 0 0 255 92 17
-1.372818 1.052958 0.085142 0 0 255 92 17
-1.370405 1.088399 0.235141 0 0 255 92 17
-1.385783 1.051796 0.043141 0 0 255 92 17
-1.328918 1.076513 -0.064859 0 0 255 92 17
-1.340711 1.045283 0.018857 0 0 255 92 17
-1.330891 1.049330 0.034142 0 0 255 92 17
-1.331507 1.055595 -0.037858 0 0 255 92 17
-1.380095 1.062012 0.106141 0 0 255 92 17
-1.323566 1.087644 0.100142 0 0 255 92 17
-1.326874 1.052671 -0.010859 0 0 255 92 17
-1.355852 1.075055 0.202141 0 0 255 92 17
-1.405797 1.085381 -0.025859 0 0 255 92 17
-1.352274 1.044674 -0.022859 0 0 255 92 17
-1.332351 1.061908 -0.064859 0 0 255 92 17
-1.331541 1.074004 0.118884 0 0 255 92 17
-1.375512 1.069138 -0.067859 0 0 255 92 17
-1.372663 1.053683 -0.052858 0 0 255 92 17
-1.393723 1.070042 0.037141 0 0 255 92 17
-1.331774 1.052584 0.061141 0 0 255 92 17
-1.330950 1.047919 -0.001858 0 0 255 92 17
-1.406937 1.086963 -0.007859 0 0 255 92 17
-1.383009 1.077157 -0.076859 0 0 255 92 17
-1.398093 1.072815 0.031142 0 0 255 92 17
-1.332870 1.082175 0.133142 0 0 255 92 17
-1.362023 1.040612 0.019141 0 0 255 92 17
-1.390814 1.077402 -0.052858 0 0 255 92 17
-1.336385 1.071967 -0.067859 0 0 255 92 17
-1.355639 1.076059 0.213463 0 0 255 92 17
-1.379663 1.064046 -0.028859 0 0 255 92 17
-1.357038 1.083904 0.154141 0 0 255 92 17
-1.316392 1.087548 -0.040859 0 0 255 92 17
-1.385423 1.094658 0.139935 0 0 255 92 17
-1.314674 1.081205 0.007141 0 0 255 92 17
-1.389682 1.067960 0.010141 0 0 255 92 17
-1.365241 1.088604 0.169141 0 0 255 92 17
-1.355455 1.091355 0.203673 0 0 255 92 17
-1.368522 1.058735 0.040141 0 0 255 92 17
-1.393787 1.084168 0.077653 0 0 255 92 17
-1.346225 1.098594 0.202141 0 0 255 92 17
-1.320076 1.070223 0.079141 0 0 255 92 17
-1.331853 1.072531 0.070141 0 0 255 92 17
-1.362939 1.056142 0.002589 0 0 255 92 17
-1.381438 1.063141 0.016142 0 0 255 92 17
-1.347645 1.055958 0.101716 0 0 255 92 17
-1.379629 1.064198 0.052141 0 0 255 92 17
-1.381425 1.084607 0.113683 0 0 255 92 17
-1.397681 1.080277 0.061141 0 0 255 92 17
-1.367816 1.090916 0.227683 0 0 255 92 17
-1.320241 1.083870 -0.048474 0 0 255 92 17
-1.345727 1.093833 0.175141 0 0 255 92 17
-1.365730 1.093539 0.190141 0 0 255 92 17
-1.348522 1.080681 0.235678 0 0 255 92 17
-1.369561 1.068278 -0.052858 0 0 255 92 17
-1.395035 1.078299 -0.042395 0 0 255 92 17
-1.314702 1.066646 0.025141 0 0 255 92 17
-1.312501 1.091426 0.056619 0 0 255 92 17
-1.340218 1.062039 0.028141 0 0 255 92 17
-1.382621 1.050127 -0.016858 0 0 255 92 17
-1.402772 1.092212 0.079141 0 0 255 92 17
-1.377212 1.068376 0.082142 0 0 255 92 17
-1.391222 1.052952 0.032648 0 0 255 92 17
-1.359381 1.058453 0.026663 0 0 255 92 17
-1.393405 1.068752 0.085142 0 0 255 92 17
-1.367409 1.041757 0.031142 0 0 255 92 17
-1.405258 1.080472 0.058141 0 0 255 92 17
-1.371157 1.082425 0.124141 0 0 255 92 17
-1.377991 1.100763 0.181141 0 0 255 92 17
-1.397346 1.081857 -0.033334 0 0 255 92 17
-1.332419 1.098727 0.131649 0 0 255 92 17
-1.358757 1.061387 -0.042345 0 0 255 92 17
-1.343252 1.097962 0.187141 0 0 255 92 17
-1.393687 1.070210 0.022141 0 0 255 92 17
-1.354918 1.057504 -0.016858 0 0 255 92 17
-1.390852 1.083544 -0.057379 0 0 255 92 17
-1.377441 1.092962 0.232141 0 0 255 92 17
-1.394227 1.096529 0.107343 0 0 255 92 17
-1.338383 1.063190 -0.022859 0 0 255 92 17
-1.374445 1.103016 0.229141 0 0 255 92 17
-1.355711 1.119013 0.230960 0 0 255 92 17
-1.400857 1.073402 0.004141 0 0 255 92 17
-1.369829 1.095876 0.205141 0 0 255 92 17
-1.367876 1.061783 -0.028859 0 0 255 92 17
-1.343797 1.074054 0.145141 0 0 255 92 17
-1.397377 1.075730 -0.028859 0 0 255 92 17
-1.318995 1.089739 -0.057747 0 0 255 92 17
-1.378306 1.099280 0.158655 0 0 255 92 17
-1.382294 1.051660 0.052141 0 0 255 92 17
-1.321255 1.079100 0.100142 0 0 255 92 17
-1.409145 1.090499 0.049142 0 0 255 92 17
-1.348891 1.050089 -0.051186 0 0 255 92 17
-1.405524 1.086663 0.073613 0 0 255 92 17
-1.406973 1.094277 0.028141 0 0 255 92 17
-1.333149 1.066432 -0.034858 0 0 255 92 17
-1.320546 1.062466 0.058141 0 0 255 92 17
-1.390852 1.083544 -0.080653 0 0 255 92 17
-1.341373 1.114316 0.235141 0 0 255 92 17
-1.360813 1.066144 -0.064859 0 0 255 92 17
-1.362827 1.114391 0.231315 0 0 255 92 17
-1.407234 1.083959 0.007141 0 0 255 92 17
-1.401967 1.088973 -0.045824 0 0 255 92 17
-1.318806 1.061764 -0.010859 0 0 255 92 17
-1.393825 1.055135 0.013142 0 0 255 92 17
-1.326061 1.056490 -0.025859 0 0 255 92 17
-1.380924 1.090635 0.148142 0 0 255 92 17
-1.402282 1.070638 0.037141 0 0 255 92 17
-1.340934 1.101957 0.217142 0 0 255 92 17
-1.385484 1.065517 0.025141 0 0 255 92 17
-1.347460 1.071254 -0.075421 0 0 255 92 17
-1.309280 1.092152 -0.013859 0 0 255 92 17
-1.315068 1.085838 0.040141 0 0 255 92 17
-1.375766 1.089538 0.139141 0 0 255 92 17
-1.393722 1.070049 -0.007859 0 0 255 92 17
-1.375455 1.069409 0.091141 0 0 255 92 17
-1.351347 1.067393 0.085142 0 0 255 92 17
-1.369135 1.055854 0.016142 0 0 255 92 17
-1.326619 1.068294 -0.013859 0 0 255 92 17
-1.355799 1.089734 0.217142 0 0 255 92 17
-1.342540 1.065545 0.076141 0 0 255 92 17
-1.348404 1.066808 -0.055858 0 0 255 92 17
-1.370188 1.065330 0.061141 0 0 255 92 17
-1.407619 1.077907 0.022141 0 0 255 92 17
-1.396420 1.086209 0.067142 0 0 255 92 17
-1.340088 1.048218 -0.027432 0 0 255 92 17
-1.388402 1.083023 0.121141 0 0 255 92 17
-1.342777 1.085594 0.133142 0 0 255 92 17
-1.385124 1.096063 0.118142 0 0 255 92 17
-1.346101 1.063220 -0.034858 0 0 255 92 17
-1.390118 1.072567 -0.040859 0 0 255 92 17
-1.313933 1.070261 -0.020589 0 0 255 92 17
-1.335494 1.062576 -0.004858 0 0 255 92 17
-1.357264 1.061070 -0.031859 0 0 255 92 17
-1.399395 1.076158 0.073141 0 0 255 92 17
-1.407557 1.096296 0.055141 0 0 255 92 17
-1.355200 1.063698 0.125478 0 0 255 92 17
-1.378002 1.057426 0.007141 0 0 255 92 17
-1.377172 1.046899 0.039524 0 0 255 92 17
-1.386601 1.051970 0.058141 0 0 255 92 17
-1.330924 1.083074 -0.076859 0 0 255 92 17
-1.385344 1.080603 -0.070858 0 0 255 92 17
-1.397676 1.080303 -0.016858 0 0 255 92 17
-1.397800 1.085021 -0.055858 0 0 255 92 17
-1.400584 1.088679 0.061141 0 0 255 92 17
-1.405268 1.087870 0.016142 0 0 255 92 17
-1.326447 1.083539 -0.067859 0 0 255 92 17
-1.352449 1.047778 0.075773 0 0 255 92 17
-1.407352 1.083984 0.040141 0 0 255 92 17
-1.392724 1.074741 0.099617 0 0 255 92 17
-1.387059 1.072531 0.112141 0 0 255 92 17
-1.378422 1.074768 0.142141 0 0 255 92 17
-1.374953 1.092433 0.190141 0 0 255 92 17
-1.320194 1.059324 0.025141 0 0 255 92 17
-1.325671 1.072756 -0.070310 0 0 255 92 17
-1.342068 1.091577 0.196141 0 0 255 92 17
-1.392807 1.059918 0.061141 0 0 255 92 17
-1.340159 1.057434 -0.064859 0 0 255 92 17
-1.377033 1.047561 -0.001858 0 0 255 92 17
-1.359576 1.057536 -0.079859 0 0 255 92 17
-1.387304 1.088924 0.127141 0 0 255 92 17
-1.388355 1.052343 0.007141 0 0 255 92 17
-1.392014 1.063652 -0.040859 0 0 255 92 17
-1.385191 1.060872 -0.055858 0 0 255 92 17
-1.327940 1.062083 0.088141 0 0 255 92 17
-1.328248 1.070237 0.106141 0 0 255 92 17
-1.321049 1.065640 -0.035512 0 0 255 92 17
-1.317669 1.077190 -0.049859 0 0 255 92 17
-1.309752 1.075507 -0.001343 0 0 255 92 17
-1.345048 1.089143 0.148142 0 0 255 92 17
-1.399982 1.091619 -0.037858 0 0 255 92 17
-1.378675 1.068688 -0.042386 0 0 255 92 17
-1.316650 1.092308 0.079141 0 0 255 92 17
-1.367634 1.078609 0.193141 0 0 255 92 17
-1.361985 1.046202 0.061141 0 0 255 92 17
-1.356524 1.043037 -0.010859 0 0 255 92 17
-1.343313 1.061907 0.115142 0 0 255 92 17
-1.349576 1.075725 0.181141 0 0 255 92 17
-1.381585 1.098284 0.133142 0 0 255 92 17
-1.307663 1.085331 0.019141 0 0 255 92 17
-1.353031 1.073900 -0.079859 0 0 255 92 17
-1.395732 1.060587 -0.013859 0 0 255 92 17
-1.404552 1.076807 0.064142 0 0 255 92 17
-1.388489 1.067707 -0.070858 0 0 255 92 17
-1.385921 1.051825 -0.010859 0 0 255 92 17
-1.339066 1.090939 0.163141 0 0 255 92 17
-1.381603 1.054910 -0.043859 0 0 255 92 17
-1.400485 1.095944 0.085142 0 0 255 92 17
-1.318738 1.062082 0.011024 0 0 255 92 17
-1.318544 1.098845 0.082142 0 0 255 92 17
-1.346730 1.045830 0.058141 0 0 255 92 17
-1.328357 1.067193 0.097142 0 0 255 92 17
-1.329669 1.082807 0.101658 0 0 255 92 17
-1.316513 1.086985 0.088141 0 0 255 92 17
-1.331681 1.086302 0.139141 0 0 255 92 17
-1.313302 1.085462 -0.049859 0 0 255 92 17
-1.326110 1.085118 0.092663 0 0 255 92 17
-1.309592 1.084674 0.034142 0 0 255 92 17
-1.372767 1.096483 0.166142 0 0 255 92 17
-1.389564 1.075180 0.085142 0 0 255 92 17
-1.380547 1.081353 -0.082859 0 0 255 92 17
-1.356093 1.057754 0.115142 0 0 255 92 17
-1.399507 1.066981 0.052141 0 0 255 92 17
-1.343462 1.061203 -0.078121 0 0 255 92 17
-1.374975 1.071666 0.136141 0 0 255 92 17
-1.396394 1.087789 0.109141 0 0 255 92 17
-1.352612 1.075874 0.229141 0 0 255 92 17
-1.351495 1.052272 0.088141 0 0 255 92 17
-1.365916 1.042143 -0.010859 0 0 255 92 17
-1.379168 1.066374 -0.076859 0 0 255 92 17
-1.344862 1.083473 0.193141 0 0 255 92 17
-1.386556 1.048894 0.025141 0 0 255 92 17
-1.366754 1.081489 0.131734 0 0 255 92 17
-1.347413 1.057046 -0.073859 0 0 255 92 17
-1.371053 1.075687 0.166142 0 0 255 92 17
-1.395839 1.081537 -0.067859 0 0 255 92 17
-1.312738 1.085343 0.067142 0 0 255 92 17
-1.388399 1.051800 0.019141 0 0 255 92 17
-1.347135 1.043924 0.040141 0 0 255 92 17
-1.344157 1.043500 0.004141 0 0 255 92 17
-1.313966 1.076402 -0.034858 0 0 255 92 17
-1.367959 1.061385 0.118142 0 0 255 92 17
-1.309139 1.078443 0.010141 0 0 255 92 17
-1.321864 1.056612 0.004141 0 0 255 92 17
-1.383374 1.075820 0.130141 0 0 255 92 17
-1.355918 1.045889 0.067142 0 0 255 92 17
-1.315556 1.070606 0.058141 0 0 255 92 17
-1.346524 1.046797 -0.034858 0 0 255 92 17
-1.309890 1.084737 -0.010859 0 0 255 92 17
-1.328424 1.051872 0.013142 0 0 255 92 17
-1.367296 1.050075 -0.049859 0 0 255 92 17
-1.347070 1.058656 0.109141 0 0 255 92 17
-1.356703 1.085486 0.236343 0 0 255 92 17
-1.398285 1.082057 0.088141 0 0 255 92 17
-1.326294 1.094358 0.124141 0 0 255 92 17
-1.359659 1.073847 0.166142 0 0 255 92 17
-1.379345 1.051107 -0.028859 0 0 255 92 17
-1.357250 1.068480 0.103141 0 0 255 92 17
-1.375038 1.056938 0.028141 0 0 255 92 17
-1.394372 1.075091 0.052141 0 0 255 92 17
-1.317307 1.083247 -0.033484 0 0 255 92 17
-1.341590 1.070006 -0.080898 0 0 255 92 17
-1.380707 1.073559 -0.061859 0 0 255 92 17
-1.316102 1.070722 0.070141 0 0 255 92 17
-1.341328 1.085286 0.181141 0 0 255 92 17
-1.362314 1.087947 0.217142 0 0 255 92 17
-1.370736 1.048319 -0.019858 0 0 255 92 17
-1.371897 1.042861 0.016142 0 0 255 92 17
-1.388875 1.078418 0.091141 0 0 255 92 17
-1.315974 1.064561 -0.001858 0 0 255 92 17
-1.364919 1.075686 0.202141 0 0 255 92 17
-1.370462 1.078467 0.214141 0 0 255 92 17
-1.409411 1.087489 0.025141 0 0 255 92 17
-1.365584 1.058128 -0.022859 0 0 255 92 17
-1.360873 1.058770 0.052141 0 0 255 92 17
-1.374408 1.045472 0.007141 0 0 255 92 17
-1.387176 1.071984 0.073141 0 0 255 92 17
-1.335126 1.087034 0.145141 0 0 255 92 17
-1.404733 1.074226 -0.022859 0 0 255 92 17
-1.376745 1.048907 -0.037858 0 0 255 92 17
-1.400604 1.080960 -0.007859 0 0 255 92 17
-1.361799 1.075941 0.187141 0 0 255 92 17
-1.400600 1.080972 0.004141 0 0 255 92 17
-1.382703 1.100214 0.145141 0 0 255 92 17
-1.351089 1.111896 0.231299 0 0 255 92 17
-1.386019 1.070249 0.058141 0 0 255 92 17
-1.371551 1.044493 0.046142 0 0 255 92 17
-1.343132 1.077187 0.160141 0 0 255 92 17
-1.353144 1.087797 0.158667 0 0 255 92 17
-1.328939 1.064250 0.004141 0 0 255 92 17
-1.337770 1.066127 0.061141 0 0 255 92 17
-1.345912 1.064106 0.124141 0 0 255 92 17
-1.398094 1.063905 0.037141 0 0 255 92 17
-1.400603 1.080960 0.043141 0 0 255 92 17
-1.380260 1.061228 0.046142 0 0 255 92 17
-1.344929 1.054298 -0.058859 0 0 255 92 17
-1.319555 1.077590 0.067142 0 0 255 92 17
-1.344805 1.082958 0.208142 0 0 255 92 17
-1.394548 1.095015 -0.061859 0 0 255 92 17
-1.406313 1.083763 0.052141 0 0 255 92 17
-1.369257 1.055278 -0.070858 0 0 255 92 17
-1.312852 1.066965 0.004141 0 0 255 92 17
-1.369688 1.082112 0.187455 0 0 255 92 17
-1.324620 1.054131 0.019141 0 0 255 92 17
-1.359432 1.043783 0.040141 0 0 255 92 17
-1.333956 1.048206 0.040141 0 0 255 92 17
-1.402649 1.079918 0.028141 0 0 255 92 17
-1.326151 1.082060 0.115142 0 0 255 92 17
-1.394197 1.067813 -0.046859 0 0 255 92 17
-1.338464 1.093878 0.172141 0 0 255 92 17
-1.395678 1.069235 0.007141 0 0 255 92 17
-1.380790 1.058742 0.097142 0 0 255 92 17
-1.323166 1.066090 -0.043859 0 0 255 92 17
-1.311777 1.072870 -0.010859 0 0 255 92 17
-1.399998 1.069376 -0.034858 0 0 255 92 17
-1.396131 1.058714 0.022141 0 0 255 92 17
-1.388443 1.066026 0.043141 0 0 255 92 17
-1.347358 1.057307 0.028141 0 0 255 92 17
-1.382233 1.066377 0.065663 0 0 255 92 17
-1.362030 1.060427 0.064142 0 0 255 92 17
-1.358468 1.062751 0.073141 0 0 255 92 17
-1.319293 1.080602 0.058141 0 0 255 92 17
-1.359706 1.056925 0.016142 0 0 255 92 17
-1.347353 1.057326 -0.004858 0 0 255 92 17
-1.319937 1.077672 0.004141 0 0 255 92 17
-1.351151 1.082744 0.133142 0 0 255 92 17
-1.359345 1.087482 0.172141 0 0 255 92 17
-1.311092 1.091127 -0.031859 0 0 255 92 17
-1.369174 1.055668 0.007141 0 0 255 92 17
-1.378191 1.085395 0.124141 0 0 255 92 17
-1.359534 1.072165 0.109141 0 0 255 92 17
-1.316251 1.079955 -0.010859 0 0 255 92 17
-1.377347 1.060511 0.040141 0 0 255 92 17
-1.370935 1.076243 0.116676 0 0 255 92 17
-1.355455 1.091355 0.182643 0 0 255 92 17
-1.368501 1.058834 -0.016858 0 0 255 92 17
-1.368504 1.058828 0.028141 0 0 255 92 17
-1.371253 1.074751 0.103141 0 0 255 92 17
-1.312545 1.076100 0.055141 0 0 255 92 17
-1.350095 1.073287 0.106141 0 0 255 92 17
-1.321245 1.071816 0.016142 0 0 255 92 17
-1.380250 1.061279 -0.007859 0 0 255 92 17
-1.355785 1.089800 0.226142 0 0 255 92 17
-1.330832 1.062904 -0.010859 0 0 255 92 17
-1.377323 1.060621 -0.016858 0 0 255 92 17
-1.354090 1.083347 0.139141 0 0 255 92 17
-1.396721 1.084792 -0.039416 0 0 255 92 17
-1.358718 1.090432 0.211141 0 0 255 92 17
-1.343466 1.082673 0.121141 0 0 255 92 17
-1.352598 1.061504 0.070141 0 0 255 92 17
-1.387177 1.071977 -0.034858 0 0 255 92 17
-1.351017 1.068943 -0.066355 0 0 255 92 17
-1.308599 1.078329 0.031142 0 0 255 92 17
-1.306288 1.087039 0.010141 0 0 255 92 17
-1.369905 1.115896 0.232141 0 0 255 92 17
-1.375519 1.083539 0.178141 0 0 255 92 17
-1.373061 1.095098 0.227620 0 0 255 92 17
-1.398319 1.069796 0.061141 0 0 255 92 17
-1.324863 1.090987 0.110533 0 0 255 92 17
-1.374583 1.044657 -0.007859 0 0 255 92 17
-1.398916 1.074465 0.016142 0 0 255 92 17
-1.348963 1.093042 0.230614 0 0 255 92 17
-1.387059 1.058103 0.082142 0 0 255 92 17
-1.404018 1.083275 -0.031859 0 0 255 92 17
-1.330220 1.058388 0.076141 0 0 255 92 17
-1.384706 1.083606 0.136141 0 0 255 92 17
-1.389973 1.058821 0.073515 0 0 255 92 17
-1.395249 1.099814 0.094141 0 0 255 92 17
-1.312139 1.088282 0.076141 0 0 255 92 17
-1.380986 1.072246 -0.080710 0 0 255 92 17
-1.376790 1.091989 0.220141 0 0 255 92 17
-1.324328 1.087806 -0.079859 0 0 255 92 17
-1.383112 1.091100 0.154294 0 0 255 92 17
-1.355227 1.049139 -0.049859 0 0 255 92 17
-1.335547 1.071789 0.124141 0 0 255 92 17
-1.367365 1.064177 -0.064859 0 0 255 92 17
-1.372772 1.104237 0.184141 0 0 255 92 17
-1.385267 1.067022 0.106141 0 0 255 92 17
-1.324424 1.078625 0.107025 0 0 255 92 17
-1.336473 1.079652 -0.076859 0 0 255 92 17
-1.403497 1.089299 0.007141 0 0 255 92 17
-1.384507 1.063793 -0.061859 0 0 255 92 17
-1.335726 1.047290 0.004141 0 0 255 92 17
-1.383816 1.073364 0.124141 0 0 255 92 17
-1.408275 1.102583 0.056577 0 0 255 92 17
-1.374397 1.055510 -0.058859 0 0 255 92 17
-1.372920 1.081340 0.169141 0 0 255 92 17
-1.350293 1.057920 0.046142 0 0 255 92 17
-1.314574 1.088800 0.034142 0 0 255 92 17
-1.395652 1.069229 0.073141 0 0 255 92 17
-1.330662 1.049281 0.027398 0 0 255 92 17
-1.355793 1.089767 0.196141 0 0 255 92 17
-1.406571 1.081739 0.034142 0 0 255 92 17
-1.404278 1.092532 0.071240 0 0 255 92 17
-1.408040 1.074834 0.010141 0 0 255 92 17
-1.342566 1.050986 0.082142 0 0 255 92 17
-1.321172 1.062599 0.067142 0 0 255 92 17
-1.361935 1.046437 -0.040859 0 0 255 92 17
-1.383767 1.048301 -0.004858 0 0 255 92 17
-1.335269 1.077864 0.100142 0 0 255 92 17
-1.400807 1.065569 0.028141 0 0 255 92 17
-1.377694 1.080747 0.109141 0 0 255 92 17
-1.401680 1.090317 -0.025859 0 0 255 92 17
-1.375252 1.089429 0.196141 0 0 255 92 17
-1.371141 1.097757 0.211141 0 0 255 92 17
-1.367290 1.064536 0.079141 0 0 255 92 17
-1.326993 1.073038 -0.043859 0 0 255 92 17
-1.346143 1.101644 0.235141 0 0 255 92 17
-1.325171 1.066516 0.025141 0 0 255 92 17
-1.322098 1.081198 0.076141 0 0 255 92 17
-1.359328 1.073135 0.175141 0 0 255 92 17
-1.346732 1.060245 0.055141 0 0 255 92 17
-1.329918 1.073659 0.076141 0 0 255 92 17
-1.388984 1.077905 -0.064859 0 0 255 92 17
-1.340237 1.061942 -0.016858 0 0 255 92 17
-1.344043 1.044041 0.031142 0 0 255 92 17
-1.338346 1.056417 0.094141 0 0 255 92 17
-1.352841 1.074792 0.175141 0 0 255 92 17
-1.373513 1.049688 0.076141 0 0 255 92 17
-1.361428 1.063252 0.130141 0 0 255 92 17
-1.364804 1.076235 0.178141 0 0 255 92 17
-1.349312 1.091398 0.217142 0 0 255 92 17
-1.354354 1.053245 0.100142 0 0 255 92 17
-1.377172 1.046899 -0.015957 0 0 255 92 17
-1.362803 1.092917 0.205141 0 0 255 92 17
-1.388767 1.086168 -0.070858 0 0 255 92 17
-1.404022 1.064874 0.016118 0 0 255 92 17
-1.395757 1.069252 -0.001858 0 0 255 92 17
-1.353710 1.070706 0.151141 0 0 255 92 17
-1.356149 1.059231 0.058141 0 0 255 92 17
-1.327600 1.070099 -0.031859 0 0 255 92 17
-1.331241 1.075410 0.088141 0 0 255 92 17
-1.367524 1.092292 0.181141 0 0 255 92 17
-1.337556 1.088985 0.130141 0 0 255 92 17
-1.363704 1.066973 0.088141 0 0 255 92 17
-1.370818 1.062363 0.055141 0 0 255 92 17
-1.313454 1.086942 -0.001858 0 0 255 92 17
-1.327723 1.070125 -0.019858 0 0 255 92 17
-1.338619 1.047905 -0.016858 0 0 255 92 17
-1.405218 1.095799 0.049142 0 0 255 92 17
-1.362899 1.085195 0.148142 0 0 255 92 17
-1.340322 1.097339 0.163141 0 0 255 92 17
-1.373430 1.064506 -0.042464 0 0 255 92 17
-1.326202 1.075936 -0.052858 0 0 255 92 17
-1.321804 1.076521 -0.022859 0 0 255 92 17
-1.359993 1.041144 0.025141 0 0 255 92 17
-1.349841 1.117765 0.236333 0 0 255 92 17
-1.331291 1.067817 0.046142 0 0 255 92 17
-1.352223 1.092130 0.190141 0 0 255 92 17
-1.341222 1.094464 0.226142 0 0 255 92 17
-1.339244 1.095474 0.151141 0 0 255 92 17
-1.358902 1.075135 0.115142 0 0 255 92 17
-1.356497 1.079309 0.127141 0 0 255 92 17
-1.376963 1.091168 0.133142 0 0 255 92 17
-1.345479 1.058565 0.016142 0 0 255 92 17
-1.358978 1.045923 -0.031859 0 0 255 92 17
-1.346581 1.046531 -0.028542 0 0 255 92 17
-1.328722 1.051936 0.046142 0 0 255 92 17
-1.318985 1.080536 0.088141 0 0 255 92 17
-1.367647 1.048422 0.073141 0 0 255 92 17
-1.316417 1.079991 0.037141 0 0 255 92 17
-1.384880 1.068356 -0.043859 0 0 255 92 17
-1.362318 1.052943 0.094141 0 0 255 92 17
-1.377914 1.083861 0.148142 0 0 255 92 17
-1.406200 1.089873 -0.037858 0 0 255 92 17
-1.334800 1.073098 -0.061859 0 0 255 92 17
-1.351342 1.067416 0.139141 0 0 255 92 17
-1.378306 1.099280 0.167265 0 0 255 92 17
-1.329197 1.091908 -0.079859 0 0 255 92 17
-1.360931 1.051160 -0.055858 0 0 255 92 17
-1.393602 1.099464 0.101725 0 0 255 92 17
-1.397114 1.060339 -0.001858 0 0 255 92 17
-1.341167 1.085251 0.229141 0 0 255 92 17
-1.317293 1.092445 0.091141 0 0 255 92 17
-1.325966 1.060551 -0.037858 0 0 255 92 17
-1.321414 1.087187 -0.070858 0 0 255 92 17
-1.368624 1.072685 0.158565 0 0 255 92 17
-1.337300 1.061335 0.022141 0 0 255 92 17
-1.308467 1.081548 -0.016858 0 0 255 92 17
-1.371511 1.102395 0.205141 0 0 255 92 17
-1.341253 1.094471 0.202141 0 0 255 92 17
-1.378569 1.062531 -0.022859 0 0 255 92 17
-1.344807 1.052288 0.088141 0 0 255 92 17
-1.399032 1.088350 0.093124 0 0 255 92 17
-1.355500 1.076717 0.196141 0 0 255 92 17
-1.399941 1.060940 0.010141 0 0 255 92 17
-1.365973 1.041869 0.001141 0 0 255 92 17
-1.313003 1.070064 0.019141 0 0 255 92 17
-1.376304 1.098854 0.187141 0 0 255 92 17
-1.393661 1.055904 0.046142 0 0 255 92 17
-1.396335 1.063240 -0.028859 0 0 255 92 17
-1.325989 1.063623 -0.049859 0 0 255 92 17
-1.402041 1.067520 0.001141 0 0 255 92 17
-1.400095 1.097777 -0.049005 0 0 255 92 17
-1.319535 1.065318 -0.028859 0 0 255 92 17
-1.329390 1.079681 -0.082859 0 0 255 92 17
-1.385154 1.052633 0.064142 0 0 255 92 17
-1.346889 1.080333 0.214141 0 0 255 92 17
-1.331064 1.083104 0.127141 0 0 255 92 17
-1.310811 1.081866 -0.028859 0 0 255 92 17
-1.313416 1.082420 0.061141 0 0 255 92 17
-1.322113 1.075067 -0.062643 0 0 255 92 17
-1.368319 1.074124 -0.079859 0 0 255 92 17
-1.384778 1.076119 -0.052858 0 0 255 92 17
-1.372763 1.082070 0.229141 0 0 255 92 17
-1.346972 1.077284 0.172141 0 0 255 92 17
-1.394850 1.093595 0.089800 0 0 255 92 17
-1.339706 1.050014 0.070141 0 0 255 92 17
-1.396930 1.063367 0.064142 0 0 255 92 17
-1.376863 1.091641 0.175141 0 0 255 92 17
-1.355406 1.042272 -0.016858 0 0 255 92 17
-1.399947 1.073209 -0.043859 0 0 255 92 17
-1.314259 1.073398 -0.025859 0 0 255 92 17
-1.392118 1.077589 -0.079859 0 0 255 92 17
-1.317352 1.089390 0.067142 0 0 255 92 17
-1.374918 1.071932 -0.079859 0 0 255 92 17
-1.374657 1.044302 0.025141 0 0 255 92 17
-1.366484 1.053894 -0.064859 0 0 255 92 17
-1.319613 1.072403 0.085142 0 0 255 92 17
-1.374490 1.059519 0.106141 0 0 255 92 17
-1.339972 1.092048 0.184141 0 0 255 92 17
-1.360005 1.055518 0.105912 0 0 255 92 17
-1.308749 1.094647 0.001141 0 0 255 92 17
-1.368423 1.059205 0.112141 0 0 255 92 17
-1.362737 1.042665 0.013142 0 0 255 92 17
-1.387569 1.055704 -0.031859 0 0 255 92 17
-1.401356 1.062987 -0.010859 0 0 255 92 17
-1.372182 1.070375 0.129981 0 0 255 92 17
-1.374078 1.075889 0.154141 0 0 255 92 17
-1.323452 1.068763 -0.055858 0 0 255 92 17
-1.393861 1.059647 0.055141 0 0 255 92 17
-1.382396 1.051179 -0.022859 0 0 255 92 17
-1.394688 1.072091 -0.058859 0 0 255 92 17
-1.366714 1.060011 0.049142 0 0 255 92 17
-1.319730 1.062292 -0.016858 0 0 255 92 17
-1.389648 1.077154 0.109141 0 0 255 92 17
-1.373317 1.101286 0.235141 0 0 255 92 17
-1.328421 1.088676 0.124410 0 0 255 92 17
-1.310220 1.073304 0.034142 0 0 255 92 17
-1.350371 1.043128 0.028141 0 0 255 92 17
-1.310302 1.081758 -0.001858 0 0 255 92 17
-1.370496 1.063882 -0.083221 0 0 255 92 17
-1.373801 1.048335 0.064142 0 0 255 92 17
-1.395819 1.084600 -0.061859 0 0 255 92 17
-1.368053 1.104231 0.232141 0 0 255 92 17
-1.398094 1.078333 -0.055858 0 0 255 92 17
-1.342898 1.088686 0.208142 0 0 255 92 17
-1.409523 1.096714 0.035296 0 0 255 92 17
-1.382786 1.049350 0.001141 0 0 255 92 17
-1.401053 1.082645 -0.046859 0 0 255 92 17
-1.325217 1.054258 0.034142 0 0 255 92 17
-1.313931 1.082529 0.076141 0 0 255 92 17
-1.378618 1.059475 -0.067859 0 0 255 92 17
-1.349673 1.044121 -0.007859 0 0 255 92 17
-1.335099 1.071693 -0.080447 0 0 255 92 17
-1.305477 1.089933 0.004141 0 0 255 92 17
-1.372340 1.084061 0.202141 0 0 255 92 17
-1.316609 1.092299 -0.052858 0 0 255 92 17
-1.341480 1.084955 0.175141 0 0 255 92 17
-1.358517 1.048089 0.076141 0 0 255 92 17
-1.316690 1.076982 -0.016858 0 0 255 92 17
-1.400666 1.085630 0.079141 0 0 255 92 17
-1.310997 1.091106 0.013142 0 0 255 92 17
-1.315470 1.082856 0.049142 0 0 255 92 17
-1.381271 1.090709 0.142141 0 0 255 92 17
-1.346680 1.046062 0.064142 0 0 255 92 17
-1.355200 1.063698 -0.080740 0 0 255 92 17
-1.311339 1.091179 -0.037858 0 0 255 92 17
-1.310561 1.081813 0.040141 0 0 255 92 17
-1.358083 1.050131 0.088141 0 0 255 92 17
-1.358911 1.075098 0.220141 0 0 255 92 17
-1.326902 1.052534 -0.004858 0 0 255 92 17
-1.332566 1.092624 0.136141 0 0 255 92 17
-1.325250 1.081868 -0.052858 0 0 255 92 17
-1.337937 1.084565 0.154141 0 0 255 92 17
-1.380362 1.046327 0.028141 0 0 255 92 17
-1.373918 1.047782 0.058141 0 0 255 92 17
-1.330741 1.098370 0.121141 0 0 255 92 17
-1.309257 1.092262 -0.007859 0 0 255 92 17
-1.311924 1.072901 0.013142 0 0 255 92 17
-1.345219 1.110649 0.231196 0 0 255 92 17
-1.356783 1.056248 -0.010859 0 0 255 92 17
-1.352602 1.061491 -0.043859 0 0 255 92 17
-1.388421 1.066126 0.037141 0 0 255 92 17
-1.342186 1.052777 -0.046859 0 0 255 92 17
-1.369112 1.055968 0.100142 0 0 255 92 17
-1.384866 1.068425 -0.028859 0 0 255 92 17
-1.356152 1.059218 0.046142 0 0 255 92 17
-1.371439 1.059442 -0.004858 0 0 255 92 17
-1.353215 1.058604 -0.022859 0 0 255 92 17
-1.357225 1.068594 0.097142 0 0 255 92 17
-1.323449 1.075351 -0.034858 0 0 255 92 17
-1.390744 1.069623 -0.022859 0 0 255 92 17
-1.341549 1.099057 0.175141 0 0 255 92 17
-1.328945 1.064251 0.010141 0 0 255 92 17
-1.367890 1.061711 -0.049859 0 0 255 92 17
-1.336498 1.071991 0.085142 0 0 255 92 17
-1.382560 1.064843 -0.001858 0 0 255 92 17
-1.375205 1.092486 0.148142 0 0 255 92 17
-1.393666 1.070310 0.016142 0 0 255 92 17
-1.368501 1.058834 0.034142 0 0 255 92 17
-1.368522 1.058735 -0.010859 0 0 255 92 17
-1.336597 1.047476 0.034142 0 0 255 92 17
-1.373755 1.062976 -0.028859 0 0 255 92 17
-1.371444 1.059418 0.022141 0 0 255 92 17
-1.401394 1.085785 -0.019858 0 0 255 92 17
-1.383221 1.047300 0.040141 0 0 255 92 17
-1.321997 1.059707 -0.022859 0 0 255 92 17
-1.400035 1.091630 0.067142 0 0 255 92 17
-1.381649 1.090789 0.127141 0 0 255 92 17
-1.381382 1.070385 0.088141 0 0 255 92 17
-1.389273 1.074007 -0.073859 0 0 255 92 17
-1.322557 1.056759 0.040141 0 0 255 92 17
-1.327837 1.076999 -0.073859 0 0 255 92 17
-1.328903 1.055041 0.067142 0 0 255 92 17
-1.407397 1.077859 0.051664 0 0 255 92 17
-1.381455 1.055609 0.082142 0 0 255 92 17
-1.365875 1.071196 0.145141 0 0 255 92 17
-1.357208 1.068682 0.142141 0 0 255 92 17
-1.356027 1.059805 0.121141 0 0 255 92 17
-1.361995 1.059008 0.118142 0 0 255 92 17
-1.393091 1.073011 -0.013859 0 0 255 92 17
-1.401388 1.070449 -0.019858 0 0 255 92 17
-1.338997 1.075589 0.142141 0 0 255 92 17
-1.345887 1.049793 0.076141 0 0 255 92 17
-1.335506 1.069772 0.118142 0 0 255 92 17
-1.397057 1.090997 0.079141 0 0 255 92 17
-1.311193 1.088081 0.007141 0 0 255 92 17
-1.396294 1.060165 0.043141 0 0 255 92 17
