ply
format ascii 1.0
element vertex 1137
property float x
property float y
property float z
property uchar red
property uchar green
property uchar blue
property uchar semantic_label
property uchar instance_label
end_header
0.469915 0.714527 0.257315 255 255 0 68 9
0.417568 0.710720 0.053315 255 255 0 68 9
0.482513 0.715284 0.128314 255 255 0 68 9
0.429985 0.712210 0.206315 255 255 0 68 9
0.420811 0.711922 0.419315 255 255 0 68 9
0.375545 0.760560 0.266315 255 255 0 68 9
0.466999 0.824340 0.432577 255 255 0 68 9
0.263212 0.849318 0.062315 255 255 0 68 9
0.476787 0.828301 0.149315 255 255 0 68 9
0.362878 0.787013 0.143314 255 255 0 68 9
0.479529 0.808336 0.203315 255 255 0 68 9
0.479171 0.751670 0.068314 255 255 0 68 9
0.310578 0.707556 0.040718 255 255 0 68 9
0.429898 0.711689 0.356315 255 255 0 68 9
0.478734 0.828459 0.323315 255 255 0 68 9
0.371993 0.812863 0.182315 255 255 0 68 9
0.387879 0.715911 0.242315 255 255 0 68 9
0.370765 0.721864 0.065315 255 255 0 68 9
0.438048 0.724044 0.089315 255 255 0 68 9
0.483287 0.739488 0.089315 255 255 0 68 9
0.382049 0.719929 0.224315 255 255 0 68 9
0.252464 0.832866 0.065202 255 255 0 68 9
0.445386 0.713364 0.428315 255 255 0 68 9
0.450905 0.728164 0.245314 255 255 0 68 9
0.395639 0.725091 0.317315 255 255 0 68 9
0.359945 0.824005 0.275315 255 255 0 68 9
0.476016 0.758955 0.287315 255 255 0 68 9
0.401565 0.724148 0.401314 255 255 0 68 9
0.410942 0.725651 0.386315 255 255 0 68 9
0.438571 0.727166 0.143314 255 255 0 68 9
0.482531 0.745698 0.425315 255 255 0 68 9
0.373635 0.821714 0.236315 255 255 0 68 9
0.376625 0.766463 0.359315 255 255 0 68 9
0.373685 0.821705 0.173315 255 255 0 68 9
0.373588 0.803471 0.362314 255 255 0 68 9
0.373652 0.821710 0.392315 255 255 0 68 9
0.404518 0.723618 0.050315 255 255 0 68 9
0.339261 0.824424 0.058236 255 255 0 68 9
0.373754 0.821694 0.362314 255 255 0 68 9
0.451400 0.712950 0.149315 255 255 0 68 9
0.375266 0.830565 0.113315 255 255 0 68 9
0.374669 0.809373 0.155315 255 255 0 68 9
0.456092 0.731872 0.428315 255 255 0 68 9
0.305168 0.729753 0.063403 255 255 0 68 9
0.455033 0.713799 0.320315 255 255 0 68 9
0.476590 0.790776 0.095315 255 255 0 68 9
0.364221 0.771579 0.350314 255 255 0 68 9
0.364442 0.750251 0.206315 255 255 0 68 9
0.390564 0.840173 0.430524 255 255 0 68 9
0.363447 0.780835 0.116315 255 255 0 68 9
0.378746 0.845192 0.350314 255 255 0 68 9
0.232195 0.820801 0.047315 255 255 0 68 9
0.362400 0.805343 0.386315 255 255 0 68 9
0.451442 0.713199 0.287315 255 255 0 68 9
0.441806 0.764680 0.430078 255 255 0 68 9
0.429983 0.784909 0.432642 255 255 0 68 9
0.361712 0.805458 0.200315 255 255 0 68 9
0.433435 0.714656 0.122315 255 255 0 68 9
0.466726 0.713651 0.218315 255 255 0 68 9
0.363939 0.780752 0.329314 255 255 0 68 9
0.395467 0.796768 0.430624 255 255 0 68 9
0.438908 0.856416 0.429971 255 255 0 68 9
0.445354 0.713170 0.371315 255 255 0 68 9
0.479453 0.804006 0.110314 255 255 0 68 9
0.473678 0.846078 0.350314 255 255 0 68 9
0.420833 0.712051 0.401314 255 255 0 68 9
0.439474 0.714388 0.098315 255 255 0 68 9
0.363321 0.786939 0.395315 255 255 0 68 9
0.362759 0.805283 0.329314 255 255 0 68 9
0.363131 0.826513 0.314314 255 255 0 68 9
0.481656 0.733678 0.269315 255 255 0 68 9
0.392484 0.760767 0.432662 255 255 0 68 9
0.362661 0.814425 0.368315 255 255 0 68 9
0.391920 0.730443 0.263314 255 255 0 68 9
0.364576 0.757585 0.113315 255 255 0 68 9
0.415708 0.826840 0.431756 255 255 0 68 9
0.473006 0.832460 0.290315 255 255 0 68 9
0.442350 0.713397 0.296314 255 255 0 68 9
0.277125 0.834823 0.057894 255 255 0 68 9
0.481238 0.727664 0.084879 255 255 0 68 9
0.238181 0.747510 0.065315 255 255 0 68 9
0.430955 0.726954 0.422315 255 255 0 68 9
0.235653 0.768761 0.041198 255 255 0 68 9
0.423695 0.712960 0.089315 255 255 0 68 9
0.363403 0.786925 0.371467 255 255 0 68 9
0.384189 0.710445 0.062315 255 255 0 68 9
0.486114 0.723807 0.377315 255 255 0 68 9
0.367871 0.734468 0.068314 255 255 0 68 9
0.454971 0.716108 0.041315 255 255 0 68 9
0.449197 0.754318 0.431293 255 255 0 68 9
0.363332 0.756520 0.275315 255 255 0 68 9
0.421070 0.731649 0.431164 255 255 0 68 9
0.378150 0.757082 0.101315 255 255 0 68 9
0.372137 0.831089 0.341315 255 255 0 68 9
0.396135 0.728052 0.362314 255 255 0 68 9
0.477110 0.798314 0.341315 255 255 0 68 9
0.293888 0.825933 0.065033 255 255 0 68 9
0.377702 0.781491 0.431947 255 255 0 68 9
0.398603 0.724627 0.176314 255 255 0 68 9
0.433968 0.845076 0.431851 255 255 0 68 9
0.456804 0.727068 0.266315 255 255 0 68 9
0.325880 0.726287 0.064846 255 255 0 68 9
0.478264 0.828538 0.197315 255 255 0 68 9
0.363717 0.765581 0.161314 255 255 0 68 9
0.474869 0.771314 0.266315 255 255 0 68 9
0.480340 0.800815 0.227314 255 255 0 68 9
0.377922 0.746450 0.083315 255 255 0 68 9
0.393217 0.710616 0.047315 255 255 0 68 9
0.402538 0.711787 0.236315 255 255 0 68 9
0.364240 0.762452 0.401314 255 255 0 68 9
0.362962 0.826541 0.122315 255 255 0 68 9
0.362868 0.790056 0.155315 255 255 0 68 9
0.243518 0.825238 0.050315 255 255 0 68 9
0.477080 0.793699 0.056315 255 255 0 68 9
0.240061 0.722398 0.040008 255 255 0 68 9
0.373519 0.811022 0.104315 255 255 0 68 9
0.476990 0.847694 0.053315 255 255 0 68 9
0.365100 0.756224 0.323315 255 255 0 68 9
0.402464 0.711347 0.359315 255 255 0 68 9
0.385069 0.734632 0.297817 255 255 0 68 9
0.441359 0.834714 0.430214 255 255 0 68 9
0.372547 0.797562 0.143314 255 255 0 68 9
0.416838 0.724534 0.086314 255 255 0 68 9
0.361523 0.820698 0.254315 255 255 0 68 9
0.376222 0.799989 0.179314 255 255 0 68 9
0.315095 0.825427 0.057992 255 255 0 68 9
0.469138 0.728063 0.122315 255 255 0 68 9
0.399249 0.710309 0.287315 255 255 0 68 9
0.374603 0.791135 0.194314 255 255 0 68 9
0.375049 0.775852 0.344315 255 255 0 68 9
0.388266 0.735564 0.143314 255 255 0 68 9
0.426237 0.726169 0.395315 255 255 0 68 9
0.375672 0.778789 0.191315 255 255 0 68 9
0.432658 0.728185 0.200315 255 255 0 68 9
0.374993 0.775860 0.107314 255 255 0 68 9
0.376636 0.784710 0.320315 255 255 0 68 9
0.413914 0.725235 0.152315 255 255 0 68 9
0.420318 0.727150 0.236315 255 255 0 68 9
0.373243 0.818738 0.083315 255 255 0 68 9
0.441519 0.726607 0.053315 255 255 0 68 9
0.474319 0.820073 0.113315 255 255 0 68 9
0.365187 0.750126 0.089315 255 255 0 68 9
0.476826 0.780111 0.356315 255 255 0 68 9
0.483941 0.721129 0.176314 255 255 0 68 9
0.356978 0.766708 0.064496 255 255 0 68 9
0.478026 0.781179 0.116315 255 255 0 68 9
0.327127 0.715560 0.038315 255 255 0 68 9
0.362978 0.829580 0.134315 255 255 0 68 9
0.364713 0.762372 0.371315 255 255 0 68 9
0.484748 0.720994 0.065315 255 255 0 68 9
0.244530 0.767275 0.064714 255 255 0 68 9
0.289903 0.765766 0.063999 255 255 0 68 9
0.451480 0.713424 0.197315 255 255 0 68 9
0.383337 0.742460 0.209314 255 255 0 68 9
0.476134 0.828894 0.311314 255 255 0 68 9
0.417770 0.711924 0.299314 255 255 0 68 9
0.480945 0.770298 0.302315 255 255 0 68 9
0.460725 0.714144 0.134315 255 255 0 68 9
0.378141 0.842252 0.299314 255 255 0 68 9
0.376115 0.763506 0.212314 255 255 0 68 9
0.476729 0.780128 0.416314 255 255 0 68 9
0.310107 0.741093 0.064925 255 255 0 68 9
0.392689 0.725634 0.089315 255 255 0 68 9
0.375732 0.727069 0.131315 255 255 0 68 9
0.456613 0.780452 0.430501 255 255 0 68 9
0.474460 0.804842 0.317315 255 255 0 68 9
0.427494 0.806387 0.431314 255 255 0 68 9
0.375139 0.794086 0.392315 255 255 0 68 9
0.292342 0.725816 0.061348 255 255 0 68 9
0.474006 0.856626 0.422315 255 255 0 68 9
0.460626 0.713552 0.407315 255 255 0 68 9
0.476468 0.743671 0.383314 255 255 0 68 9
0.475404 0.774266 0.164315 255 255 0 68 9
0.475439 0.807719 0.386315 255 255 0 68 9
0.374998 0.801686 0.422315 255 255 0 68 9
0.373522 0.811036 0.128314 255 255 0 68 9
0.438568 0.727148 0.353315 255 255 0 68 9
0.374021 0.814022 0.266315 255 255 0 68 9
0.476843 0.728400 0.413314 255 255 0 68 9
0.240148 0.734550 0.053315 255 255 0 68 9
0.482307 0.715877 0.233315 255 255 0 68 9
0.478351 0.837649 0.225793 255 255 0 68 9
0.282983 0.742590 0.063578 255 255 0 68 9
0.361894 0.811512 0.419315 255 255 0 68 9
0.454441 0.712946 0.347314 255 255 0 68 9
0.363403 0.786925 0.057923 255 255 0 68 9
0.474051 0.801868 0.131315 255 255 0 68 9
0.482469 0.715291 0.257315 255 255 0 68 9
0.483817 0.727233 0.431314 255 255 0 68 9
0.454338 0.712328 0.065315 255 255 0 68 9
0.474180 0.830899 0.065315 255 255 0 68 9
0.474394 0.838312 0.329314 255 255 0 68 9
0.319551 0.852057 0.060721 255 255 0 68 9
0.362167 0.744548 0.245314 255 255 0 68 9
0.469924 0.714581 0.113315 255 255 0 68 9
0.362417 0.796215 0.215315 255 255 0 68 9
0.369314 0.731362 0.203315 255 255 0 68 9
0.466468 0.766637 0.432436 255 255 0 68 9
0.385001 0.716046 0.371315 255 255 0 68 9
0.473534 0.817163 0.065315 255 255 0 68 9
0.399524 0.711955 0.104315 255 255 0 68 9
0.463725 0.713890 0.302315 255 255 0 68 9
0.445334 0.713053 0.398314 255 255 0 68 9
0.361617 0.805474 0.239315 255 255 0 68 9
0.360480 0.842165 0.058089 255 255 0 68 9
0.462712 0.726016 0.191315 255 255 0 68 9
0.433058 0.712403 0.386315 255 255 0 68 9
0.323464 0.802734 0.064319 255 255 0 68 9
0.397388 0.717363 0.431759 255 255 0 68 9
0.364472 0.768496 0.323315 255 255 0 68 9
0.363026 0.829573 0.098315 255 255 0 68 9
0.393687 0.731599 0.119315 255 255 0 68 9
0.362495 0.802285 0.161314 255 255 0 68 9
0.395648 0.725143 0.305315 255 255 0 68 9
0.408569 0.711472 0.254315 255 255 0 68 9
0.362086 0.793229 0.254315 255 255 0 68 9
0.315752 0.720292 0.053315 255 255 0 68 9
0.374670 0.809373 0.221315 255 255 0 68 9
0.477005 0.746623 0.344315 255 255 0 68 9
0.376941 0.758765 0.308315 255 255 0 68 9
0.478094 0.828567 0.098315 255 255 0 68 9
0.302008 0.839784 0.065315 255 255 0 68 9
0.381849 0.733561 0.320315 255 255 0 68 9
0.477423 0.767845 0.422315 255 255 0 68 9
0.473713 0.846287 0.404315 255 255 0 68 9
0.462716 0.726040 0.317315 255 255 0 68 9
0.369804 0.770645 0.432060 255 255 0 68 9
0.426976 0.712410 0.247194 255 255 0 68 9
0.478085 0.752525 0.266315 255 255 0 68 9
0.462727 0.726108 0.065315 255 255 0 68 9
0.435613 0.727670 0.224315 255 255 0 68 9
0.342643 0.717398 0.064126 255 255 0 68 9
0.405583 0.711805 0.140315 255 255 0 68 9
0.372837 0.727553 0.089315 255 255 0 68 9
0.418628 0.725974 0.047315 255 255 0 68 9
0.468956 0.799679 0.426829 255 255 0 68 9
0.374017 0.813996 0.383314 255 255 0 68 9
0.403362 0.725488 0.284315 255 255 0 68 9
0.364913 0.832298 0.066010 255 255 0 68 9
0.474114 0.801858 0.098315 255 255 0 68 9
0.430323 0.724018 0.065315 255 255 0 68 9
0.473907 0.829268 0.165869 255 255 0 68 9
0.418671 0.725967 0.308315 255 255 0 68 9
0.474390 0.813978 0.168962 255 255 0 68 9
0.445344 0.713111 0.173315 255 255 0 68 9
0.362830 0.823522 0.329314 255 255 0 68 9
0.375667 0.797040 0.095315 255 255 0 68 9
0.480849 0.758147 0.146315 255 255 0 68 9
0.480795 0.788573 0.311314 255 255 0 68 9
0.478292 0.852867 0.260314 255 255 0 68 9
0.356618 0.708976 0.056315 255 255 0 68 9
0.477026 0.847903 0.086314 255 255 0 68 9
0.479064 0.714673 0.419315 255 255 0 68 9
0.382397 0.718663 0.350314 255 255 0 68 9
0.401372 0.777530 0.432234 255 255 0 68 9
0.481712 0.730497 0.200315 255 255 0 68 9
0.488435 0.723418 0.242315 255 255 0 68 9
0.479067 0.714691 0.353315 255 255 0 68 9
0.378149 0.711457 0.334169 255 255 0 68 9
0.373033 0.826291 0.320315 255 255 0 68 9
0.472942 0.714444 0.137315 255 255 0 68 9
0.365731 0.746994 0.314314 255 255 0 68 9
0.482155 0.748803 0.167315 255 255 0 68 9
0.384562 0.713425 0.276020 255 255 0 68 9
0.469756 0.713578 0.380314 255 255 0 68 9
0.376098 0.745258 0.155315 255 255 0 68 9
0.478426 0.834595 0.266315 255 255 0 68 9
0.362877 0.826555 0.155315 255 255 0 68 9
0.374999 0.757609 0.137315 255 255 0 68 9
0.305711 0.805705 0.058066 255 255 0 68 9
0.476781 0.831828 0.392315 255 255 0 68 9
0.363856 0.756432 0.230314 255 255 0 68 9
0.479440 0.804008 0.047315 255 255 0 68 9
0.371046 0.832601 0.215315 255 255 0 68 9
0.481448 0.765276 0.170315 255 255 0 68 9
0.475535 0.810745 0.077314 255 255 0 68 9
0.267234 0.793893 0.057965 255 255 0 68 9
0.365785 0.740900 0.104315 255 255 0 68 9
0.473510 0.817167 0.350314 255 255 0 68 9
0.436404 0.714217 0.137315 255 255 0 68 9
0.475923 0.714080 0.323315 255 255 0 68 9
0.237857 0.745575 0.041315 255 255 0 68 9
0.366821 0.734644 0.140038 255 255 0 68 9
0.365093 0.750142 0.362314 255 255 0 68 9
0.475636 0.857775 0.365314 255 255 0 68 9
0.424018 0.712906 0.073717 255 255 0 68 9
0.398528 0.711088 0.128314 255 255 0 68 9
0.477015 0.847838 0.308315 255 255 0 68 9
0.242423 0.718334 0.065315 255 255 0 68 9
0.478263 0.816371 0.146315 255 255 0 68 9
0.269674 0.753943 0.058013 255 255 0 68 9
0.478137 0.734267 0.305315 255 255 0 68 9
0.408707 0.712297 0.161314 255 255 0 68 9
0.455208 0.725937 0.179314 255 255 0 68 9
0.480345 0.758678 0.233315 255 255 0 68 9
0.374496 0.725976 0.410315 255 255 0 68 9
0.477605 0.760483 0.401314 255 255 0 68 9
0.479412 0.813137 0.245314 255 255 0 68 9
0.479178 0.806238 0.155315 255 255 0 68 9
0.402315 0.710454 0.400639 255 255 0 68 9
0.377142 0.769418 0.335315 255 255 0 68 9
0.348608 0.789401 0.063926 255 255 0 68 9
0.401562 0.724127 0.065315 255 255 0 68 9
0.459767 0.726593 0.041315 255 255 0 68 9
0.444475 0.726098 0.131315 255 255 0 68 9
0.374101 0.788176 0.341315 255 255 0 68 9
0.392427 0.733400 0.212314 255 255 0 68 9
0.401572 0.724191 0.101315 255 255 0 68 9
0.376156 0.781750 0.254315 255 255 0 68 9
0.378672 0.760037 0.173315 255 255 0 68 9
0.283031 0.815584 0.058085 255 255 0 68 9
0.361301 0.793361 0.296314 255 255 0 68 9
0.469144 0.728100 0.275315 255 255 0 68 9
0.471227 0.714130 0.281314 255 255 0 68 9
0.377095 0.751176 0.230314 255 255 0 68 9
0.375177 0.775829 0.068314 255 255 0 68 9
0.416860 0.724663 0.347314 255 255 0 68 9
0.248453 0.763577 0.050315 255 255 0 68 9
0.432655 0.728170 0.377315 255 255 0 68 9
0.242573 0.791937 0.064673 255 255 0 68 9
0.376651 0.784708 0.377315 255 255 0 68 9
0.482226 0.760958 0.365314 255 255 0 68 9
0.485947 0.723835 0.161314 255 255 0 68 9
0.482085 0.714546 0.395315 255 255 0 68 9
0.392397 0.733406 0.398314 255 255 0 68 9
0.382827 0.739410 0.107314 255 255 0 68 9
0.473716 0.835383 0.245314 255 255 0 68 9
0.475946 0.758967 0.380314 255 255 0 68 9
0.477361 0.831731 0.432939 255 255 0 68 9
0.396194 0.710232 0.383314 255 255 0 68 9
0.361560 0.826776 0.077314 255 255 0 68 9
0.329370 0.783496 0.057952 255 255 0 68 9
0.390056 0.818966 0.430214 255 255 0 68 9
0.364698 0.758313 0.065315 255 255 0 68 9
0.231948 0.805881 0.056315 255 255 0 68 9
0.255398 0.795874 0.057907 255 255 0 68 9
0.363476 0.787365 0.077314 255 255 0 68 9
0.476863 0.813565 0.425315 255 255 0 68 9
0.482274 0.752029 0.254315 255 255 0 68 9
0.361671 0.805466 0.086314 255 255 0 68 9
0.476328 0.743694 0.329314 255 255 0 68 9
0.374212 0.724282 0.267837 255 255 0 68 9
0.366175 0.734753 0.350314 255 255 0 68 9
0.375274 0.839689 0.193702 255 255 0 68 9
0.384838 0.713378 0.317315 255 255 0 68 9
0.476525 0.831871 0.182315 255 255 0 68 9
0.452197 0.835942 0.428315 255 255 0 68 9
0.362899 0.783910 0.194314 255 255 0 68 9
0.479836 0.810164 0.371315 255 255 0 68 9
0.478279 0.728159 0.129858 255 255 0 68 9
0.308610 0.713968 0.064466 255 255 0 68 9
0.427236 0.712368 0.410315 255 255 0 68 9
0.322933 0.745030 0.057847 255 255 0 68 9
0.472491 0.847755 0.290315 255 255 0 68 9
0.330621 0.736438 0.059315 255 255 0 68 9
0.437339 0.719802 0.432243 255 255 0 68 9
0.328910 0.835281 0.057864 255 255 0 68 9
0.364654 0.830754 0.350314 255 255 0 68 9
0.482613 0.735879 0.347314 255 255 0 68 9
0.364547 0.750233 0.155315 255 255 0 68 9
0.246719 0.744005 0.059315 255 255 0 68 9
0.462990 0.727676 0.408785 255 255 0 68 9
0.376463 0.774089 0.422315 255 255 0 68 9
0.362617 0.771848 0.269315 255 255 0 68 9
0.363475 0.789955 0.335315 255 255 0 68 9
0.404791 0.725248 0.243858 255 255 0 68 9
0.476347 0.789317 0.195744 255 255 0 68 9
0.364550 0.775604 0.287315 255 255 0 68 9
0.381615 0.732169 0.336959 255 255 0 68 9
0.372798 0.824895 0.162771 255 255 0 68 9
0.445321 0.712976 0.086314 255 255 0 68 9
0.298767 0.746032 0.058103 255 255 0 68 9
0.366580 0.733203 0.431314 255 255 0 68 9
0.475553 0.774241 0.284315 255 255 0 68 9
0.235622 0.759641 0.062315 255 255 0 68 9
0.475144 0.854836 0.215315 255 255 0 68 9
0.478504 0.840665 0.371315 255 255 0 68 9
0.402484 0.711458 0.416314 255 255 0 68 9
0.385784 0.738907 0.422315 255 255 0 68 9
0.348137 0.822939 0.064501 255 255 0 68 9
0.477868 0.852938 0.068556 255 255 0 68 9
0.458629 0.847032 0.430133 255 255 0 68 9
0.362289 0.808403 0.137315 255 255 0 68 9
0.374206 0.824660 0.413314 255 255 0 68 9
0.363222 0.802164 0.317315 255 255 0 68 9
0.371546 0.835586 0.257315 255 255 0 68 9
0.408620 0.711776 0.320315 255 255 0 68 9
0.474911 0.789557 0.377315 255 255 0 68 9
0.470960 0.848011 0.433051 255 255 0 68 9
0.410214 0.721299 0.432011 255 255 0 68 9
0.393259 0.710864 0.350314 255 255 0 68 9
0.475875 0.822855 0.402750 255 255 0 68 9
0.363298 0.768692 0.200315 255 255 0 68 9
0.362101 0.811477 0.398314 255 255 0 68 9
0.363126 0.762638 0.251315 255 255 0 68 9
0.347583 0.728739 0.063401 255 255 0 68 9
0.389444 0.733900 0.383314 255 255 0 68 9
0.364611 0.771514 0.074315 255 255 0 68 9
0.364676 0.753254 0.392315 255 255 0 68 9
0.445323 0.712991 0.341315 255 255 0 68 9
0.481990 0.713982 0.209314 255 255 0 68 9
0.363022 0.753530 0.302315 255 255 0 68 9
0.363141 0.790011 0.125314 255 255 0 68 9
0.363343 0.765644 0.236315 255 255 0 68 9
0.362301 0.805360 0.410315 255 255 0 68 9
0.463672 0.713574 0.266315 255 255 0 68 9
0.476033 0.795453 0.365314 255 255 0 68 9
0.478327 0.816361 0.305315 255 255 0 68 9
0.411566 0.711200 0.338315 255 255 0 68 9
0.408688 0.712183 0.089315 255 255 0 68 9
0.363738 0.771660 0.170315 255 255 0 68 9
0.363684 0.774712 0.146315 255 255 0 68 9
0.451619 0.714252 0.107314 255 255 0 68 9
0.448402 0.713211 0.122315 255 255 0 68 9
0.478381 0.828519 0.257315 255 255 0 68 9
0.443811 0.813012 0.432469 255 255 0 68 9
0.473945 0.835345 0.209314 255 255 0 68 9
0.478675 0.819344 0.236315 255 255 0 68 9
0.433104 0.712675 0.257315 255 255 0 68 9
0.445284 0.712751 0.275315 255 255 0 68 9
0.411648 0.711934 0.113315 255 255 0 68 9
0.468920 0.744934 0.432589 255 255 0 68 9
0.398450 0.832770 0.432593 255 255 0 68 9
0.377666 0.726746 0.431321 255 255 0 68 9
0.478342 0.734232 0.422315 255 255 0 68 9
0.391234 0.735118 0.188315 255 255 0 68 9
0.342172 0.750936 0.063980 255 255 0 68 9
0.304697 0.763290 0.064697 255 255 0 68 9
0.362816 0.787024 0.422315 255 255 0 68 9
0.362574 0.826606 0.395315 255 255 0 68 9
0.479140 0.773641 0.365314 255 255 0 68 9
0.362515 0.811408 0.188315 255 255 0 68 9
0.463628 0.713311 0.053315 255 255 0 68 9
0.376477 0.748237 0.377315 255 255 0 68 9
0.374236 0.760779 0.432577 255 255 0 68 9
0.373741 0.757820 0.057956 255 255 0 68 9
0.352015 0.718872 0.037015 255 255 0 68 9
0.478001 0.726494 0.212314 255 255 0 68 9
0.356471 0.745502 0.064566 255 255 0 68 9
0.376729 0.802946 0.260314 255 255 0 68 9
0.374145 0.788169 0.215315 255 255 0 68 9
0.266763 0.827431 0.058068 255 255 0 68 9
0.475059 0.727089 0.104315 255 255 0 68 9
0.244363 0.794678 0.047315 255 255 0 68 9
0.438565 0.727126 0.317315 255 255 0 68 9
0.390360 0.711719 0.329314 255 255 0 68 9
0.429180 0.725581 0.083315 255 255 0 68 9
0.401571 0.724180 0.326315 255 255 0 68 9
0.373684 0.821705 0.107314 255 255 0 68 9
0.416860 0.724663 0.362314 255 255 0 68 9
0.432658 0.728186 0.299314 255 255 0 68 9
0.453853 0.727607 0.416314 255 255 0 68 9
0.374714 0.809366 0.326315 255 255 0 68 9
0.481788 0.733656 0.404315 255 255 0 68 9
0.374206 0.806409 0.245314 255 255 0 68 9
0.475059 0.727090 0.170315 255 255 0 68 9
0.432653 0.728158 0.344315 255 255 0 68 9
0.476877 0.783144 0.302315 255 255 0 68 9
0.375176 0.794081 0.170315 255 255 0 68 9
0.374215 0.824658 0.374315 255 255 0 68 9
0.277077 0.761829 0.057867 255 255 0 68 9
0.258828 0.761841 0.058096 255 255 0 68 9
0.438572 0.727176 0.251315 255 255 0 68 9
0.466192 0.728637 0.380314 255 255 0 68 9
0.374094 0.788178 0.245314 255 255 0 68 9
0.342679 0.772143 0.064436 255 255 0 68 9
0.456808 0.727085 0.074315 255 255 0 68 9
0.254445 0.844701 0.057977 255 255 0 68 9
0.473919 0.847516 0.135798 255 255 0 68 9
0.333803 0.773629 0.057971 255 255 0 68 9
0.373248 0.721401 0.305315 255 255 0 68 9
0.478011 0.726556 0.143314 255 255 0 68 9
0.396143 0.728102 0.200315 255 255 0 68 9
0.472095 0.727559 0.230314 255 255 0 68 9
0.399463 0.711580 0.149315 255 255 0 68 9
0.231752 0.836332 0.063259 255 255 0 68 9
0.482607 0.745686 0.218315 255 255 0 68 9
0.486144 0.723801 0.389315 255 255 0 68 9
0.388017 0.715888 0.168337 255 255 0 68 9
0.481672 0.730257 0.074315 255 255 0 68 9
0.366770 0.734337 0.080315 255 255 0 68 9
0.364357 0.738099 0.376080 255 255 0 68 9
0.477856 0.767772 0.194314 255 255 0 68 9
0.474702 0.838260 0.101315 255 255 0 68 9
0.482772 0.736833 0.224315 255 255 0 68 9
0.375057 0.757600 0.239315 255 255 0 68 9
0.480464 0.782544 0.047315 255 255 0 68 9
0.366530 0.828986 0.407315 255 255 0 68 9
0.367205 0.827825 0.086314 255 255 0 68 9
0.476946 0.813550 0.212314 255 255 0 68 9
0.438568 0.727148 0.155315 255 255 0 68 9
0.286461 0.781551 0.064816 255 255 0 68 9
0.366055 0.826024 0.191315 255 255 0 68 9
0.387533 0.731178 0.063834 255 255 0 68 9
0.477860 0.831647 0.080315 255 255 0 68 9
0.376205 0.754366 0.192818 255 255 0 68 9
0.249469 0.778616 0.064487 255 255 0 68 9
0.420081 0.725731 0.408805 255 255 0 68 9
0.472497 0.847754 0.227314 255 255 0 68 9
0.303235 0.790911 0.058070 255 255 0 68 9
0.237994 0.756203 0.050315 255 255 0 68 9
0.476742 0.846206 0.164315 255 255 0 68 9
0.475965 0.714330 0.071315 255 255 0 68 9
0.472362 0.729149 0.357800 255 255 0 68 9
0.415141 0.714391 0.043673 255 255 0 68 9
0.243833 0.835821 0.050315 255 255 0 68 9
0.447700 0.727193 0.282840 255 255 0 68 9
0.478512 0.770704 0.254315 255 255 0 68 9
0.376461 0.774077 0.230314 255 255 0 68 9
0.376463 0.774087 0.323315 255 255 0 68 9
0.421616 0.725474 0.110314 255 255 0 68 9
0.457628 0.822867 0.426818 255 255 0 68 9
0.455895 0.713655 0.161314 255 255 0 68 9
0.470847 0.714195 0.245314 255 255 0 68 9
0.245212 0.716821 0.047315 255 255 0 68 9
0.374242 0.824654 0.290315 255 255 0 68 9
0.371325 0.834267 0.102748 255 255 0 68 9
0.362904 0.814384 0.299314 255 255 0 68 9
0.243780 0.780969 0.038315 255 255 0 68 9
0.477544 0.731324 0.254315 255 255 0 68 9
0.306677 0.775126 0.064038 255 255 0 68 9
0.479966 0.792768 0.257315 255 255 0 68 9
0.390480 0.712435 0.219282 255 255 0 68 9
0.362506 0.805326 0.068314 255 255 0 68 9
0.473804 0.835368 0.119315 255 255 0 68 9
0.483129 0.718222 0.410315 255 255 0 68 9
0.233697 0.793422 0.040013 255 255 0 68 9
0.477361 0.831731 0.235872 255 255 0 68 9
0.243808 0.773480 0.056315 255 255 0 68 9
0.481486 0.765497 0.386315 255 255 0 68 9
0.364240 0.774618 0.095315 255 255 0 68 9
0.362586 0.784020 0.248314 255 255 0 68 9
0.261328 0.813132 0.058204 255 255 0 68 9
0.363862 0.735139 0.318289 255 255 0 68 9
0.396140 0.728083 0.377315 255 255 0 68 9
0.393685 0.731589 0.425315 255 255 0 68 9
0.378375 0.723585 0.386315 255 255 0 68 9
0.370580 0.738930 0.059315 255 255 0 68 9
0.412702 0.754342 0.432301 255 255 0 68 9
0.364599 0.757719 0.137315 255 255 0 68 9
0.364580 0.750228 0.428315 255 255 0 68 9
0.482322 0.760942 0.248314 255 255 0 68 9
0.478608 0.816313 0.185315 255 255 0 68 9
0.481802 0.742779 0.047315 255 255 0 68 9
0.348149 0.841187 0.057864 255 255 0 68 9
0.472728 0.858575 0.164315 255 255 0 68 9
0.482758 0.751743 0.290315 255 255 0 68 9
0.477103 0.764857 0.080315 255 255 0 68 9
0.473800 0.853619 0.236315 255 255 0 68 9
0.380844 0.738381 0.263314 255 255 0 68 9
0.369333 0.804183 0.432163 255 255 0 68 9
0.385356 0.718171 0.209314 255 255 0 68 9
0.388334 0.717788 0.041315 255 255 0 68 9
0.483329 0.739481 0.281314 255 255 0 68 9
0.481550 0.776280 0.272315 255 255 0 68 9
0.473919 0.847516 0.324813 255 255 0 68 9
0.442266 0.712894 0.330557 255 255 0 68 9
0.477808 0.849907 0.386315 255 255 0 68 9
0.232197 0.838995 0.041315 255 255 0 68 9
0.366119 0.826013 0.245314 255 255 0 68 9
0.326530 0.844805 0.065315 255 255 0 68 9
0.413428 0.711636 0.275315 255 255 0 68 9
0.234993 0.717162 0.047315 255 255 0 68 9
0.478542 0.766084 0.218315 255 255 0 68 9
0.374966 0.765139 0.068314 255 255 0 68 9
0.369284 0.731190 0.234496 255 255 0 68 9
0.474911 0.789557 0.410315 255 255 0 68 9
0.423039 0.725236 0.132776 255 255 0 68 9
0.292671 0.709602 0.053315 255 255 0 68 9
0.426236 0.726160 0.284315 255 255 0 68 9
0.387008 0.737349 0.344315 255 255 0 68 9
0.378420 0.749430 0.392315 255 255 0 68 9
0.399109 0.727650 0.350314 255 255 0 68 9
0.400341 0.725993 0.113315 255 255 0 68 9
0.360313 0.826985 0.236315 255 255 0 68 9
0.475356 0.774275 0.065315 255 255 0 68 9
0.421553 0.725485 0.167315 255 255 0 68 9
0.407327 0.831285 0.426844 255 255 0 68 9
0.382115 0.744252 0.146315 255 255 0 68 9
0.479678 0.825260 0.344315 255 255 0 68 9
0.421705 0.713292 0.149315 255 255 0 68 9
0.374768 0.827608 0.425315 255 255 0 68 9
0.374189 0.824663 0.257315 255 255 0 68 9
0.363835 0.759477 0.185315 255 255 0 68 9
0.376940 0.758761 0.410315 255 255 0 68 9
0.480241 0.812591 0.086314 255 255 0 68 9
0.376171 0.781747 0.278314 255 255 0 68 9
0.439855 0.725464 0.122315 255 255 0 68 9
0.474086 0.801862 0.350314 255 255 0 68 9
0.480028 0.793141 0.236315 255 255 0 68 9
0.365545 0.737899 0.161314 255 255 0 68 9
0.473414 0.798932 0.206315 255 255 0 68 9
0.384488 0.740813 0.359315 255 255 0 68 9
0.473184 0.850681 0.341315 255 255 0 68 9
0.478988 0.740208 0.146315 255 255 0 68 9
0.481057 0.782445 0.392315 255 255 0 68 9
0.480260 0.791704 0.074315 255 255 0 68 9
0.366442 0.829001 0.176314 255 255 0 68 9
0.363685 0.843142 0.431314 255 255 0 68 9
0.388017 0.715888 0.117395 255 255 0 68 9
0.277584 0.783036 0.058125 255 255 0 68 9
0.372540 0.823347 0.122315 255 255 0 68 9
0.480855 0.779904 0.224315 255 255 0 68 9
0.482375 0.751807 0.092315 255 255 0 68 9
0.372304 0.821936 0.207977 255 255 0 68 9
0.309190 0.844665 0.057990 255 255 0 68 9
0.477400 0.749598 0.191315 255 255 0 68 9
0.477983 0.752543 0.047315 255 255 0 68 9
0.479868 0.774004 0.203315 255 255 0 68 9
0.243534 0.843485 0.041315 255 255 0 68 9
0.236667 0.811175 0.040226 255 255 0 68 9
0.375050 0.757601 0.077314 255 255 0 68 9
0.482353 0.742686 0.065315 255 255 0 68 9
0.481274 0.782409 0.092526 255 255 0 68 9
0.380371 0.742907 0.128314 255 255 0 68 9
0.385348 0.790831 0.428315 255 255 0 68 9
0.459765 0.726582 0.287315 255 255 0 68 9
0.388252 0.735474 0.098315 255 255 0 68 9
0.234675 0.793258 0.053315 255 255 0 68 9
0.480792 0.755114 0.158314 255 255 0 68 9
0.362731 0.728380 0.062315 255 255 0 68 9
0.475149 0.854862 0.398314 255 255 0 68 9
0.401571 0.724180 0.158314 255 255 0 68 9
0.435100 0.724598 0.170315 255 255 0 68 9
0.433494 0.715008 0.089315 255 255 0 68 9
0.379848 0.721609 0.071315 255 255 0 68 9
0.447427 0.725560 0.374315 255 255 0 68 9
0.362282 0.816581 0.350314 255 255 0 68 9
0.416855 0.724632 0.098315 255 255 0 68 9
0.429697 0.728667 0.233315 255 255 0 68 9
0.363815 0.738189 0.254315 255 255 0 68 9
0.450899 0.728131 0.392315 255 255 0 68 9
0.365744 0.734824 0.182315 255 255 0 68 9
0.441525 0.726647 0.413314 255 255 0 68 9
0.375638 0.778794 0.179314 255 255 0 68 9
0.374214 0.824659 0.308315 255 255 0 68 9
0.374226 0.806406 0.299314 255 255 0 68 9
0.371050 0.832618 0.239315 255 255 0 68 9
0.364430 0.847588 0.065443 255 255 0 68 9
0.361745 0.777017 0.059315 255 255 0 68 9
0.374728 0.791113 0.116315 255 255 0 68 9
0.383340 0.742479 0.230314 255 255 0 68 9
0.388266 0.735559 0.080315 255 255 0 68 9
0.389982 0.736852 0.245314 255 255 0 68 9
0.403800 0.719331 0.040213 255 255 0 68 9
0.472095 0.727562 0.062315 255 255 0 68 9
0.478511 0.729545 0.296314 255 255 0 68 9
0.478268 0.813329 0.284315 255 255 0 68 9
0.377589 0.754134 0.320315 255 255 0 68 9
0.478986 0.773666 0.185315 255 255 0 68 9
0.362437 0.817504 0.099043 255 255 0 68 9
0.474898 0.835186 0.361230 255 255 0 68 9
0.482353 0.715311 0.185315 255 255 0 68 9
0.423787 0.711530 0.371315 255 255 0 68 9
0.480379 0.795240 0.404315 255 255 0 68 9
0.481927 0.764050 0.323315 255 255 0 68 9
0.371899 0.728636 0.122315 255 255 0 68 9
0.480423 0.795498 0.320315 255 255 0 68 9
0.414840 0.712594 0.185315 255 255 0 68 9
0.478278 0.852870 0.197315 255 255 0 68 9
0.362551 0.811401 0.338315 255 255 0 68 9
0.364264 0.773894 0.302315 255 255 0 68 9
0.234553 0.725839 0.062315 255 255 0 68 9
0.377747 0.723691 0.188315 255 255 0 68 9
0.397294 0.711295 0.341315 255 255 0 68 9
0.476058 0.813699 0.263314 255 255 0 68 9
0.466919 0.714803 0.173315 255 255 0 68 9
0.407315 0.813036 0.432696 255 255 0 68 9
0.481127 0.797642 0.278314 255 255 0 68 9
0.374212 0.724282 0.343598 255 255 0 68 9
0.338714 0.721097 0.050315 255 255 0 68 9
0.381028 0.738350 0.329314 255 255 0 68 9
0.482793 0.755133 0.308315 255 255 0 68 9
0.477853 0.767772 0.293315 255 255 0 68 9
0.361458 0.829834 0.294531 255 255 0 68 9
0.370131 0.731049 0.098315 255 255 0 68 9
0.488734 0.723368 0.314314 255 255 0 68 9
0.483785 0.718113 0.293315 255 255 0 68 9
0.476653 0.791149 0.116315 255 255 0 68 9
0.230471 0.827421 0.059315 255 255 0 68 9
0.439552 0.722473 0.062315 255 255 0 68 9
0.485789 0.723861 0.110314 255 255 0 68 9
0.447700 0.727193 0.431553 255 255 0 68 9
0.361333 0.817689 0.215315 255 255 0 68 9
0.363750 0.770825 0.407315 255 255 0 68 9
0.375009 0.775858 0.398314 255 255 0 68 9
0.448442 0.713447 0.251315 255 255 0 68 9
0.478121 0.836273 0.131315 255 255 0 68 9
0.463714 0.713826 0.092315 255 255 0 68 9
0.377418 0.725261 0.110314 255 255 0 68 9
0.449717 0.793773 0.429888 255 255 0 68 9
0.363431 0.780837 0.359315 255 255 0 68 9
0.479788 0.773532 0.319551 255 255 0 68 9
0.464549 0.727416 0.350314 255 255 0 68 9
0.365691 0.737875 0.395315 255 255 0 68 9
0.375226 0.766697 0.102862 255 255 0 68 9
0.288466 0.829883 0.057914 255 255 0 68 9
0.251762 0.810497 0.059315 255 255 0 68 9
0.478416 0.813304 0.401314 255 255 0 68 9
0.398605 0.724639 0.236315 255 255 0 68 9
0.335239 0.709512 0.043878 255 255 0 68 9
0.374732 0.727393 0.245314 255 255 0 68 9
0.420849 0.712147 0.128314 255 255 0 68 9
0.382709 0.719819 0.137315 255 255 0 68 9
0.438329 0.725719 0.042786 255 255 0 68 9
0.415189 0.787385 0.431800 255 255 0 68 9
0.480293 0.797781 0.176314 255 255 0 68 9
0.377674 0.708618 0.053315 255 255 0 68 9
0.429406 0.712004 0.266315 255 255 0 68 9
0.459767 0.726591 0.209314 255 255 0 68 9
0.486463 0.722531 0.281314 255 255 0 68 9
0.476478 0.844046 0.182315 255 255 0 68 9
0.482216 0.715334 0.140188 255 255 0 68 9
0.381592 0.741297 0.308315 255 255 0 68 9
0.385025 0.716193 0.095315 255 255 0 68 9
0.480651 0.773388 0.149315 255 255 0 68 9
0.479386 0.825656 0.158314 255 255 0 68 9
0.363542 0.832528 0.305315 255 255 0 68 9
0.398873 0.726239 0.081804 255 255 0 68 9
0.475540 0.844203 0.062315 255 255 0 68 9
0.473277 0.850665 0.119315 255 255 0 68 9
0.400854 0.738075 0.432507 255 255 0 68 9
0.376633 0.766461 0.254315 255 255 0 68 9
0.375981 0.789382 0.356315 255 255 0 68 9
0.474633 0.804812 0.248314 255 255 0 68 9
0.351580 0.807154 0.062825 255 255 0 68 9
0.368838 0.801224 0.057829 255 255 0 68 9
0.462990 0.727676 0.081771 255 255 0 68 9
0.366582 0.733212 0.269315 255 255 0 68 9
0.477348 0.813483 0.047183 255 255 0 68 9
0.432411 0.726710 0.360862 255 255 0 68 9
0.440333 0.774052 0.432221 255 255 0 68 9
0.384979 0.715917 0.407315 255 255 0 68 9
0.362260 0.790159 0.230314 255 255 0 68 9
0.418611 0.725977 0.374315 255 255 0 68 9
0.469933 0.787349 0.430407 255 255 0 68 9
0.439197 0.712734 0.182315 255 255 0 68 9
0.464475 0.736553 0.430609 255 255 0 68 9
0.447700 0.727193 0.093778 255 255 0 68 9
0.444992 0.711007 0.074315 255 255 0 68 9
0.324967 0.814649 0.065315 255 255 0 68 9
0.313550 0.725308 0.061465 255 255 0 68 9
0.436916 0.826332 0.432410 255 255 0 68 9
0.428563 0.712145 0.236315 255 255 0 68 9
0.424558 0.724982 0.254315 255 255 0 68 9
0.479046 0.714565 0.119315 255 255 0 68 9
0.478635 0.801101 0.422315 255 255 0 68 9
0.472876 0.714045 0.194314 255 255 0 68 9
0.360180 0.823965 0.263314 255 255 0 68 9
0.433114 0.712733 0.218315 255 255 0 68 9
0.442226 0.712658 0.308315 255 255 0 68 9
0.481120 0.758101 0.275315 255 255 0 68 9
0.391011 0.770139 0.430554 255 255 0 68 9
0.406345 0.724989 0.143314 255 255 0 68 9
0.363599 0.751743 0.266315 255 255 0 68 9
0.478405 0.831556 0.218315 255 255 0 68 9
0.396310 0.710922 0.071315 255 255 0 68 9
0.428981 0.760743 0.431417 255 255 0 68 9
0.474749 0.823044 0.422315 255 255 0 68 9
0.360765 0.814742 0.278314 255 255 0 68 9
0.387086 0.801212 0.432268 255 255 0 68 9
0.234717 0.775001 0.050315 255 255 0 68 9
0.405411 0.710779 0.056315 255 255 0 68 9
0.430146 0.713177 0.110314 255 255 0 68 9
0.361394 0.805511 0.263314 255 255 0 68 9
0.481046 0.770280 0.104315 255 255 0 68 9
0.480767 0.761202 0.091096 255 255 0 68 9
0.476936 0.843969 0.248314 255 255 0 68 9
0.481026 0.758117 0.212314 255 255 0 68 9
0.374146 0.723884 0.317315 255 255 0 68 9
0.484772 0.720990 0.095315 255 255 0 68 9
0.477382 0.828686 0.275315 255 255 0 68 9
0.375770 0.842649 0.064912 255 255 0 68 9
0.479524 0.808302 0.191315 255 255 0 68 9
0.377726 0.817988 0.430452 255 255 0 68 9
0.479969 0.788711 0.269315 255 255 0 68 9
0.408674 0.712104 0.296314 255 255 0 68 9
0.457786 0.713338 0.236315 255 255 0 68 9
0.373460 0.785242 0.095315 255 255 0 68 9
0.268744 0.839266 0.064773 255 255 0 68 9
0.454614 0.713980 0.296314 255 255 0 68 9
0.442313 0.713180 0.146315 255 255 0 68 9
0.383596 0.744003 0.430511 255 255 0 68 9
0.477521 0.840829 0.383314 255 255 0 68 9
0.402435 0.711173 0.215315 255 255 0 68 9
0.411562 0.711182 0.398314 255 255 0 68 9
0.238141 0.801804 0.063941 255 255 0 68 9
0.460079 0.801165 0.430372 255 255 0 68 9
0.364081 0.771603 0.389315 255 255 0 68 9
0.372542 0.815814 0.245314 255 255 0 68 9
0.361951 0.811502 0.170315 255 255 0 68 9
0.372506 0.797569 0.230314 255 255 0 68 9
0.451348 0.712637 0.218315 255 255 0 68 9
0.364598 0.750225 0.410315 255 255 0 68 9
0.414634 0.711365 0.230314 255 255 0 68 9
0.463885 0.714851 0.074315 255 255 0 68 9
0.365627 0.753094 0.332314 255 255 0 68 9
0.478497 0.838518 0.200315 255 255 0 68 9
0.362082 0.814522 0.380314 255 255 0 68 9
0.373100 0.800511 0.401314 255 255 0 68 9
0.482724 0.736541 0.384503 255 255 0 68 9
0.454490 0.713232 0.425315 255 255 0 68 9
0.363025 0.796114 0.098315 255 255 0 68 9
0.390502 0.712569 0.083315 255 255 0 68 9
0.363189 0.756544 0.290315 255 255 0 68 9
0.374561 0.772891 0.383314 255 255 0 68 9
0.362146 0.802344 0.191315 255 255 0 68 9
0.430409 0.724003 0.122315 255 255 0 68 9
0.273176 0.829399 0.065048 255 255 0 68 9
0.422764 0.723590 0.215315 255 255 0 68 9
0.478116 0.818068 0.203315 255 255 0 68 9
0.479048 0.805458 0.335315 255 255 0 68 9
0.330312 0.716420 0.064945 255 255 0 68 9
0.272644 0.771696 0.065092 255 255 0 68 9
0.459762 0.726558 0.398314 255 255 0 68 9
0.436198 0.712989 0.164315 255 255 0 68 9
0.363700 0.826418 0.143314 255 255 0 68 9
0.381192 0.838700 0.433035 255 255 0 68 9
0.363974 0.762496 0.422315 255 255 0 68 9
0.442268 0.712909 0.419315 255 255 0 68 9
0.291883 0.777602 0.058061 255 255 0 68 9
0.402458 0.711306 0.311314 255 255 0 68 9
0.362987 0.774828 0.215315 255 255 0 68 9
0.377359 0.724911 0.170315 255 255 0 68 9
0.362621 0.790098 0.179314 255 255 0 68 9
0.423851 0.711911 0.176314 255 255 0 68 9
0.475904 0.777224 0.404315 255 255 0 68 9
0.475380 0.819896 0.291811 255 255 0 68 9
0.434427 0.793290 0.431918 255 255 0 68 9
0.478679 0.807177 0.308315 255 255 0 68 9
0.363702 0.759500 0.221315 255 255 0 68 9
0.363892 0.768593 0.179314 255 255 0 68 9
0.363009 0.802200 0.110314 255 255 0 68 9
0.376077 0.763512 0.401314 255 255 0 68 9
0.375135 0.775837 0.128314 255 255 0 68 9
0.477113 0.783105 0.203315 255 255 0 68 9
0.374687 0.809371 0.410315 255 255 0 68 9
0.366102 0.740848 0.335315 255 255 0 68 9
0.424089 0.822395 0.432361 255 255 0 68 9
0.364606 0.762390 0.098315 255 255 0 68 9
0.439286 0.713264 0.362314 255 255 0 68 9
0.361062 0.817734 0.428315 255 255 0 68 9
0.322684 0.707187 0.056315 255 255 0 68 9
0.361588 0.808521 0.230314 255 255 0 68 9
0.418160 0.805137 0.432571 255 255 0 68 9
0.363934 0.777711 0.338315 255 255 0 68 9
0.479069 0.714702 0.374315 255 255 0 68 9
0.241112 0.819557 0.064074 255 255 0 68 9
0.362527 0.787071 0.212314 255 255 0 68 9
0.362483 0.796204 0.392315 255 255 0 68 9
0.475963 0.777214 0.374315 255 255 0 68 9
0.364054 0.756399 0.164315 255 255 0 68 9
0.361261 0.814659 0.206315 255 255 0 68 9
0.364629 0.753261 0.146315 255 255 0 68 9
0.362793 0.817445 0.311314 255 255 0 68 9
0.463968 0.715346 0.431718 255 255 0 68 9
0.445316 0.712949 0.206315 255 255 0 68 9
0.460673 0.713833 0.200315 255 255 0 68 9
0.484191 0.718045 0.332314 255 255 0 68 9
0.448463 0.713572 0.407315 255 255 0 68 9
0.479438 0.782716 0.347314 255 255 0 68 9
0.427951 0.715290 0.053315 255 255 0 68 9
0.363095 0.829560 0.338315 255 255 0 68 9
0.390305 0.711389 0.299314 255 255 0 68 9
0.346616 0.759317 0.057827 255 255 0 68 9
0.478334 0.737275 0.314314 255 255 0 68 9
0.405702 0.712520 0.170315 255 255 0 68 9
0.463705 0.713774 0.359315 255 255 0 68 9
0.363259 0.783907 0.167315 255 255 0 68 9
0.477396 0.837809 0.308315 255 255 0 68 9
0.464995 0.776008 0.432678 255 255 0 68 9
0.463706 0.713781 0.341315 255 255 0 68 9
0.475971 0.758963 0.062315 255 255 0 68 9
0.460769 0.714401 0.182315 255 255 0 68 9
0.422759 0.723559 0.155315 255 255 0 68 9
0.339768 0.845631 0.058197 255 255 0 68 9
0.465657 0.725439 0.170315 255 255 0 68 9
0.375245 0.812319 0.359315 255 255 0 68 9
0.444485 0.726153 0.218315 255 255 0 68 9
0.342207 0.805681 0.062926 255 255 0 68 9
0.296775 0.715949 0.064225 255 255 0 68 9
0.333790 0.755380 0.058049 255 255 0 68 9
0.373145 0.818754 0.143314 255 255 0 68 9
0.373534 0.785230 0.224315 255 255 0 68 9
0.441516 0.726593 0.197315 255 255 0 68 9
0.375009 0.775858 0.365314 255 255 0 68 9
0.374514 0.772899 0.209314 255 255 0 68 9
0.378117 0.757088 0.356315 255 255 0 68 9
0.429873 0.711543 0.194314 255 255 0 68 9
0.276606 0.795366 0.057857 255 255 0 68 9
0.299310 0.821984 0.058107 255 255 0 68 9
0.374143 0.806419 0.317315 255 255 0 68 9
0.480511 0.794704 0.131315 255 255 0 68 9
0.447943 0.728643 0.353315 255 255 0 68 9
0.429177 0.725560 0.320315 255 255 0 68 9
0.375577 0.760554 0.281314 255 255 0 68 9
0.377126 0.751170 0.344315 255 255 0 68 9
0.373953 0.769951 0.086314 255 255 0 68 9
0.374236 0.824655 0.227314 255 255 0 68 9
0.373160 0.800501 0.134315 255 255 0 68 9
0.374068 0.788183 0.293315 255 255 0 68 9
0.376684 0.766452 0.221315 255 255 0 68 9
0.373627 0.821715 0.074315 255 255 0 68 9
0.306382 0.718826 0.047315 255 255 0 68 9
0.374198 0.806411 0.350314 255 255 0 68 9
0.375128 0.794089 0.332314 255 255 0 68 9
0.459779 0.726671 0.158314 255 255 0 68 9
0.375159 0.794083 0.314314 255 255 0 68 9
0.456805 0.727071 0.116315 255 255 0 68 9
0.383321 0.724184 0.050315 255 255 0 68 9
0.407990 0.726184 0.422315 255 255 0 68 9
0.376119 0.781755 0.410315 255 255 0 68 9
0.376652 0.766458 0.242315 255 255 0 68 9
0.374621 0.772881 0.116315 255 255 0 68 9
0.435606 0.727625 0.386315 255 255 0 68 9
0.375693 0.778785 0.077314 255 255 0 68 9
0.450899 0.728128 0.227314 255 255 0 68 9
0.388274 0.735607 0.281314 255 255 0 68 9
0.375192 0.812328 0.194314 255 255 0 68 9
0.410944 0.725667 0.326315 255 255 0 68 9
0.459767 0.726595 0.326315 255 255 0 68 9
0.253889 0.750501 0.058077 255 255 0 68 9
0.363977 0.790359 0.275315 255 255 0 68 9
0.474199 0.849188 0.278314 255 255 0 68 9
0.262801 0.803760 0.057959 255 255 0 68 9
0.478511 0.729546 0.329314 255 255 0 68 9
0.346333 0.721271 0.056315 255 255 0 68 9
0.476938 0.816593 0.338315 255 255 0 68 9
0.361853 0.784143 0.284315 255 255 0 68 9
0.478988 0.823280 0.383314 255 255 0 68 9
0.445224 0.712398 0.225908 255 255 0 68 9
0.233226 0.826960 0.040240 255 255 0 68 9
0.232099 0.842357 0.050315 255 255 0 68 9
0.414848 0.712646 0.137315 255 255 0 68 9
0.364277 0.783738 0.305315 255 255 0 68 9
0.366469 0.828996 0.386315 255 255 0 68 9
0.480697 0.760780 0.350314 255 255 0 68 9
0.463689 0.713678 0.326315 255 255 0 68 9
0.295869 0.837769 0.057877 255 255 0 68 9
0.476474 0.743670 0.353315 255 255 0 68 9
0.323476 0.820982 0.057961 255 255 0 68 9
0.380369 0.742897 0.200315 255 255 0 68 9
0.481984 0.739706 0.203315 255 255 0 68 9
0.376637 0.748210 0.284315 255 255 0 68 9
0.369925 0.731083 0.368315 255 255 0 68 9
0.480665 0.794678 0.065315 255 255 0 68 9
0.433144 0.712908 0.275315 255 255 0 68 9
0.365212 0.744038 0.128314 255 255 0 68 9
0.479455 0.825297 0.188315 255 255 0 68 9
0.481268 0.755034 0.134315 255 255 0 68 9
0.386855 0.716083 0.254315 255 255 0 68 9
0.375314 0.839924 0.248314 255 255 0 68 9
0.480207 0.727837 0.395315 255 255 0 68 9
0.474057 0.820118 0.218315 255 255 0 68 9
0.356165 0.718177 0.053315 255 255 0 68 9
0.379286 0.718250 0.287315 255 255 0 68 9
0.473996 0.856628 0.050315 255 255 0 68 9
0.363605 0.824486 0.221315 255 255 0 68 9
0.479048 0.823638 0.140315 255 255 0 68 9
0.460777 0.714454 0.386315 255 255 0 68 9
0.474389 0.856563 0.380314 255 255 0 68 9
0.316061 0.794848 0.057932 255 255 0 68 9
0.475839 0.768110 0.432075 255 255 0 68 9
0.480743 0.724705 0.040197 255 255 0 68 9
0.365842 0.746975 0.066948 255 255 0 68 9
0.390576 0.713014 0.185315 255 255 0 68 9
0.480024 0.743076 0.368315 255 255 0 68 9
0.430244 0.711863 0.329314 255 255 0 68 9
0.371453 0.809911 0.080315 255 255 0 68 9
0.363890 0.738176 0.224315 255 255 0 68 9
0.439229 0.719486 0.071315 255 255 0 68 9
0.363364 0.802140 0.302315 255 255 0 68 9
0.475410 0.792515 0.284315 255 255 0 68 9
0.478140 0.763680 0.044315 255 255 0 68 9
0.369321 0.785935 0.432162 255 255 0 68 9
0.366882 0.825885 0.057837 255 255 0 68 9
0.315083 0.807178 0.064355 255 255 0 68 9
0.375623 0.778797 0.155315 255 255 0 68 9
0.274649 0.820028 0.057864 255 255 0 68 9
0.462990 0.727676 0.363804 255 255 0 68 9
0.392688 0.725632 0.296314 255 255 0 68 9
0.375009 0.757608 0.299314 255 255 0 68 9
0.475368 0.801647 0.294770 255 255 0 68 9
0.417756 0.711837 0.428315 255 255 0 68 9
0.423884 0.712108 0.338315 255 255 0 68 9
0.481045 0.785489 0.176314 255 255 0 68 9
0.376205 0.754366 0.420861 255 255 0 68 9
0.434887 0.741504 0.430912 255 255 0 68 9
0.390713 0.732006 0.227314 255 255 0 68 9
0.376084 0.763511 0.164315 255 255 0 68 9
0.379094 0.744757 0.176314 255 255 0 68 9
0.474633 0.838271 0.413314 255 255 0 68 9
0.472097 0.727567 0.338315 255 255 0 68 9
0.459767 0.726591 0.242315 255 255 0 68 9
0.364674 0.768462 0.311314 255 255 0 68 9
0.469139 0.728072 0.392315 255 255 0 68 9
0.377921 0.746448 0.251315 255 255 0 68 9
0.458573 0.728415 0.296314 255 255 0 68 9
0.441349 0.713047 0.128314 255 255 0 68 9
0.447443 0.725657 0.164315 255 255 0 68 9
0.475565 0.730117 0.377315 255 255 0 68 9
0.474454 0.841343 0.080315 255 255 0 68 9
0.415665 0.726470 0.068314 255 255 0 68 9
0.362090 0.787145 0.266315 255 255 0 68 9
0.435613 0.727671 0.179314 255 255 0 68 9
0.245432 0.782333 0.047315 255 255 0 68 9
0.441531 0.726680 0.242315 255 255 0 68 9
0.377159 0.769415 0.290315 255 255 0 68 9
0.375003 0.801712 0.371315 255 255 0 68 9
0.376219 0.799989 0.281314 255 255 0 68 9
0.379810 0.721376 0.377315 255 255 0 68 9
0.376936 0.758738 0.392315 255 255 0 68 9
0.417795 0.712074 0.266315 255 255 0 68 9
0.384564 0.740800 0.377315 255 255 0 68 9
0.450896 0.728115 0.302315 255 255 0 68 9
0.261304 0.776635 0.064884 255 255 0 68 9
0.442141 0.715956 0.056315 255 255 0 68 9
0.373753 0.776069 0.057911 255 255 0 68 9
0.362662 0.771841 0.257315 255 255 0 68 9
0.268224 0.799811 0.064970 255 255 0 68 9
0.480886 0.782474 0.425315 255 255 0 68 9
0.393256 0.710852 0.311314 255 255 0 68 9
0.473015 0.714881 0.290315 255 255 0 68 9
0.246362 0.715260 0.056315 255 255 0 68 9
0.480572 0.742984 0.269315 255 255 0 68 9
0.478587 0.748171 0.395315 255 255 0 68 9
0.310663 0.835293 0.065064 255 255 0 68 9
0.387029 0.737346 0.164315 255 255 0 68 9
0.411699 0.730176 0.430135 255 255 0 68 9
0.463694 0.713704 0.227314 255 255 0 68 9
0.482278 0.748782 0.077314 255 255 0 68 9
0.356447 0.709005 0.065497 255 255 0 68 9
0.355058 0.846115 0.064360 255 255 0 68 9
0.362264 0.814491 0.119315 255 255 0 68 9
0.478128 0.849853 0.299314 255 255 0 68 9
0.478201 0.825507 0.359315 255 255 0 68 9
0.234744 0.768913 0.062315 255 255 0 68 9
0.362466 0.796207 0.410315 255 255 0 68 9
0.482002 0.732230 0.188315 255 255 0 68 9
0.371558 0.835657 0.182315 255 255 0 68 9
0.248455 0.736201 0.063946 255 255 0 68 9
0.371325 0.834267 0.375898 255 255 0 68 9
0.483266 0.812493 0.431753 255 255 0 68 9
0.339696 0.736142 0.064592 255 255 0 68 9
0.363977 0.786829 0.314314 255 255 0 68 9
0.455963 0.713643 0.086314 255 255 0 68 9
0.477221 0.746587 0.248314 255 255 0 68 9
0.364128 0.741178 0.281314 255 255 0 68 9
0.378628 0.723543 0.152315 255 255 0 68 9
0.363842 0.741226 0.356315 255 255 0 68 9
0.457446 0.712723 0.125314 255 255 0 68 9
0.482523 0.754825 0.425315 255 255 0 68 9
0.301229 0.706216 0.053315 255 255 0 68 9
0.377911 0.746384 0.326315 255 255 0 68 9
0.235218 0.787084 0.062315 255 255 0 68 9
0.332159 0.800165 0.065315 255 255 0 68 9
0.476759 0.780122 0.329314 255 255 0 68 9
0.285024 0.845667 0.061303 255 255 0 68 9
0.479411 0.813137 0.110314 255 255 0 68 9
0.295325 0.761817 0.057836 255 255 0 68 9
0.476325 0.777154 0.083315 255 255 0 68 9
0.374581 0.726485 0.197315 255 255 0 68 9
0.351048 0.749451 0.057847 255 255 0 68 9
0.276123 0.810656 0.063982 255 255 0 68 9
0.291094 0.718354 0.056315 255 255 0 68 9
0.366628 0.733494 0.416314 255 255 0 68 9
0.340722 0.796804 0.064206 255 255 0 68 9
0.412234 0.711836 0.353315 255 255 0 68 9
0.479528 0.819201 0.275315 255 255 0 68 9
0.316544 0.779558 0.064019 255 255 0 68 9
0.453183 0.814486 0.430330 255 255 0 68 9
0.480500 0.749080 0.335315 255 255 0 68 9
0.414823 0.712492 0.221315 255 255 0 68 9
0.482094 0.739688 0.236315 255 255 0 68 9
0.396139 0.728073 0.416314 255 255 0 68 9
0.396655 0.731157 0.095315 255 255 0 68 9
0.479092 0.823897 0.062315 255 255 0 68 9
0.481279 0.782436 0.185315 255 255 0 68 9
0.439330 0.713528 0.239315 255 255 0 68 9
0.430072 0.712736 0.347314 255 255 0 68 9
0.344659 0.783978 0.057833 255 255 0 68 9
0.431622 0.721995 0.152315 255 255 0 68 9
0.390715 0.732021 0.152315 255 255 0 68 9
0.482546 0.715278 0.275315 255 255 0 68 9
0.482082 0.736648 0.119315 255 255 0 68 9
0.479716 0.794836 0.215315 255 255 0 68 9
0.486013 0.726865 0.344315 255 255 0 68 9
0.354031 0.785452 0.057851 255 255 0 68 9
0.236691 0.847672 0.063507 255 255 0 68 9
0.462712 0.726017 0.224315 255 255 0 68 9
0.316532 0.761310 0.064899 255 255 0 68 9
0.369319 0.731395 0.215315 255 255 0 68 9
0.372576 0.815807 0.161314 255 255 0 68 9
0.474039 0.838370 0.425315 255 255 0 68 9
0.374562 0.791141 0.383314 255 255 0 68 9
0.403372 0.725486 0.257315 255 255 0 68 9
0.394827 0.729958 0.140315 255 255 0 68 9
0.371852 0.728359 0.401314 255 255 0 68 9
0.373618 0.803467 0.212314 255 255 0 68 9
0.323923 0.750948 0.064829 255 255 0 68 9
0.382116 0.744251 0.278314 255 255 0 68 9
0.453859 0.727638 0.380314 255 255 0 68 9
0.327413 0.808157 0.058095 255 255 0 68 9
0.374568 0.791140 0.413314 255 255 0 68 9
0.375175 0.812331 0.338315 255 255 0 68 9
0.377911 0.746383 0.293315 255 255 0 68 9
0.462723 0.726082 0.131315 255 255 0 68 9
0.373682 0.821706 0.341315 255 255 0 68 9
0.376117 0.763506 0.377315 255 255 0 68 9
0.417645 0.711181 0.248314 255 255 0 68 9
0.393688 0.731609 0.179314 255 255 0 68 9
0.332972 0.819393 0.062315 255 255 0 68 9
0.362787 0.783248 0.185315 255 255 0 68 9
0.404523 0.723647 0.224315 255 255 0 68 9
0.413897 0.725132 0.290315 255 255 0 68 9
0.366757 0.831990 0.359315 255 255 0 68 9
0.477344 0.767858 0.338315 255 255 0 68 9
0.251449 0.790451 0.064088 255 255 0 68 9
0.414163 0.726722 0.243814 255 255 0 68 9
0.372751 0.751902 0.431741 255 255 0 68 9
0.411569 0.711220 0.419315 255 255 0 68 9
0.431648 0.722152 0.101315 255 255 0 68 9
0.408655 0.711989 0.245314 255 255 0 68 9
0.488631 0.723385 0.197315 255 255 0 68 9
0.488927 0.723336 0.233315 255 255 0 68 9
0.373663 0.803459 0.119315 255 255 0 68 9
0.289443 0.817552 0.064104 255 255 0 68 9
0.345451 0.832514 0.059315 255 255 0 68 9
0.367859 0.813555 0.432613 255 255 0 68 9
0.484214 0.718041 0.302315 255 255 0 68 9
0.447440 0.725637 0.146315 255 255 0 68 9
0.379097 0.744757 0.407315 255 255 0 68 9
0.323440 0.766238 0.057883 255 255 0 68 9
0.255882 0.780584 0.057829 255 255 0 68 9
0.348101 0.768194 0.058051 255 255 0 68 9
0.365816 0.826064 0.200315 255 255 0 68 9
0.364976 0.750162 0.383314 255 255 0 68 9
