ply
format ascii 1.0
element vertex 1109
property float x
property float y
property float z
property uchar red
property uchar green
property uchar blue
property uchar semantic_label
property uchar instance_label
end_header
0.103025 -0.137138 -0.219074 0 255 0 46 19
0.106815 -0.263691 -0.261074 0 255 0 46 19
0.086259 -0.237852 -0.253555 0 255 0 46 19
0.224588 -0.135373 -0.199147 0 255 0 46 19
0.146266 -0.287412 -0.265555 0 255 0 46 19
0.241024 -0.166470 -0.207074 0 255 0 46 19
0.291777 -0.201794 -0.294074 0 255 0 46 19
0.087991 -0.215271 -0.228074 0 255 0 46 19
0.262878 -0.229389 -0.229531 0 255 0 46 19
0.123475 -0.199758 -0.201074 0 255 0 46 19
0.097230 -0.157375 -0.214348 0 255 0 46 19
0.272422 -0.242202 -0.264074 0 255 0 46 19
0.106914 -0.205439 -0.210074 0 255 0 46 19
0.187901 -0.250256 -0.205487 0 255 0 46 19
0.231713 -0.202858 -0.201074 0 255 0 46 19
0.284411 -0.200228 -0.262557 0 255 0 46 19
0.110145 -0.183190 -0.204074 0 255 0 46 19
0.156921 -0.208425 -0.195074 0 255 0 46 19
0.275097 -0.143042 -0.277584 0 255 0 46 19
0.077436 -0.199173 -0.237074 0 255 0 46 19
0.223387 -0.162721 -0.201074 0 255 0 46 19
0.231081 -0.256367 -0.225074 0 255 0 46 19
0.195272 -0.273292 -0.204274 0 255 0 46 19
0.252304 -0.270079 -0.231074 0 255 0 46 19
0.221059 -0.281840 -0.259537 0 255 0 46 19
0.113237 -0.219051 -0.210074 0 255 0 46 19
0.269852 -0.138860 -0.268566 0 255 0 46 19
0.205947 -0.266360 -0.220483 0 255 0 46 19
0.233609 -0.244637 -0.216074 0 255 0 46 19
0.219811 -0.287709 -0.274559 0 255 0 46 19
0.264242 -0.237402 -0.240074 0 255 0 46 19
0.093768 -0.224114 -0.228074 0 255 0 46 19
0.249311 -0.134494 -0.232565 0 255 0 46 19
0.273183 -0.231579 -0.252074 0 255 0 46 19
0.079820 -0.210425 -0.240074 0 255 0 46 19
0.074889 -0.204766 -0.217436 0 255 0 46 19
0.159993 -0.294979 -0.282074 0 255 0 46 19
0.221760 -0.307401 -0.294074 0 255 0 46 19
0.177704 -0.291027 -0.258074 0 255 0 46 19
0.082822 -0.254022 -0.306074 0 255 0 46 19
0.190282 -0.296768 -0.277574 0 255 0 46 19
0.161295 -0.238467 -0.201074 0 255 0 46 19
0.130654 -0.198217 -0.189074 0 255 0 46 19
0.127740 -0.237469 -0.210074 0 255 0 46 19
0.188695 -0.159942 -0.195074 0 255 0 46 19
0.156734 -0.223734 -0.198074 0 255 0 46 19
0.006837 -0.113625 -0.309074 0 255 0 46 19
0.089782 -0.278473 -0.291074 0 255 0 46 19
0.281386 -0.236390 -0.288074 0 255 0 46 19
0.166863 -0.262654 -0.216074 0 255 0 46 19
0.278982 -0.211343 -0.250561 0 255 0 46 19
0.218110 -0.209135 -0.198074 0 255 0 46 19
0.023933 -0.112625 -0.309074 0 255 0 46 19
0.110089 -0.288923 -0.267074 0 255 0 46 19
0.038031 -0.089585 -0.310441 0 255 0 46 19
0.239218 -0.239695 -0.217527 0 255 0 46 19
0.213650 -0.283333 -0.219074 0 255 0 46 19
0.273155 -0.108892 -0.307409 0 255 0 46 19
0.154187 -0.141878 -0.198074 0 255 0 46 19
0.208728 -0.260817 -0.216074 0 255 0 46 19
0.061535 -0.238731 -0.281234 0 255 0 46 19
0.261701 -0.278211 -0.310457 0 255 0 46 19
0.184957 -0.212826 -0.186074 0 255 0 46 19
0.053101 -0.206268 -0.307473 0 255 0 46 19
0.234044 -0.278466 -0.265559 0 255 0 46 19
0.064004 -0.190184 -0.264074 0 255 0 46 19
0.083494 -0.149852 -0.234074 0 255 0 46 19
0.104376 -0.296910 -0.306561 0 255 0 46 19
0.163844 -0.146998 -0.196525 0 255 0 46 19
0.059267 -0.133970 -0.307461 0 255 0 46 19
0.188340 -0.262618 -0.197013 0 255 0 46 19
0.190066 -0.240068 -0.201074 0 255 0 46 19
0.070381 -0.211545 -0.261074 0 255 0 46 19
0.069062 -0.093114 -0.303074 0 255 0 46 19
0.175071 -0.094178 -0.235387 0 255 0 46 19
0.236788 -0.294415 -0.267074 0 255 0 46 19
0.082006 -0.200144 -0.210524 0 255 0 46 19
0.235731 -0.284959 -0.239733 0 255 0 46 19
0.252501 -0.162776 -0.217484 0 255 0 46 19
0.236255 -0.094915 -0.310355 0 255 0 46 19
0.256001 -0.247312 -0.213074 0 255 0 46 19
0.142055 -0.148501 -0.199569 0 255 0 46 19
0.213219 -0.182029 -0.195074 0 255 0 46 19
0.274221 -0.118307 -0.279074 0 255 0 46 19
0.222206 -0.088862 -0.310558 0 255 0 46 19
0.166771 -0.219801 -0.195074 0 255 0 46 19
0.125387 -0.132690 -0.207074 0 255 0 46 19
0.210200 -0.304068 -0.310191 0 255 0 46 19
0.142381 -0.219112 -0.199504 0 255 0 46 19
0.191861 -0.188337 -0.186074 0 255 0 46 19
0.151482 -0.147437 -0.190687 0 255 0 46 19
0.290719 -0.213837 -0.240262 0 255 0 46 19
-0.041142 -0.202339 -0.300074 0 255 0 46 19
0.210039 -0.102817 -0.231074 0 255 0 46 19
0.091463 -0.263495 -0.306074 0 255 0 46 19
0.104401 -0.123640 -0.222074 0 255 0 46 19
0.113407 -0.138988 -0.204074 0 255 0 46 19
0.195938 -0.169155 -0.193445 0 255 0 46 19
0.185477 -0.304947 -0.256408 0 255 0 46 19
0.249281 -0.149063 -0.204074 0 255 0 46 19
0.263427 -0.197947 -0.204074 0 255 0 46 19
0.242159 -0.298005 -0.294074 0 255 0 46 19
0.200262 -0.249817 -0.193943 0 255 0 46 19
0.056660 -0.167154 -0.306074 0 255 0 46 19
0.280832 -0.217066 -0.222074 0 255 0 46 19
0.132249 -0.108062 -0.225074 0 255 0 46 19
-0.038822 -0.191426 -0.306074 0 255 0 46 19
0.167147 -0.117030 -0.208519 0 255 0 46 19
0.134334 -0.235803 -0.192074 0 255 0 46 19
0.124406 -0.245961 -0.199310 0 255 0 46 19
0.013748 -0.102826 -0.310571 0 255 0 46 19
0.079122 -0.162727 -0.237074 0 255 0 46 19
0.180940 -0.095425 -0.221979 0 255 0 46 19
0.188680 -0.087870 -0.253257 0 255 0 46 19
0.194180 -0.119709 -0.200023 0 255 0 46 19
0.179516 -0.138061 -0.198074 0 255 0 46 19
0.282865 -0.126291 -0.282074 0 255 0 46 19
-0.034421 -0.170720 -0.306074 0 255 0 46 19
0.160229 -0.201436 -0.186074 0 255 0 46 19
0.159521 -0.095188 -0.234074 0 255 0 46 19
0.058459 -0.152201 -0.288740 0 255 0 46 19
0.269466 -0.264526 -0.252074 0 255 0 46 19
0.016498 -0.118746 -0.307215 0 255 0 46 19
0.301762 -0.176313 -0.310422 0 255 0 46 19
0.014400 -0.244048 -0.307262 0 255 0 46 19
0.218280 -0.121764 -0.203350 0 255 0 46 19
0.127454 -0.188335 -0.199556 0 255 0 46 19
0.049614 -0.251532 -0.307196 0 255 0 46 19
0.103847 -0.174117 -0.198074 0 255 0 46 19
0.302457 -0.216332 -0.283476 0 255 0 46 19
0.215392 -0.106493 -0.216074 0 255 0 46 19
0.223185 -0.300694 -0.310398 0 255 0 46 19
0.204780 -0.098698 -0.222074 0 255 0 46 19
0.156501 -0.268118 -0.223558 0 255 0 46 19
0.133821 -0.180488 -0.189074 0 255 0 46 19
0.243994 -0.116221 -0.246074 0 255 0 46 19
0.277733 -0.145069 -0.291074 0 255 0 46 19
0.004054 -0.257184 -0.300074 0 255 0 46 19
0.082800 -0.268552 -0.285074 0 255 0 46 19
0.091665 -0.154698 -0.222074 0 255 0 46 19
0.063817 -0.171742 -0.246074 0 255 0 46 19
0.004094 -0.220388 -0.307355 0 255 0 46 19
0.270292 -0.151222 -0.220443 0 255 0 46 19
0.151922 -0.159799 -0.193332 0 255 0 46 19
0.284524 -0.141979 -0.307183 0 255 0 46 19
0.070933 -0.167120 -0.234074 0 255 0 46 19
0.274361 -0.261940 -0.261074 0 255 0 46 19
0.245902 -0.228847 -0.198074 0 255 0 46 19
0.082735 -0.225572 -0.219074 0 255 0 46 19
0.056969 -0.179487 -0.291074 0 255 0 46 19
0.270441 -0.273935 -0.282074 0 255 0 46 19
-0.023475 -0.133650 -0.303074 0 255 0 46 19
0.253833 -0.271941 -0.300074 0 255 0 46 19
0.014416 -0.136705 -0.300074 0 255 0 46 19
0.148690 -0.232720 -0.202569 0 255 0 46 19
0.011026 -0.231062 -0.307441 0 255 0 46 19
0.299267 -0.188051 -0.257077 0 255 0 46 19
0.278098 -0.128924 -0.258074 0 255 0 46 19
0.074860 -0.233761 -0.237074 0 255 0 46 19
0.218888 -0.266044 -0.219074 0 255 0 46 19
0.268491 -0.202979 -0.229561 0 255 0 46 19
0.014470 -0.280867 -0.309074 0 255 0 46 19
0.143813 -0.197947 -0.193292 0 255 0 46 19
0.122475 -0.283905 -0.303074 0 255 0 46 19
0.146819 -0.241524 -0.202295 0 255 0 46 19
0.252598 -0.119030 -0.228074 0 255 0 46 19
0.275690 -0.235179 -0.225074 0 255 0 46 19
0.221297 -0.237432 -0.207074 0 255 0 46 19
0.102405 -0.118604 -0.227511 0 255 0 46 19
0.089411 -0.244657 -0.261074 0 255 0 46 19
0.281545 -0.221088 -0.264074 0 255 0 46 19
0.125383 -0.284655 -0.282074 0 255 0 46 19
0.178034 -0.238958 -0.199489 0 255 0 46 19
0.157674 -0.291456 -0.267074 0 255 0 46 19
0.277651 -0.159885 -0.225074 0 255 0 46 19
0.222490 -0.260675 -0.202380 0 255 0 46 19
0.293328 -0.180655 -0.303074 0 255 0 46 19
0.278669 -0.220477 -0.252074 0 255 0 46 19
0.255704 -0.263140 -0.270074 0 255 0 46 19
0.279166 -0.196047 -0.247560 0 255 0 46 19
0.248135 -0.183317 -0.208544 0 255 0 46 19
0.215529 -0.105845 -0.235509 0 255 0 46 19
0.141312 -0.281861 -0.252074 0 255 0 46 19
0.159557 -0.282598 -0.243074 0 255 0 46 19
0.220872 -0.275667 -0.243074 0 255 0 46 19
0.099744 -0.286724 -0.291074 0 255 0 46 19
0.199303 -0.110039 -0.219074 0 255 0 46 19
0.178581 -0.120954 -0.207074 0 255 0 46 19
0.213720 -0.085498 -0.306074 0 255 0 46 19
0.145860 -0.274893 -0.210074 0 255 0 46 19
0.275948 -0.247502 -0.294074 0 255 0 46 19
0.267663 -0.156797 -0.240074 0 255 0 46 19
0.174598 -0.255125 -0.207074 0 255 0 46 19
0.281037 -0.187243 -0.253555 0 255 0 46 19
0.274778 -0.195114 -0.240074 0 255 0 46 19
0.274592 -0.210410 -0.243074 0 255 0 46 19
0.279355 -0.159282 -0.270074 0 255 0 46 19
0.272719 -0.219212 -0.240074 0 255 0 46 19
0.157309 -0.249888 -0.208549 0 255 0 46 19
0.224450 -0.129210 -0.216074 0 255 0 46 19
0.244031 -0.108836 -0.270074 0 255 0 46 19
0.169476 -0.207075 -0.186074 0 255 0 46 19
0.163731 -0.277389 -0.231074 0 255 0 46 19
0.152474 -0.113911 -0.211314 0 255 0 46 19
0.119544 -0.294000 -0.267074 0 255 0 46 19
0.087492 -0.253450 -0.279074 0 255 0 46 19
0.068576 -0.212625 -0.273074 0 255 0 46 19
0.172236 -0.280664 -0.232478 0 255 0 46 19
0.234781 -0.217282 -0.205564 0 255 0 46 19
0.139451 -0.151014 -0.192074 0 255 0 46 19
0.150193 -0.254509 -0.208355 0 255 0 46 19
0.216916 -0.113751 -0.225074 0 255 0 46 19
0.097485 -0.257182 -0.261074 0 255 0 46 19
0.237654 -0.102761 -0.267074 0 255 0 46 19
0.220406 -0.140619 -0.208546 0 255 0 46 19
0.092637 -0.180935 -0.204074 0 255 0 46 19
0.292375 -0.165117 -0.285074 0 255 0 46 19
0.274276 -0.139801 -0.297074 0 255 0 46 19
0.252265 -0.257803 -0.252074 0 255 0 46 19
0.179466 -0.217793 -0.186693 0 255 0 46 19
0.120409 -0.235910 -0.211430 0 255 0 46 19
0.159378 -0.153577 -0.189074 0 255 0 46 19
0.191195 -0.082270 -0.273074 0 255 0 46 19
0.082205 -0.249259 -0.285074 0 255 0 46 19
0.072350 -0.237963 -0.303074 0 255 0 46 19
0.092142 -0.260572 -0.294074 0 255 0 46 19
0.252572 -0.205729 -0.211466 0 255 0 46 19
0.060777 -0.177230 -0.285074 0 255 0 46 19
0.174084 -0.075566 -0.303074 0 255 0 46 19
0.068313 -0.227904 -0.291074 0 255 0 46 19
0.029806 -0.133842 -0.300074 0 255 0 46 19
0.141634 -0.166813 -0.189074 0 255 0 46 19
0.221799 -0.292786 -0.303074 0 255 0 46 19
0.242935 -0.173010 -0.195074 0 255 0 46 19
0.249814 -0.117698 -0.258074 0 255 0 46 19
0.002202 -0.272575 -0.303074 0 255 0 46 19
0.202757 -0.238079 -0.190059 0 255 0 46 19
0.281201 -0.150474 -0.303074 0 255 0 46 19
0.087969 -0.273093 -0.276074 0 255 0 46 19
0.199740 -0.122411 -0.210074 0 255 0 46 19
0.219217 -0.218358 -0.189074 0 255 0 46 19
0.178027 -0.080270 -0.270074 0 255 0 46 19
0.207605 -0.128696 -0.196838 0 255 0 46 19
0.129694 -0.148940 -0.192871 0 255 0 46 19
0.099939 -0.274497 -0.248481 0 255 0 46 19
0.244321 -0.157970 -0.196548 0 255 0 46 19
0.103978 -0.183345 -0.197000 0 255 0 46 19
0.090019 -0.183445 -0.216074 0 255 0 46 19
0.289154 -0.182835 -0.234074 0 255 0 46 19
0.093903 -0.239477 -0.216074 0 255 0 46 19
0.051640 -0.083277 -0.307656 0 255 0 46 19
0.274034 -0.133615 -0.307541 0 255 0 46 19
0.283478 -0.178561 -0.225074 0 255 0 46 19
0.197687 -0.080583 -0.285074 0 255 0 46 19
0.264309 -0.208224 -0.204626 0 255 0 46 19
0.111492 -0.292288 -0.280226 0 255 0 46 19
0.293027 -0.235797 -0.267074 0 255 0 46 19
0.133507 -0.174287 -0.196317 0 255 0 46 19
0.272673 -0.197734 -0.210189 0 255 0 46 19
0.237900 -0.130463 -0.222074 0 255 0 46 19
0.145854 -0.225984 -0.189074 0 255 0 46 19
0.069069 -0.221931 -0.240074 0 255 0 46 19
0.177127 -0.300945 -0.243074 0 255 0 46 19
0.164028 -0.131702 -0.199352 0 255 0 46 19
0.175221 -0.107901 -0.216074 0 255 0 46 19
0.112952 -0.295666 -0.294074 0 255 0 46 19
-0.011344 -0.134297 -0.307486 0 255 0 46 19
0.054760 -0.218889 -0.288074 0 255 0 46 19
0.091801 -0.168489 -0.217283 0 255 0 46 19
0.290449 -0.222981 -0.243074 0 255 0 46 19
0.267283 -0.273263 -0.267074 0 255 0 46 19
0.103864 -0.207857 -0.198074 0 255 0 46 19
0.210515 -0.255063 -0.198074 0 255 0 46 19
0.195164 -0.302662 -0.246074 0 255 0 46 19
0.189375 -0.127888 -0.202390 0 255 0 46 19
0.217970 -0.308787 -0.300074 0 255 0 46 19
0.159493 -0.282898 -0.213074 0 255 0 46 19
0.074251 -0.251057 -0.264074 0 255 0 46 19
0.059989 -0.220001 -0.264074 0 255 0 46 19
0.244757 -0.259274 -0.213074 0 255 0 46 19
0.271487 -0.139208 -0.231074 0 255 0 46 19
0.081740 -0.259112 -0.255074 0 255 0 46 19
0.086372 -0.266178 -0.267074 0 255 0 46 19
0.102802 -0.232168 -0.204932 0 255 0 46 19
0.249524 -0.263355 -0.219673 0 255 0 46 19
-0.035235 -0.227363 -0.303074 0 255 0 46 19
0.083295 -0.093073 -0.306841 0 255 0 46 19
0.247974 -0.126354 -0.237074 0 255 0 46 19
0.297141 -0.169197 -0.307220 0 255 0 46 19
0.279030 -0.124538 -0.306074 0 255 0 46 19
0.078518 -0.245408 -0.241898 0 255 0 46 19
0.279367 -0.177687 -0.219074 0 255 0 46 19
0.097091 -0.186891 -0.201074 0 255 0 46 19
0.033552 -0.168376 -0.303982 0 255 0 46 19
0.254666 -0.261380 -0.258074 0 255 0 46 19
0.303977 -0.194754 -0.279074 0 255 0 46 19
0.297973 -0.227647 -0.306074 0 255 0 46 19
0.150787 -0.107418 -0.217155 0 255 0 46 19
0.245425 -0.095057 -0.291074 0 255 0 46 19
0.133973 -0.300134 -0.267074 0 255 0 46 19
0.245016 -0.197989 -0.205397 0 255 0 46 19
0.016535 -0.248433 -0.300074 0 255 0 46 19
0.236967 -0.098133 -0.249074 0 255 0 46 19
0.238292 -0.099758 -0.279074 0 255 0 46 19
0.225930 -0.100199 -0.255074 0 255 0 46 19
0.241718 -0.098069 -0.255074 0 255 0 46 19
0.269923 -0.181814 -0.209585 0 255 0 46 19
0.193859 -0.077935 -0.303074 0 255 0 46 19
0.205622 -0.080307 -0.303074 0 255 0 46 19
0.245753 -0.136805 -0.223403 0 255 0 46 19
0.129467 -0.265439 -0.232517 0 255 0 46 19
0.024184 -0.252261 -0.300074 0 255 0 46 19
0.119958 -0.295747 -0.276074 0 255 0 46 19
0.242062 -0.277104 -0.276074 0 255 0 46 19
0.105113 -0.235726 -0.223507 0 255 0 46 19
-0.031537 -0.157153 -0.300074 0 255 0 46 19
0.184208 -0.310916 -0.279074 0 255 0 46 19
0.063440 -0.190064 -0.240074 0 255 0 46 19
0.161161 -0.308980 -0.309074 0 255 0 46 19
0.256068 -0.240209 -0.231074 0 255 0 46 19
0.196569 -0.151760 -0.189074 0 255 0 46 19
0.107055 -0.269876 -0.277568 0 255 0 46 19
0.305576 -0.201660 -0.282962 0 255 0 46 19
0.262190 -0.117190 -0.300074 0 255 0 46 19
0.058415 -0.231934 -0.294074 0 255 0 46 19
0.137573 -0.123012 -0.204074 0 255 0 46 19
0.067220 -0.255275 -0.300531 0 255 0 46 19
0.093120 -0.205574 -0.220472 0 255 0 46 19
0.298020 -0.193920 -0.252377 0 255 0 46 19
0.073348 -0.296449 -0.303074 0 255 0 46 19
0.236539 -0.266728 -0.214667 0 255 0 46 19
0.061497 -0.198852 -0.249074 0 255 0 46 19
0.194129 -0.293099 -0.261074 0 255 0 46 19
0.037931 -0.261317 -0.300074 0 255 0 46 19
0.264514 -0.272675 -0.258074 0 255 0 46 19
0.124329 -0.275182 -0.255074 0 255 0 46 19
0.195361 -0.310115 -0.282074 0 255 0 46 19
0.185816 -0.130199 -0.193679 0 255 0 46 19
0.292128 -0.226405 -0.252074 0 255 0 46 19
0.243342 -0.263581 -0.249074 0 255 0 46 19
0.233094 -0.189321 -0.201074 0 255 0 46 19
0.282919 -0.138571 -0.258074 0 255 0 46 19
0.184277 -0.281732 -0.210074 0 255 0 46 19
0.183583 -0.089853 -0.246074 0 255 0 46 19
0.170395 -0.090117 -0.240074 0 255 0 46 19
0.230160 -0.282308 -0.270074 0 255 0 46 19
0.078929 -0.270032 -0.300074 0 255 0 46 19
0.088962 -0.297280 -0.306074 0 255 0 46 19
0.063511 -0.248352 -0.300074 0 255 0 46 19
0.089705 -0.260054 -0.243074 0 255 0 46 19
0.124086 -0.247470 -0.219074 0 255 0 46 19
0.261857 -0.118759 -0.240332 0 255 0 46 19
0.205763 -0.281656 -0.214761 0 255 0 46 19
0.274742 -0.265648 -0.267074 0 255 0 46 19
0.261748 -0.249133 -0.252074 0 255 0 46 19
0.260638 -0.268784 -0.304566 0 255 0 46 19
0.226204 -0.098913 -0.238834 0 255 0 46 19
0.065596 -0.169053 -0.267074 0 255 0 46 19
0.171952 -0.108850 -0.208829 0 255 0 46 19
0.127780 -0.258946 -0.200510 0 255 0 46 19
0.058162 -0.225746 -0.278081 0 255 0 46 19
0.204926 -0.155730 -0.196429 0 255 0 46 19
0.263198 -0.170167 -0.204074 0 255 0 46 19
0.138287 -0.296089 -0.249074 0 255 0 46 19
0.295800 -0.150510 -0.282074 0 255 0 46 19
0.076784 -0.159163 -0.243074 0 255 0 46 19
0.182465 -0.095750 -0.234074 0 255 0 46 19
0.286340 -0.162294 -0.303074 0 255 0 46 19
0.233023 -0.167836 -0.191716 0 255 0 46 19
0.295306 -0.163399 -0.261074 0 255 0 46 19
0.098127 -0.280246 -0.267074 0 255 0 46 19
0.267194 -0.233373 -0.216074 0 255 0 46 19
0.303201 -0.212832 -0.306074 0 255 0 46 19
0.195560 -0.202812 -0.186074 0 255 0 46 19
0.161707 -0.286911 -0.219074 0 255 0 46 19
0.173115 -0.305387 -0.257161 0 255 0 46 19
0.232321 -0.302636 -0.294074 0 255 0 46 19
0.137463 -0.285540 -0.225220 0 255 0 46 19
-0.032069 -0.145227 -0.301946 0 255 0 46 19
0.205899 -0.309874 -0.291074 0 255 0 46 19
0.132792 -0.256945 -0.222074 0 255 0 46 19
0.264445 -0.106583 -0.285074 0 255 0 46 19
0.172724 -0.119648 -0.198074 0 255 0 46 19
0.058774 -0.176804 -0.258074 0 255 0 46 19
0.099969 -0.194761 -0.213074 0 255 0 46 19
0.253677 -0.113953 -0.274533 0 255 0 46 19
0.105877 -0.143878 -0.207074 0 255 0 46 19
0.129722 -0.293096 -0.248491 0 255 0 46 19
0.258439 -0.134840 -0.246074 0 255 0 46 19
0.175038 -0.137618 -0.192074 0 255 0 46 19
0.305576 -0.201660 -0.303368 0 255 0 46 19
0.276487 -0.223080 -0.219167 0 255 0 46 19
0.249990 -0.254252 -0.240074 0 255 0 46 19
0.233913 -0.272304 -0.249074 0 255 0 46 19
0.236099 -0.254367 -0.204811 0 255 0 46 19
0.229153 -0.085037 -0.279074 0 255 0 46 19
0.250885 -0.127087 -0.246074 0 255 0 46 19
0.213980 -0.271135 -0.207074 0 255 0 46 19
0.160797 -0.305624 -0.261074 0 255 0 46 19
0.263246 -0.198797 -0.220537 0 255 0 46 19
0.100654 -0.213417 -0.201074 0 255 0 46 19
0.260567 -0.225831 -0.204974 0 255 0 46 19
0.122626 -0.283196 -0.234074 0 255 0 46 19
0.204116 -0.159540 -0.189074 0 255 0 46 19
0.083402 -0.200441 -0.228074 0 255 0 46 19
0.224985 -0.248938 -0.214510 0 255 0 46 19
0.158967 -0.112224 -0.214553 0 255 0 46 19
0.263503 -0.140578 -0.219074 0 255 0 46 19
0.138577 -0.265868 -0.204074 0 255 0 46 19
0.067702 -0.166434 -0.240278 0 255 0 46 19
0.137647 -0.270245 -0.232518 0 255 0 46 19
0.249340 -0.278650 -0.243981 0 255 0 46 19
0.030122 -0.285514 -0.309074 0 255 0 46 19
0.199106 -0.284113 -0.216074 0 255 0 46 19
0.268830 -0.255190 -0.237074 0 255 0 46 19
0.242955 -0.279829 -0.237074 0 255 0 46 19
0.126936 -0.163689 -0.192074 0 255 0 46 19
0.077824 -0.125647 -0.273074 0 255 0 46 19
0.282920 -0.156973 -0.285074 0 255 0 46 19
0.284142 -0.224707 -0.231074 0 255 0 46 19
0.251819 -0.101290 -0.264074 0 255 0 46 19
0.290648 -0.170884 -0.304626 0 255 0 46 19
0.003697 -0.106824 -0.304783 0 255 0 46 19
0.260313 -0.126020 -0.267074 0 255 0 46 19
0.162309 -0.298510 -0.306074 0 255 0 46 19
0.086187 -0.194899 -0.206617 0 255 0 46 19
0.147485 -0.137387 -0.199505 0 255 0 46 19
0.064416 -0.217875 -0.303074 0 255 0 46 19
0.116085 -0.155249 -0.196530 0 255 0 46 19
0.252594 -0.202667 -0.198074 0 255 0 46 19
0.277408 -0.146601 -0.233524 0 255 0 46 19
0.089675 -0.149635 -0.226507 0 255 0 46 19
0.259147 -0.102650 -0.297074 0 255 0 46 19
0.099725 -0.145637 -0.217500 0 255 0 46 19
0.275358 -0.271678 -0.297074 0 255 0 46 19
0.284368 -0.215554 -0.228074 0 255 0 46 19
0.232467 -0.285885 -0.285074 0 255 0 46 19
0.180611 -0.313409 -0.294074 0 255 0 46 19
0.238481 -0.300879 -0.306984 0 255 0 46 19
0.110358 -0.239908 -0.203071 0 255 0 46 19
0.183068 -0.074409 -0.294074 0 255 0 46 19
0.036760 -0.095449 -0.303074 0 255 0 46 19
0.200753 -0.088786 -0.261074 0 255 0 46 19
0.091674 -0.270090 -0.252074 0 255 0 46 19
0.243793 -0.247028 -0.204074 0 255 0 46 19
0.133068 -0.306214 -0.303074 0 255 0 46 19
0.203803 -0.290875 -0.225074 0 255 0 46 19
-0.038746 -0.162210 -0.302031 0 255 0 46 19
0.240976 -0.289141 -0.310359 0 255 0 46 19
0.273838 -0.256255 -0.246074 0 255 0 46 19
0.225651 -0.144800 -0.193825 0 255 0 46 19
0.287079 -0.194662 -0.228074 0 255 0 46 19
0.121911 -0.257699 -0.206594 0 255 0 46 19
0.138313 -0.166107 -0.196382 0 255 0 46 19
0.111790 -0.218743 -0.195986 0 255 0 46 19
0.131381 -0.155433 -0.191324 0 255 0 46 19
0.238778 -0.227333 -0.194870 0 255 0 46 19
0.121543 -0.288291 -0.245877 0 255 0 46 19
0.291233 -0.198612 -0.237074 0 255 0 46 19
0.173271 -0.145935 -0.189922 0 255 0 46 19
0.070438 -0.182417 -0.231074 0 255 0 46 19
0.293143 -0.159146 -0.307208 0 255 0 46 19
0.203494 -0.176895 -0.186215 0 255 0 46 19
0.184966 -0.249632 -0.191687 0 255 0 46 19
0.192677 -0.097920 -0.232419 0 255 0 46 19
-0.038640 -0.176141 -0.306074 0 255 0 46 19
0.065294 -0.141386 -0.297074 0 255 0 46 19
0.121982 -0.300652 -0.306725 0 255 0 46 19
0.231388 -0.088952 -0.270074 0 255 0 46 19
0.180487 -0.083128 -0.246074 0 255 0 46 19
0.125031 -0.300738 -0.288074 0 255 0 46 19
0.142497 -0.088705 -0.252074 0 255 0 46 19
0.278690 -0.211281 -0.219074 0 255 0 46 19
-0.012407 -0.124870 -0.302326 0 255 0 46 19
0.268605 -0.144729 -0.221957 0 255 0 46 19
0.293846 -0.170271 -0.252074 0 255 0 46 19
0.075655 -0.287738 -0.302622 0 255 0 46 19
0.153500 -0.296666 -0.237074 0 255 0 46 19
0.170269 -0.073482 -0.288074 0 255 0 46 19
0.097960 -0.254949 -0.222074 0 255 0 46 19
0.078923 -0.156551 -0.225074 0 255 0 46 19
0.271284 -0.117696 -0.263601 0 255 0 46 19
0.189814 -0.140250 -0.190725 0 255 0 46 19
0.093400 -0.132107 -0.228074 0 255 0 46 19
0.238013 -0.144361 -0.199915 0 255 0 46 19
0.086627 -0.207261 -0.210336 0 255 0 46 19
0.219610 -0.086646 -0.258074 0 255 0 46 19
0.227947 -0.292722 -0.252074 0 255 0 46 19
0.124775 -0.215369 -0.192635 0 255 0 46 19
0.124335 -0.203008 -0.190595 0 255 0 46 19
0.129341 -0.294892 -0.255074 0 255 0 46 19
0.298169 -0.154080 -0.288074 0 255 0 46 19
0.220364 -0.241821 -0.193253 0 255 0 46 19
0.036599 -0.110750 -0.307248 0 255 0 46 19
0.281195 -0.128786 -0.270074 0 255 0 46 19
0.063194 -0.101068 -0.307245 0 255 0 46 19
0.252738 -0.104553 -0.255074 0 255 0 46 19
0.182232 -0.074918 -0.282074 0 255 0 46 19
0.298002 -0.166313 -0.267074 0 255 0 46 19
0.149243 -0.186833 -0.193314 0 255 0 46 19
0.267265 -0.136601 -0.261074 0 255 0 46 19
0.005823 -0.125678 -0.301013 0 255 0 46 19
0.270793 -0.134433 -0.291074 0 255 0 46 19
0.128007 -0.142448 -0.202227 0 255 0 46 19
0.068639 -0.154365 -0.267074 0 255 0 46 19
0.149831 -0.285068 -0.219074 0 255 0 46 19
0.240210 -0.206168 -0.192764 0 255 0 46 19
0.033112 -0.156014 -0.298547 0 255 0 46 19
0.154530 -0.089812 -0.244518 0 255 0 46 19
0.098920 -0.293720 -0.309074 0 255 0 46 19
0.300662 -0.200616 -0.264074 0 255 0 46 19
0.186256 -0.142561 -0.196357 0 255 0 46 19
0.285548 -0.137162 -0.267074 0 255 0 46 19
0.271022 -0.126841 -0.303074 0 255 0 46 19
0.242902 -0.251223 -0.228074 0 255 0 46 19
0.130388 -0.188959 -0.189673 0 255 0 46 19
0.098109 -0.182098 -0.211310 0 255 0 46 19
0.177042 -0.272484 -0.202522 0 255 0 46 19
0.245174 -0.096240 -0.267074 0 255 0 46 19
0.054603 -0.228057 -0.307372 0 255 0 46 19
0.297389 -0.239791 -0.297074 0 255 0 46 19
0.189467 -0.113022 -0.207074 0 255 0 46 19
0.133907 -0.302267 -0.276074 0 255 0 46 19
0.020014 -0.217638 -0.299749 0 255 0 46 19
0.305068 -0.213820 -0.297074 0 255 0 46 19
0.059296 -0.278127 -0.301209 0 255 0 46 19
0.043319 -0.136856 -0.300074 0 255 0 46 19
0.005342 -0.214519 -0.297984 0 255 0 46 19
0.217320 -0.082990 -0.270074 0 255 0 46 19
0.282024 -0.257995 -0.273074 0 255 0 46 19
0.160089 -0.308952 -0.276074 0 255 0 46 19
0.062258 -0.192880 -0.270074 0 255 0 46 19
0.070192 -0.226867 -0.279074 0 255 0 46 19
0.269883 -0.239721 -0.222074 0 255 0 46 19
0.056690 -0.189383 -0.264074 0 255 0 46 19
0.195457 -0.257996 -0.196445 0 255 0 46 19
0.133337 -0.304951 -0.291074 0 255 0 46 19
0.302846 -0.225616 -0.300074 0 255 0 46 19
0.168773 -0.296959 -0.276074 0 255 0 46 19
0.137363 -0.098431 -0.231920 0 255 0 46 19
-0.014902 -0.136608 -0.299750 0 255 0 46 19
0.204955 -0.299886 -0.247493 0 255 0 46 19
-0.001775 -0.219140 -0.298421 0 255 0 46 19
0.287329 -0.128783 -0.300074 0 255 0 46 19
0.281426 -0.245599 -0.246074 0 255 0 46 19
-0.034125 -0.169326 -0.298503 0 255 0 46 19
0.078324 -0.188604 -0.231074 0 255 0 46 19
0.220687 -0.290962 -0.288074 0 255 0 46 19
0.293360 -0.174527 -0.246074 0 255 0 46 19
0.219527 -0.115895 -0.209484 0 255 0 46 19
0.052260 -0.184620 -0.285074 0 255 0 46 19
0.106871 -0.285172 -0.262024 0 255 0 46 19
0.042908 -0.124359 -0.301128 0 255 0 46 19
0.123343 -0.236534 -0.196144 0 255 0 46 19
0.192054 -0.100855 -0.226363 0 255 0 46 19
0.061584 -0.209643 -0.294074 0 255 0 46 19
-0.012634 -0.241368 -0.300262 0 255 0 46 19
0.256745 -0.280224 -0.261074 0 255 0 46 19
0.117361 -0.293536 -0.306964 0 255 0 46 19
0.306748 -0.204976 -0.294074 0 255 0 46 19
0.148250 -0.220359 -0.196341 0 255 0 46 19
0.078490 -0.101252 -0.302922 0 255 0 46 19
0.127722 -0.288081 -0.309074 0 255 0 46 19
0.071319 -0.133465 -0.273074 0 255 0 46 19
-0.002980 -0.123807 -0.310548 0 255 0 46 19
0.150904 -0.308880 -0.285074 0 255 0 46 19
0.055269 -0.123920 -0.301053 0 255 0 46 19
0.044339 -0.103194 -0.302932 0 255 0 46 19
0.230599 -0.222528 -0.192046 0 255 0 46 19
0.073684 -0.109432 -0.301481 0 255 0 46 19
0.160612 -0.219919 -0.186502 0 255 0 46 19
0.050308 -0.291551 -0.302857 0 255 0 46 19
0.185448 -0.160791 -0.187236 0 255 0 46 19
0.133436 -0.131333 -0.200088 0 255 0 46 19
0.256705 -0.105396 -0.309074 0 255 0 46 19
0.047558 -0.275632 -0.301720 0 255 0 46 19
0.296497 -0.211999 -0.255074 0 255 0 46 19
0.168256 -0.299391 -0.234074 0 255 0 46 19
0.257051 -0.126938 -0.256596 0 255 0 46 19
0.211858 -0.166405 -0.196483 0 255 0 46 19
0.266252 -0.242374 -0.250532 0 255 0 46 19
0.179834 -0.187201 -0.183088 0 255 0 46 19
0.029001 -0.204213 -0.298158 0 255 0 46 19
0.278546 -0.266456 -0.282074 0 255 0 46 19
0.147681 -0.309611 -0.294074 0 255 0 46 19
0.084614 -0.130157 -0.247568 0 255 0 46 19
0.144742 -0.309012 -0.303074 0 255 0 46 19
0.080432 -0.135402 -0.250509 0 255 0 46 19
0.152290 -0.129207 -0.198314 0 255 0 46 19
0.233895 -0.120446 -0.234074 0 255 0 46 19
0.115829 -0.127591 -0.214358 0 255 0 46 19
0.204813 -0.213980 -0.187168 0 255 0 46 19
0.126349 -0.280111 -0.268540 0 255 0 46 19
0.006078 -0.153335 -0.299854 0 255 0 46 19
0.083595 -0.293673 -0.309074 0 255 0 46 19
0.024422 -0.095894 -0.305236 0 255 0 46 19
0.026620 -0.157701 -0.299237 0 255 0 46 19
0.059257 -0.206164 -0.300074 0 255 0 46 19
-0.026569 -0.177066 -0.299275 0 255 0 46 19
0.016200 -0.192291 -0.299029 0 255 0 46 19
0.231662 -0.231955 -0.208544 0 255 0 46 19
0.259138 -0.225527 -0.225074 0 255 0 46 19
0.248248 -0.125067 -0.217390 0 255 0 46 19
0.245753 -0.136805 -0.207672 0 255 0 46 19
0.092866 -0.250053 -0.258074 0 255 0 46 19
0.161225 -0.289179 -0.255074 0 255 0 46 19
0.167544 -0.230594 -0.187765 0 255 0 46 19
0.282767 -0.172276 -0.264074 0 255 0 46 19
0.062667 -0.165363 -0.258074 0 255 0 46 19
0.115530 -0.273290 -0.267074 0 255 0 46 19
0.020822 -0.199407 -0.299382 0 255 0 46 19
0.227225 -0.209542 -0.189876 0 255 0 46 19
0.067270 -0.129538 -0.303074 0 255 0 46 19
0.212593 -0.090802 -0.258074 0 255 0 46 19
0.067887 -0.223281 -0.285074 0 255 0 46 19
0.074822 -0.233941 -0.279074 0 255 0 46 19
0.199223 -0.081553 -0.264074 0 255 0 46 19
0.217982 -0.195310 -0.187072 0 255 0 46 19
-0.024698 -0.168263 -0.298191 0 255 0 46 19
0.056328 -0.173217 -0.276074 0 255 0 46 19
0.289415 -0.250364 -0.285074 0 255 0 46 19
0.014032 -0.274640 -0.301842 0 255 0 46 19
0.225262 -0.255130 -0.219074 0 255 0 46 19
0.167983 -0.242955 -0.202535 0 255 0 46 19
0.048550 -0.242105 -0.299391 0 255 0 46 19
0.296768 -0.156521 -0.273074 0 255 0 46 19
0.011282 -0.258720 -0.300950 0 255 0 46 19
0.088640 -0.284364 -0.301941 0 255 0 46 19
-0.031559 -0.200542 -0.299136 0 255 0 46 19
0.202133 -0.241013 -0.202497 0 255 0 46 19
0.168796 -0.311279 -0.285074 0 255 0 46 19
0.118185 -0.289658 -0.255074 0 255 0 46 19
0.051782 -0.169184 -0.298778 0 255 0 46 19
0.300830 -0.188383 -0.264074 0 255 0 46 19
0.144621 -0.179716 -0.187669 0 255 0 46 19
0.202941 -0.222783 -0.187727 0 255 0 46 19
0.015137 -0.182864 -0.299011 0 255 0 46 19
0.266662 -0.110579 -0.306953 0 255 0 46 19
0.299267 -0.188051 -0.307376 0 255 0 46 19
0.209803 -0.190504 -0.186983 0 255 0 46 19
0.038060 -0.233742 -0.300029 0 255 0 46 19
0.153506 -0.311065 -0.306074 0 255 0 46 19
0.021077 -0.227065 -0.299658 0 255 0 46 19
0.224308 -0.093403 -0.267074 0 255 0 46 19
0.156438 -0.311700 -0.297074 0 255 0 46 19
0.061946 -0.106937 -0.301218 0 255 0 46 19
0.221725 -0.177703 -0.188430 0 255 0 46 19
0.025954 -0.261839 -0.300948 0 255 0 46 19
0.287795 -0.237752 -0.252074 0 255 0 46 19
0.224280 -0.288659 -0.282074 0 255 0 46 19
0.036118 -0.199591 -0.298115 0 255 0 46 19
0.158854 -0.170473 -0.186483 0 255 0 46 19
0.223649 -0.291592 -0.294074 0 255 0 46 19
0.000352 -0.237995 -0.299865 0 255 0 46 19
0.160867 -0.247577 -0.191341 0 255 0 46 19
0.219045 -0.204737 -0.187971 0 255 0 46 19
0.203550 -0.299588 -0.300074 0 255 0 46 19
0.215163 -0.078711 -0.300074 0 255 0 46 19
0.031354 -0.106568 -0.301738 0 255 0 46 19
0.168097 -0.184706 -0.185465 0 255 0 46 19
-0.014647 -0.164265 -0.298797 0 255 0 46 19
-0.009841 -0.156085 -0.299661 0 255 0 46 19
0.304697 -0.176937 -0.303721 0 255 0 46 19
0.159665 -0.310948 -0.288074 0 255 0 46 19
0.193514 -0.223846 -0.186832 0 255 0 46 19
-0.032622 -0.191114 -0.298993 0 255 0 46 19
-0.022061 -0.242432 -0.299839 0 255 0 46 19
0.185327 -0.291222 -0.252074 0 255 0 46 19
-0.004412 -0.144971 -0.299499 0 255 0 46 19
0.235405 -0.214348 -0.192410 0 255 0 46 19
0.120267 -0.150003 -0.196192 0 255 0 46 19
0.079879 -0.181290 -0.212163 0 255 0 46 19
0.095678 -0.258257 -0.270074 0 255 0 46 19
0.193004 -0.168531 -0.186480 0 255 0 46 19
0.176716 -0.201873 -0.185334 0 255 0 46 19
0.196009 -0.212108 -0.186043 0 255 0 46 19
0.033325 -0.284875 -0.302066 0 255 0 46 19
0.254585 -0.282832 -0.310076 0 255 0 46 19
0.097925 -0.269542 -0.306074 0 255 0 46 19
0.041916 -0.157886 -0.298758 0 255 0 46 19
0.064594 -0.233248 -0.264074 0 255 0 46 19
0.282296 -0.264186 -0.291074 0 255 0 46 19
0.034686 -0.220756 -0.298662 0 255 0 46 19
0.176645 -0.158920 -0.187324 0 255 0 46 19
0.284674 -0.151212 -0.246074 0 255 0 46 19
0.004647 -0.174500 -0.298851 0 255 0 46 19
0.025627 -0.191228 -0.298502 0 255 0 46 19
0.082127 -0.190969 -0.225074 0 255 0 46 19
0.019432 -0.119369 -0.300790 0 255 0 46 19
0.015434 -0.109319 -0.301335 0 255 0 46 19
0.052151 -0.138592 -0.299551 0 255 0 46 19
0.033296 -0.140718 -0.307267 0 255 0 46 19
0.015945 -0.164633 -0.299546 0 255 0 46 19
0.256118 -0.102468 -0.288074 0 255 0 46 19
0.247599 -0.296683 -0.303074 0 255 0 46 19
0.035197 -0.276071 -0.301645 0 255 0 46 19
-0.016447 -0.216022 -0.299535 0 255 0 46 19
0.283235 -0.249051 -0.310351 0 255 0 46 19
0.007213 -0.205716 -0.298920 0 255 0 46 19
-0.023124 -0.233005 -0.299465 0 255 0 46 19
0.104120 -0.269252 -0.283573 0 255 0 46 19
0.121700 -0.301983 -0.300074 0 255 0 46 19
-0.023379 -0.205347 -0.298806 0 255 0 46 19
0.117587 -0.177037 -0.199219 0 255 0 46 19
0.239338 -0.109267 -0.255074 0 255 0 46 19
0.211163 -0.126386 -0.208219 0 255 0 46 19
0.258429 -0.256046 -0.222074 0 255 0 46 19
0.043489 -0.222628 -0.299005 0 255 0 46 19
0.040300 -0.194346 -0.298788 0 255 0 46 19
0.221796 -0.220656 -0.199340 0 255 0 46 19
0.133492 -0.289793 -0.237074 0 255 0 46 19
0.203100 -0.092176 -0.249074 0 255 0 46 19
0.061040 -0.189554 -0.276074 0 255 0 46 19
0.268024 -0.248467 -0.228074 0 255 0 46 19
-0.017879 -0.237187 -0.307267 0 255 0 46 19
0.060657 -0.214008 -0.307533 0 255 0 46 19
0.147995 -0.192702 -0.186983 0 255 0 46 19
0.297581 -0.181559 -0.310223 0 255 0 46 19
0.193993 -0.308171 -0.270074 0 255 0 46 19
0.245231 -0.110402 -0.261074 0 255 0 46 19
0.227141 -0.094505 -0.306074 0 255 0 46 19
0.059751 -0.152475 -0.306074 0 255 0 46 19
-0.008523 -0.193170 -0.298664 0 255 0 46 19
-0.018942 -0.227760 -0.299073 0 255 0 46 19
0.055596 -0.194531 -0.307558 0 255 0 46 19
0.184853 -0.307882 -0.310238 0 255 0 46 19
-0.021822 -0.251684 -0.303074 0 255 0 46 19
0.207421 -0.143992 -0.199365 0 255 0 46 19
0.167544 -0.230594 -0.196318 0 255 0 46 19
0.173894 -0.143000 -0.196492 0 255 0 46 19
0.122280 -0.227107 -0.193603 0 255 0 46 19
0.023459 -0.273576 -0.301546 0 255 0 46 19
-0.013768 -0.188988 -0.298469 0 255 0 46 19
-0.003533 -0.169694 -0.299733 0 255 0 46 19
-0.004341 -0.187925 -0.298852 0 255 0 46 19
0.051924 -0.255091 -0.300437 0 255 0 46 19
0.229720 -0.197805 -0.189481 0 255 0 46 19
0.196378 -0.181516 -0.186051 0 255 0 46 19
0.207308 -0.202242 -0.186808 0 255 0 46 19
0.115971 -0.213498 -0.205400 0 255 0 46 19
0.285798 -0.255730 -0.282074 0 255 0 46 19
0.046905 -0.134410 -0.307454 0 255 0 46 19
0.170152 -0.160607 -0.187052 0 255 0 46 19
0.016640 -0.204652 -0.298540 0 255 0 46 19
0.168492 -0.312710 -0.297074 0 255 0 46 19
0.056801 -0.289864 -0.310259 0 255 0 46 19
0.064470 -0.239355 -0.307273 0 255 0 46 19
-0.005149 -0.206155 -0.298664 0 255 0 46 19
0.068283 -0.264702 -0.310497 0 255 0 46 19
0.202425 -0.095349 -0.243074 0 255 0 46 19
-0.005957 -0.224386 -0.298969 0 255 0 46 19
0.174011 -0.301174 -0.294074 0 255 0 46 19
0.026988 -0.127109 -0.307440 0 255 0 46 19
0.285878 -0.160669 -0.237074 0 255 0 46 19
0.041845 -0.114932 -0.301488 0 255 0 46 19
-0.012194 -0.253730 -0.300614 0 255 0 46 19
0.179635 -0.274715 -0.222074 0 255 0 46 19
0.073258 -0.169151 -0.228074 0 255 0 46 19
0.249269 -0.235697 -0.202000 0 255 0 46 19
0.223227 -0.199492 -0.199573 0 255 0 46 19
0.004165 -0.263341 -0.310449 0 255 0 46 19
0.262915 -0.250866 -0.261074 0 255 0 46 19
0.012316 -0.123991 -0.307347 0 255 0 46 19
0.058233 -0.268700 -0.301132 0 255 0 46 19
0.056404 -0.176300 -0.307564 0 255 0 46 19
0.208334 -0.081980 -0.267074 0 255 0 46 19
0.005157 -0.229815 -0.299622 0 255 0 46 19
0.196805 -0.078503 -0.294074 0 255 0 46 19
0.036415 -0.126046 -0.307430 0 255 0 46 19
0.190125 -0.311939 -0.291074 0 255 0 46 19
0.040852 -0.148458 -0.307518 0 255 0 46 19
0.159293 -0.182835 -0.193477 0 255 0 46 19
0.284125 -0.209369 -0.261074 0 255 0 46 19
-0.010281 -0.143724 -0.307464 0 255 0 46 19
0.217547 -0.081922 -0.282074 0 255 0 46 19
-0.026682 -0.235315 -0.307487 0 255 0 46 19
0.039378 -0.270826 -0.310392 0 255 0 46 19
0.168905 -0.166476 -0.193446 0 255 0 46 19
0.038981 -0.157262 -0.307422 0 255 0 46 19
0.011650 -0.228128 -0.299074 0 255 0 46 19
0.127014 -0.175974 -0.190295 0 255 0 46 19
0.003584 -0.165073 -0.307430 0 255 0 46 19
0.084167 -0.182201 -0.222074 0 255 0 46 19
0.289127 -0.185896 -0.276074 0 255 0 46 19
0.012018 -0.197536 -0.307415 0 255 0 46 19
0.256925 -0.113101 -0.303074 0 255 0 46 19
-0.035301 -0.218148 -0.307468 0 255 0 46 19
0.017774 -0.257033 -0.310406 0 255 0 46 19
0.019901 -0.275887 -0.310283 0 255 0 46 19
0.045034 -0.143213 -0.307412 0 255 0 46 19
0.196146 -0.313349 -0.303074 0 255 0 46 19
0.000720 -0.207403 -0.307463 0 255 0 46 19
-0.013513 -0.216645 -0.307383 0 255 0 46 19
-0.021579 -0.153590 -0.299278 0 255 0 46 19
-0.020884 -0.193609 -0.307443 0 255 0 46 19
0.285908 -0.261887 -0.303074 0 255 0 46 19
0.049982 -0.220941 -0.307320 0 255 0 46 19
0.166665 -0.205871 -0.193350 0 255 0 46 19
0.254637 -0.109439 -0.297074 0 255 0 46 19
0.180274 -0.199563 -0.193514 0 255 0 46 19
0.027754 -0.210082 -0.307344 0 255 0 46 19
0.008645 -0.184551 -0.307461 0 255 0 46 19
0.168536 -0.197068 -0.193469 0 255 0 46 19
-0.033869 -0.196983 -0.307381 0 255 0 46 19
0.032815 -0.229560 -0.307369 0 255 0 46 19
0.196431 -0.296702 -0.273074 0 255 0 46 19
0.155182 -0.231033 -0.199494 0 255 0 46 19
0.010587 -0.218701 -0.307410 0 255 0 46 19
0.163178 -0.251135 -0.205504 0 255 0 46 19
0.266851 -0.217965 -0.231074 0 255 0 46 19
-0.025874 -0.217085 -0.307429 0 255 0 46 19
0.174033 -0.301068 -0.303074 0 255 0 46 19
0.222788 -0.187130 -0.196473 0 255 0 46 19
0.024564 -0.181801 -0.298879 0 255 0 46 19
0.244151 -0.101053 -0.303074 0 255 0 46 19
0.207885 -0.084090 -0.291074 0 255 0 46 19
0.204118 -0.173961 -0.193390 0 255 0 46 19
0.147187 -0.210932 -0.188066 0 255 0 46 19
0.180642 -0.168971 -0.193440 0 255 0 46 19
0.279647 -0.229886 -0.270074 0 255 0 46 19
0.064441 -0.095199 -0.310426 0 255 0 46 19
0.138395 -0.281154 -0.258074 0 255 0 46 19
0.027243 -0.154767 -0.307572 0 255 0 46 19
0.108409 -0.277935 -0.303074 0 255 0 46 19
0.095051 -0.261190 -0.282074 0 255 0 46 19
0.067475 -0.282932 -0.310289 0 255 0 46 19
0.287409 -0.222335 -0.291074 0 255 0 46 19
0.110798 -0.151262 -0.201074 0 255 0 46 19
0.068099 -0.279998 -0.301759 0 255 0 46 19
0.133592 -0.289319 -0.303074 0 255 0 46 19
0.241273 -0.215595 -0.205441 0 255 0 46 19
0.110542 -0.224612 -0.214562 0 255 0 46 19
-0.009586 -0.183743 -0.307484 0 255 0 46 19
0.226601 -0.212477 -0.199428 0 255 0 46 19
0.294386 -0.190081 -0.303074 0 255 0 46 19
0.230971 -0.119771 -0.228074 0 255 0 46 19
0.216693 -0.302381 -0.310231 0 255 0 46 19
0.142392 -0.291210 -0.291074 0 255 0 46 19
0.153240 -0.196883 -0.193394 0 255 0 46 19
0.018511 -0.195849 -0.307430 0 255 0 46 19
0.041660 -0.130228 -0.307350 0 255 0 46 19
0.056073 -0.197699 -0.300074 0 255 0 46 19
0.149427 -0.171537 -0.196566 0 255 0 46 19
0.065115 -0.156683 -0.276074 0 255 0 46 19
0.303673 -0.170586 -0.291074 0 255 0 46 19
0.130839 -0.273413 -0.249074 0 255 0 46 19
0.214495 -0.240574 -0.205521 0 255 0 46 19
0.290382 -0.180029 -0.285074 0 255 0 46 19
0.164099 -0.174655 -0.193489 0 255 0 46 19
0.140063 -0.287734 -0.270074 0 255 0 46 19
0.175029 -0.195381 -0.193442 0 255 0 46 19
0.285715 -0.215841 -0.276074 0 255 0 46 19
0.236141 -0.153164 -0.195427 0 255 0 46 19
0.289512 -0.198246 -0.282074 0 255 0 46 19
0.044553 -0.232055 -0.310554 0 255 0 46 19
0.276109 -0.232201 -0.261074 0 255 0 46 19
0.202510 -0.282531 -0.243074 0 255 0 46 19
0.100864 -0.270146 -0.300074 0 255 0 46 19
0.238327 -0.142883 -0.216074 0 255 0 46 19
0.084960 -0.222241 -0.240074 0 255 0 46 19
0.029512 -0.259528 -0.310501 0 255 0 46 19
-0.008778 -0.165512 -0.307400 0 255 0 46 19
0.010700 -0.160452 -0.307395 0 255 0 46 19
0.028051 -0.136536 -0.307416 0 255 0 46 19
0.278350 -0.149868 -0.273074 0 255 0 46 19
0.031057 -0.180114 -0.307505 0 255 0 46 19
0.273112 -0.137951 -0.282074 0 255 0 46 19
0.018837 -0.266460 -0.310452 0 255 0 46 19
0.044297 -0.204397 -0.307421 0 255 0 46 19
0.256683 -0.157530 -0.204934 0 255 0 46 19
0.293699 -0.193002 -0.294074 0 255 0 46 19
0.019503 -0.162323 -0.307449 0 255 0 46 19
0.046495 -0.266205 -0.300935 0 255 0 46 19
0.114916 -0.276181 -0.285074 0 255 0 46 19
0.103985 -0.255460 -0.249074 0 255 0 46 19
-0.027816 -0.182935 -0.307488 0 255 0 46 19
0.066028 -0.224351 -0.300074 0 255 0 46 19
0.148945 -0.260378 -0.214533 0 255 0 46 19
0.204173 -0.296653 -0.282074 0 255 0 46 19
0.277663 -0.174258 -0.250549 0 255 0 46 19
0.281999 -0.233453 -0.282074 0 255 0 46 19
-0.014207 -0.176626 -0.298812 0 255 0 46 19
0.018327 -0.211145 -0.307408 0 255 0 46 19
0.266985 -0.260932 -0.297074 0 255 0 46 19
0.020240 -0.101139 -0.310494 0 255 0 46 19
0.291666 -0.217106 -0.294074 0 255 0 46 19
0.151809 -0.290190 -0.270074 0 255 0 46 19
0.042979 -0.167313 -0.298547 0 255 0 46 19
0.146819 -0.241524 -0.192858 0 255 0 46 19
0.030249 -0.198344 -0.307499 0 255 0 46 19
0.003726 -0.250980 -0.310525 0 255 0 46 19
0.285655 -0.172890 -0.276074 0 255 0 46 19
0.307721 -0.192915 -0.294074 0 255 0 46 19
0.078150 -0.276000 -0.310396 0 255 0 46 19
0.174654 -0.298149 -0.282074 0 255 0 46 19
0.227161 -0.238702 -0.210074 0 255 0 46 19
-0.001846 -0.176187 -0.307509 0 255 0 46 19
0.012969 -0.265212 -0.301185 0 255 0 46 19
0.069347 -0.274129 -0.310379 0 255 0 46 19
0.231152 -0.176640 -0.199468 0 255 0 46 19
0.021998 -0.150585 -0.307484 0 255 0 46 19
0.272418 -0.170076 -0.241548 0 255 0 46 19
-0.036364 -0.208721 -0.298447 0 255 0 46 19
-0.023379 -0.205347 -0.307520 0 255 0 46 19
0.200631 -0.219225 -0.196497 0 255 0 46 19
0.203214 -0.091640 -0.234074 0 255 0 46 19
0.287688 -0.207059 -0.273074 0 255 0 46 19
0.072465 -0.259457 -0.310503 0 255 0 46 19
0.211305 -0.212293 -0.196444 0 255 0 46 19
0.214240 -0.212916 -0.187597 0 255 0 46 19
0.212369 -0.221720 -0.199472 0 255 0 46 19
0.193812 -0.150301 -0.196505 0 255 0 46 19
0.008971 -0.255162 -0.310523 0 255 0 46 19
0.048806 -0.269763 -0.310425 0 255 0 46 19
0.185703 -0.188449 -0.193532 0 255 0 46 19
0.022580 -0.248853 -0.310505 0 255 0 46 19
0.285898 -0.200545 -0.270074 0 255 0 46 19
0.275792 -0.183061 -0.241556 0 255 0 46 19
0.077710 -0.263639 -0.310370 0 255 0 46 19
0.058827 -0.121609 -0.307359 0 255 0 46 19
-0.009770 -0.199039 -0.307511 0 255 0 46 19
0.074960 -0.247719 -0.310536 0 255 0 46 19
0.042681 -0.240858 -0.310568 0 255 0 46 19
0.006221 -0.239242 -0.310544 0 255 0 46 19
0.178218 -0.223662 -0.196532 0 255 0 46 19
0.193259 -0.196189 -0.193440 0 255 0 46 19
-0.018318 -0.224825 -0.307455 0 255 0 46 19
0.148242 -0.292546 -0.279074 0 255 0 46 19
0.175397 -0.164789 -0.193482 0 255 0 46 19
0.153609 -0.166292 -0.193442 0 255 0 46 19
0.188453 -0.204368 -0.193430 0 255 0 46 19
0.269167 -0.172452 -0.210074 0 255 0 46 19
0.044666 -0.173805 -0.307501 0 255 0 46 19
0.002407 -0.213895 -0.307496 0 255 0 46 19
0.023317 -0.187669 -0.307540 0 255 0 46 19
0.059480 -0.262831 -0.310490 0 255 0 46 19
0.174844 -0.210677 -0.193381 0 255 0 46 19
0.249382 -0.177448 -0.211542 0 255 0 46 19
0.103262 -0.266003 -0.273074 0 255 0 46 19
0.185955 -0.288267 -0.246074 0 255 0 46 19
0.078561 -0.144206 -0.244475 0 255 0 46 19
0.201949 -0.256309 -0.211513 0 255 0 46 19
0.236723 -0.251433 -0.223539 0 255 0 46 19
0.083136 -0.079392 -0.309074 0 255 0 46 19
0.090342 -0.117638 -0.249074 0 255 0 46 19
0.167331 -0.101734 -0.223503 0 255 0 46 19
0.112045 -0.246401 -0.226567 0 255 0 46 19
0.171513 -0.096489 -0.221549 0 255 0 46 19
0.283419 -0.233755 -0.237818 0 255 0 46 19
0.242266 -0.182069 -0.205429 0 255 0 46 19
0.076080 -0.228023 -0.267074 0 255 0 46 19
0.255875 -0.175761 -0.217546 0 255 0 46 19
0.107721 -0.165739 -0.198595 0 255 0 46 19
0.177158 -0.286369 -0.243074 0 255 0 46 19
0.277149 -0.155747 -0.261074 0 255 0 46 19
0.255591 -0.286113 -0.279074 0 255 0 46 19
0.039165 -0.141966 -0.298962 0 255 0 46 19
0.229903 -0.262251 -0.228074 0 255 0 46 19
0.263104 -0.112890 -0.255008 0 255 0 46 19
0.050974 -0.187414 -0.307463 0 255 0 46 19
0.064896 -0.078628 -0.309074 0 255 0 46 19
0.237976 -0.173390 -0.204074 0 255 0 46 19
0.266041 -0.276066 -0.273074 0 255 0 46 19
0.072971 -0.179822 -0.222074 0 255 0 46 19
-0.024187 -0.223578 -0.310456 0 255 0 46 19
0.056224 -0.154793 -0.297074 0 255 0 46 19
0.066969 -0.147876 -0.279074 0 255 0 46 19
0.203293 -0.076839 -0.282074 0 255 0 46 19
0.120451 -0.134707 -0.203063 0 255 0 46 19
0.203581 -0.277492 -0.210074 0 255 0 46 19
0.176389 -0.131262 -0.193430 0 255 0 46 19
0.208989 -0.078899 -0.285074 0 255 0 46 19
0.198075 -0.086958 -0.246074 0 255 0 46 19
0.195088 -0.288588 -0.219434 0 255 0 46 19
0.294363 -0.242215 -0.306074 0 255 0 46 19
0.093191 -0.248527 -0.220543 0 255 0 46 19
0.165646 -0.110577 -0.207074 0 255 0 46 19
0.046863 -0.235613 -0.299523 0 255 0 46 19
0.174390 -0.100167 -0.216074 0 255 0 46 19
0.083603 -0.212752 -0.216074 0 255 0 46 19
0.033254 -0.241921 -0.300169 0 255 0 46 19
0.069487 -0.194416 -0.228074 0 255 0 46 19
0.074502 -0.259890 -0.276074 0 255 0 46 19
0.181479 -0.294896 -0.226158 0 255 0 46 19
0.063068 -0.144945 -0.288074 0 255 0 46 19
0.062670 -0.291112 -0.302606 0 255 0 46 19
0.245677 -0.284006 -0.249074 0 255 0 46 19
0.063846 -0.242290 -0.286253 0 255 0 46 19
0.188737 -0.304037 -0.246074 0 255 0 46 19
0.249085 -0.250993 -0.211119 0 255 0 46 19
0.229835 -0.081830 -0.303074 0 255 0 46 19
0.279492 -0.266657 -0.307366 0 255 0 46 19
0.103819 -0.278389 -0.252074 0 255 0 46 19
0.140184 -0.157304 -0.190343 0 255 0 46 19
0.187515 -0.093348 -0.228074 0 255 0 46 19
0.056344 -0.210025 -0.273074 0 255 0 46 19
0.292798 -0.156006 -0.261074 0 255 0 46 19
0.264878 -0.226747 -0.210074 0 255 0 46 19
0.219159 -0.146487 -0.192768 0 255 0 46 19
0.217599 -0.298116 -0.255074 0 255 0 46 19
0.298548 -0.203233 -0.258074 0 255 0 46 19
0.303529 -0.188957 -0.276074 0 255 0 46 19
0.266365 -0.184125 -0.204588 0 255 0 46 19
0.250927 -0.098034 -0.306798 0 255 0 46 19
0.207069 -0.304369 -0.261074 0 255 0 46 19
0.247892 -0.227745 -0.216074 0 255 0 46 19
0.043666 -0.253335 -0.300074 0 255 0 46 19
0.076136 -0.205031 -0.240074 0 255 0 46 19
0.292080 -0.149719 -0.304040 0 255 0 46 19
0.192450 -0.084561 -0.249074 0 255 0 46 19
0.259504 -0.216403 -0.202783 0 255 0 46 19
0.075739 -0.085332 -0.305319 0 255 0 46 19
0.020428 -0.285200 -0.303074 0 255 0 46 19
0.233705 -0.287595 -0.300074 0 255 0 46 19
0.232834 -0.235271 -0.195074 0 255 0 46 19
0.051669 -0.227433 -0.299703 0 255 0 46 19
0.073088 -0.219718 -0.261074 0 255 0 46 19
0.088687 -0.143291 -0.222074 0 255 0 46 19
0.054579 -0.206583 -0.279074 0 255 0 46 19
0.255251 -0.178695 -0.198791 0 255 0 46 19
0.111194 -0.293689 -0.288074 0 255 0 46 19
0.047458 -0.088522 -0.305162 0 255 0 46 19
0.234568 -0.088422 -0.292253 0 255 0 46 19
0.149893 -0.299205 -0.246074 0 255 0 46 19
0.155862 -0.097974 -0.222074 0 255 0 46 19
0.151227 -0.119780 -0.201944 0 255 0 46 19
0.151985 -0.274935 -0.207074 0 255 0 46 19
0.285805 -0.246530 -0.258074 0 255 0 46 19
0.053898 -0.130371 -0.300074 0 255 0 46 19
0.078364 -0.266845 -0.294074 0 255 0 46 19
0.259102 -0.182581 -0.219074 0 255 0 46 19
0.064073 -0.125791 -0.307272 0 255 0 46 19
0.172518 -0.308196 -0.267074 0 255 0 46 19
0.148363 -0.162110 -0.188452 0 255 0 46 19
0.106307 -0.251315 -0.237074 0 255 0 46 19
0.262421 -0.152616 -0.234074 0 255 0 46 19
0.261618 -0.152445 -0.210074 0 255 0 46 19
0.098270 -0.160663 -0.204074 0 255 0 46 19
0.273594 -0.121254 -0.307229 0 255 0 46 19
0.300965 -0.212948 -0.273074 0 255 0 46 19
0.008785 -0.141642 -0.300074 0 255 0 46 19
0.073060 -0.112366 -0.307411 0 255 0 46 19
0.240252 -0.104966 -0.242186 0 255 0 46 19
0.219811 -0.287709 -0.227885 0 255 0 46 19
0.093885 -0.288546 -0.302129 0 255 0 46 19
0.072905 -0.271818 -0.301504 0 255 0 46 19
0.248450 -0.095255 -0.297074 0 255 0 46 19
0.294886 -0.202455 -0.309074 0 255 0 46 19
0.091282 -0.278791 -0.279074 0 255 0 46 19
0.071882 -0.233342 -0.291074 0 255 0 46 19
0.223525 -0.125946 -0.203641 0 255 0 46 19
0.106842 -0.141016 -0.214470 0 255 0 46 19
0.194251 -0.162662 -0.193314 0 255 0 46 19
0.067044 -0.227247 -0.252074 0 255 0 46 19
0.200191 -0.206863 -0.193361 0 255 0 46 19
0.065748 -0.190056 -0.234074 0 255 0 46 19
0.064445 -0.196412 -0.240074 0 255 0 46 19
0.206102 -0.106908 -0.223450 0 255 0 46 19
0.165815 -0.094438 -0.228074 0 255 0 46 19
0.057764 -0.112182 -0.307385 0 255 0 46 19
0.106332 -0.114558 -0.231074 0 255 0 46 19
0.251877 -0.165710 -0.211372 0 255 0 46 19
0.082414 -0.151159 -0.225074 0 255 0 46 19
0.070411 -0.160875 -0.255074 0 255 0 46 19
0.184753 -0.120772 -0.205312 0 255 0 46 19
0.140901 -0.139500 -0.195074 0 255 0 46 19
0.289298 -0.142994 -0.267074 0 255 0 46 19
0.106913 -0.256114 -0.243074 0 255 0 46 19
0.249158 -0.120785 -0.222074 0 255 0 46 19
0.029483 -0.115372 -0.307417 0 255 0 46 19
0.232215 -0.186067 -0.190626 0 255 0 46 19
0.259933 -0.265567 -0.279074 0 255 0 46 19
0.009566 -0.108071 -0.307034 0 255 0 46 19
0.076640 -0.131529 -0.270074 0 255 0 46 19
0.132380 -0.266162 -0.207074 0 255 0 46 19
0.174079 -0.127704 -0.202426 0 255 0 46 19
0.075613 -0.215787 -0.249074 0 255 0 46 19
0.252734 -0.270171 -0.282074 0 255 0 46 19
0.184527 -0.237271 -0.199483 0 255 0 46 19
0.165596 -0.268618 -0.219074 0 255 0 46 19
0.165215 -0.299266 -0.291074 0 255 0 46 19
0.261304 -0.164647 -0.211126 0 255 0 46 19
0.223729 -0.081696 -0.291074 0 255 0 46 19
0.065525 -0.176673 -0.255074 0 255 0 46 19
0.179097 -0.248385 -0.202449 0 255 0 46 19
0.231844 -0.288818 -0.306074 0 255 0 46 19
0.127468 -0.209808 -0.201074 0 255 0 46 19
0.094751 -0.202853 -0.204074 0 255 0 46 19
0.157725 -0.118065 -0.201074 0 255 0 46 19
0.242889 -0.179135 -0.193230 0 255 0 46 19
0.230074 -0.109562 -0.219074 0 255 0 46 19
0.215295 -0.294528 -0.288074 0 255 0 46 19
0.289146 -0.149095 -0.257968 0 255 0 46 19
0.104909 -0.134471 -0.213074 0 255 0 46 19
0.106006 -0.274811 -0.240074 0 255 0 46 19
0.150008 -0.269805 -0.226555 0 255 0 46 19
0.083447 -0.251082 -0.291074 0 255 0 46 19
0.153487 -0.296727 -0.291074 0 255 0 46 19
0.238371 -0.159772 -0.195074 0 255 0 46 19
0.288578 -0.136707 -0.279074 0 255 0 46 19
0.254534 -0.218414 -0.216074 0 255 0 46 19
0.212941 -0.291174 -0.231074 0 255 0 46 19
0.220849 -0.088573 -0.297074 0 255 0 46 19
0.069349 -0.175985 -0.234074 0 255 0 46 19
0.251507 -0.268455 -0.270074 0 255 0 46 19
0.178787 -0.098035 -0.228074 0 255 0 46 19
0.196072 -0.096381 -0.222074 0 255 0 46 19
0.266989 -0.181190 -0.226503 0 255 0 46 19
0.244421 -0.280672 -0.294074 0 255 0 46 19
