ply
format ascii 1.0
element vertex 1122
property float x
property float y
property float z
property uchar red
property uchar green
property uchar blue
property uchar semantic_label
property uchar instance_label
end_header
0.444234 0.564400 0.284109 244 234 227 3 7
0.458654 0.563233 0.283837 248 238 237 3 7
0.775183 0.891834 0.226666 113 103 87 0 0
0.810047 0.891688 0.227058 111 102 87 0 0
0.806200 0.893555 0.218838 148 137 123 0 0
0.794940 0.901568 0.213461 145 133 123 0 0
0.798118 0.911800 0.206892 142 131 119 0 0
0.788246 0.896455 0.234611 115 104 95 0 0
1.057902 0.551189 0.816829 228 222 218 3 7
1.081590 0.550881 0.835829 222 215 211 3 7
1.391966 0.911814 0.262174 137 123 105 1 6
1.411558 0.910025 0.255840 131 116 101 1 6
1.382021 0.908115 0.267163 139 123 102 1 6
0.837631 0.553248 0.619204 239 231 227 3 7
0.827246 0.553009 0.643079 238 231 229 3 7
1.288664 0.548614 0.697329 223 217 214 3 7
0.877265 0.551910 0.775670 232 224 224 3 7
0.883600 0.551457 0.794829 233 224 224 3 7
0.723042 0.884148 0.252793 160 150 141 0 0
0.733352 0.887663 0.246719 161 148 138 0 0
0.729528 0.895278 0.239110 163 150 138 0 0
1.149099 0.550344 0.741392 227 218 215 3 7
0.837365 0.552634 0.682829 239 231 230 3 7
1.030148 0.494389 0.217148 68 75 89 0 0
1.043646 0.518544 0.230756 95 93 102 0 0
1.021863 0.504752 0.211493 61 60 72 0 0
1.032348 0.509653 0.230909 139 128 121 0 0
1.034273 0.522738 0.231689 139 129 120 0 0
1.031078 0.498751 0.226912 120 111 122 0 0
0.464677 0.938360 1.100032 236 228 224 1 6
0.469016 0.938856 1.125145 235 225 223 1 6
0.455801 0.937221 1.128329 235 226 222 1 6
0.505394 0.558105 0.564829 245 237 237 3 7
1.371496 0.590852 0.259383 126 116 107 3 7
1.349708 0.587940 0.258636 117 107 98 3 7
0.481988 0.557222 0.694017 236 228 225 3 7
0.913414 0.552352 0.703970 234 226 226 3 7
0.894384 0.552643 0.668329 235 229 227 3 7
0.845829 0.553197 0.862348 232 224 221 3 7
0.629963 0.576519 0.992181 118 108 102 3 7
0.630724 0.569566 0.984824 125 115 110 3 7
0.613571 0.577789 0.993495 93 86 80 3 7
0.620526 0.580523 1.003446 88 81 75 0 0
0.982345 0.582193 0.870624 192 188 181 0 0
1.005639 0.587370 0.874748 181 178 169 0 0
1.122187 0.472594 0.221944 77 76 87 0 0
1.121403 0.476619 0.209955 62 63 68 0 0
1.139237 0.471296 0.217460 57 60 71 0 0
1.125981 0.462641 0.228203 127 121 117 0 0
1.120007 0.469630 0.227371 140 133 121 0 0
1.148265 0.475585 0.205602 57 55 67 0 0
1.137268 0.467060 0.223302 91 90 90 0 0
1.135780 0.481312 0.203625 58 58 70 0 0
1.122057 0.487502 0.201942 55 55 66 0 0
0.525808 0.633490 1.128035 117 107 98 0 0
0.529409 0.613465 1.129659 174 163 157 0 0
1.078215 0.586996 0.203661 33 33 40 0 0
1.060634 0.604426 0.203769 28 28 36 0 0
0.683054 0.884565 0.275541 111 102 93 0 0
0.703952 0.883332 0.275252 129 119 110 0 0
0.597429 0.568474 1.033164 100 94 90 0 0
0.596229 0.552946 1.062183 106 99 94 0 0
0.604573 0.558278 1.038053 101 95 89 0 0
0.577401 0.563534 1.063980 133 123 121 0 0
1.047380 0.494688 0.230620 133 125 126 0 0
1.077519 0.487000 0.231930 136 132 136 0 0
1.062999 0.469104 0.226474 77 77 96 0 0
1.064240 0.465708 0.212825 69 69 76 0 0
1.074099 0.477791 0.231076 133 128 125 0 0
1.067471 0.462781 0.187746 70 67 80 0 0
1.052111 0.472336 0.190837 63 68 77 0 0
0.560181 0.891079 0.222836 138 128 114 0 0
0.584554 0.891145 0.226844 138 128 114 0 0
0.555564 0.892268 0.231861 129 121 109 0 0
0.549216 0.913713 0.202508 157 147 134 0 0
0.560667 0.914023 0.201426 157 145 133 1 6
0.566529 0.910343 0.206834 167 154 145 1 6
1.138676 0.551383 0.263471 160 154 142 3 7
1.181329 0.550859 0.263133 202 194 186 3 7
1.016695 0.543351 0.348747 172 160 150 3 7
1.026168 0.543634 0.329334 181 170 161 3 7
0.651365 0.527757 1.080885 102 94 83 0 0
0.648382 0.522657 1.078466 96 89 78 0 0
0.656656 0.530878 1.079731 95 87 78 0 0
0.638828 0.525631 1.074142 106 97 88 0 0
0.631291 0.533845 1.076289 55 50 46 0 0
0.477190 0.913418 0.202841 161 149 139 0 0
0.444066 0.902793 0.212434 174 165 153 0 0
0.479204 0.909229 0.208024 175 164 155 0 0
0.467294 0.890589 0.224815 174 162 152 0 0
0.478243 0.893380 0.237148 130 123 110 0 0
1.129866 0.551213 0.807204 223 215 213 3 7
1.125246 0.550538 0.841249 223 215 213 3 7
0.966630 0.582464 0.866995 145 142 136 0 0
0.951590 0.577305 0.870939 220 214 211 0 0
0.969237 0.576186 0.870824 211 204 201 0 0
0.450542 0.605898 0.265649 88 77 74 3 7
0.851501 0.883003 0.268301 134 124 115 0 0
0.857572 0.892602 0.239214 152 142 128 0 0
0.862499 0.882477 0.255375 145 139 128 0 0
0.865487 0.887215 0.245910 156 145 131 0 0
0.502862 0.563446 0.273919 220 211 202 3 7
0.526118 0.563950 0.272522 159 150 142 3 7
0.509498 0.566891 0.266903 155 146 138 3 7
1.222894 0.548706 0.286829 223 216 207 3 7
0.535078 0.938971 1.104886 231 220 218 1 6
0.732451 0.557277 0.277267 241 231 226 3 7
0.723524 0.557816 0.306829 243 234 227 3 7
1.215487 0.469143 0.217490 59 61 75 0 0
1.203156 0.476174 0.222914 59 65 78 0 0
0.645326 0.568070 0.262090 132 124 114 3 7
0.642181 0.579745 0.260816 123 116 107 3 7
0.655934 0.567056 0.262895 146 137 130 3 7
0.640149 0.594278 0.262224 109 100 94 3 7
0.669481 0.593869 0.264723 82 74 71 3 7
0.655227 0.586328 0.261935 135 126 119 3 7
0.956240 0.914103 0.250102 108 103 92 0 0
0.740599 0.554966 0.974983 190 182 177 3 7
0.751277 0.562140 0.983139 149 143 135 3 7
0.879458 0.555654 0.342829 240 232 225 3 7
0.849433 0.555098 0.346829 241 234 227 3 7
1.118308 0.913258 0.202919 117 110 98 1 6
1.100341 0.912823 0.214764 138 125 113 1 6
1.091893 0.913648 0.230606 139 128 117 1 6
1.121645 0.912128 0.224781 132 121 107 1 6
0.795814 0.915882 0.202582 137 127 117 1 6
1.014277 0.907717 0.265875 109 102 86 1 6
1.136849 0.550484 0.668579 227 220 217 3 7
1.174409 0.549925 0.680329 227 218 218 3 7
1.291410 0.548417 0.658829 225 216 214 3 7
1.110439 0.548319 0.466541 213 207 203 3 7
1.075400 0.550869 0.487829 236 228 223 3 7
0.621911 0.530771 1.106456 54 50 45 0 0
0.846196 0.591934 0.268858 145 139 133 3 7
1.403431 0.547750 0.336892 230 222 213 3 7
0.953904 0.552604 0.567329 235 227 225 3 7
0.552351 0.555843 0.783579 241 233 232 3 7
1.116707 0.547004 0.892023 179 169 163 3 7
1.175485 0.550411 0.805954 224 215 213 3 7
1.090359 0.584171 0.260424 133 124 109 3 7
1.107642 0.569659 0.256443 137 124 109 3 7
1.111721 0.559956 0.256885 137 126 105 3 7
1.142292 0.915008 0.265396 141 129 114 1 6
1.118051 0.913475 0.245279 137 126 108 1 6
1.100594 0.913379 0.250686 141 126 120 1 6
1.115769 0.912725 0.253321 138 130 113 1 6
0.559241 0.558708 0.484329 243 235 233 3 7
1.061048 0.551931 0.755517 232 224 220 3 7
0.491350 0.556590 0.822829 233 225 223 3 7
0.453342 0.556779 0.821329 242 234 233 3 7
1.146519 0.911936 0.202304 123 113 103 1 6
1.136632 0.911346 0.225867 120 110 100 1 6
1.403948 0.903400 0.272698 139 124 108 1 6
1.404149 0.914756 0.264108 140 125 109 1 6
1.385463 0.900876 0.274698 144 131 115 1 6
0.473652 0.583158 0.972458 231 222 220 3 7
0.699400 0.558158 0.294110 240 231 225 3 7
0.710634 0.558765 0.271738 221 211 204 3 7
0.950475 0.552970 0.510829 238 231 229 3 7
0.937398 0.552609 0.527954 238 230 228 3 7
1.201890 0.908739 0.242882 127 117 106 1 6
1.194024 0.909347 0.249517 142 128 116 1 6
1.381554 0.547985 0.318142 226 218 209 3 7
0.685442 0.944837 1.074282 225 217 214 1 6
0.694211 0.941794 1.080452 210 203 199 1 6
0.681720 0.938604 1.089841 225 217 215 1 6
0.695131 0.946557 1.075237 222 214 211 1 6
0.762121 0.553867 0.705329 239 230 231 3 7
0.743339 0.552877 0.734829 236 230 229 3 7
0.734349 0.553384 0.722829 236 229 229 3 7
1.229918 0.549546 0.336829 231 222 215 3 7
0.513962 0.560583 0.403329 247 237 236 3 7
1.184528 0.549579 0.302891 225 217 209 3 7
1.171745 0.551581 0.269501 202 196 190 3 7
1.161371 0.551828 0.274615 255 254 247 3 7
1.168686 0.549887 0.281743 215 209 199 3 7
0.437382 0.558536 0.602829 243 235 233 3 7
0.458795 0.558513 0.601298 241 232 229 3 7
1.111528 0.540978 0.339079 192 183 173 3 7
1.097032 0.542581 0.315521 219 210 200 3 7
1.103975 0.541597 0.313444 217 209 199 3 7
1.133054 0.542675 0.389493 177 168 160 3 7
0.551429 0.635021 1.008985 115 105 96 0 0
0.540011 0.655762 1.020187 111 101 92 0 0
0.533594 0.651155 1.011286 143 133 124 0 0
1.420547 0.566191 0.259347 197 183 172 3 7
1.427822 0.573308 0.258894 157 149 132 3 7
1.401229 0.554753 0.259474 167 158 146 3 7
1.424851 0.552776 0.261931 176 166 154 3 7
1.414467 0.557457 0.258751 199 185 172 3 7
1.412508 0.576400 0.257652 145 135 125 3 7
0.557899 0.559982 0.401954 246 238 235 3 7
0.981425 0.553050 0.402829 235 226 221 3 7
0.974432 0.553429 0.373329 235 226 220 3 7
1.089407 0.550972 0.721829 229 223 219 3 7
1.107156 0.550680 0.715829 230 222 219 3 7
0.783373 0.553644 0.648829 241 233 233 3 7
0.822508 0.555915 0.339204 242 234 227 3 7
0.826950 0.556032 0.351829 243 235 229 3 7
1.078515 0.547154 0.876534 150 144 138 3 7
1.080501 0.548465 0.887168 207 198 191 3 7
1.074672 0.545740 0.899504 96 91 86 3 7
0.713019 0.555373 0.492954 245 235 234 3 7
1.197172 0.550099 0.481829 230 224 220 3 7
1.187415 0.549961 0.463329 230 225 220 3 7
0.923406 0.553073 0.534829 235 227 225 3 7
0.804411 0.561315 0.896514 207 202 200 3 7
1.388429 0.547870 0.421829 234 225 218 3 7
1.372143 0.547896 0.437985 234 225 219 3 7
1.037423 0.552236 0.638829 230 224 221 3 7
0.832600 0.553332 0.559954 239 232 229 3 7
0.793373 0.553532 0.582829 239 231 230 3 7
0.817386 0.553709 0.580829 239 231 230 3 7
1.365426 0.548062 0.485829 231 223 218 3 7
1.332043 0.548211 0.487829 232 224 218 3 7
1.346433 0.548592 0.449829 231 223 217 3 7
0.873193 0.595087 0.265986 123 116 109 3 7
1.056794 0.549486 0.850660 200 194 188 3 7
1.077752 0.547856 0.868167 171 165 160 3 7
0.534737 0.601940 0.974938 161 149 143 0 0
0.549423 0.603458 0.983968 121 113 105 0 0
0.550320 0.621272 0.988387 141 132 124 0 0
0.565907 0.597560 0.989529 112 104 96 0 0
0.560978 0.613260 0.995048 124 115 107 0 0
0.555702 0.629088 0.998488 157 149 140 0 0
0.569771 0.612440 1.002522 163 154 147 0 0
0.563966 0.560089 0.383767 247 239 234 3 7
1.176412 0.549992 0.716829 229 219 218 3 7
1.190160 0.549752 0.723829 225 218 214 3 7
1.292171 0.548859 0.370329 235 226 219 3 7
0.537288 0.625566 0.985203 164 155 146 0 0
0.529545 0.624344 0.975820 139 130 124 0 0
0.660089 0.556830 0.871666 232 226 219 3 7
0.682662 0.556944 0.869153 232 224 220 3 7
0.677449 0.562069 0.895471 224 214 209 3 7
0.656827 0.555936 0.569704 243 234 234 3 7
0.784682 0.882590 0.268651 129 123 111 0 0
0.755772 0.883337 0.270573 131 121 110 0 0
0.760586 0.881031 0.278195 131 121 110 0 0
0.681371 0.554926 0.598829 243 234 234 3 7
0.452985 0.562241 0.389329 234 224 221 3 7
0.623380 0.557046 0.870007 238 229 229 3 7
0.507493 0.557056 0.666079 243 236 234 3 7
0.797934 0.589813 0.267227 148 140 136 3 7
0.945686 0.553924 0.353829 238 228 222 3 7
1.006658 0.552061 0.658704 233 225 223 3 7
1.007396 0.551603 0.676829 232 224 222 3 7
1.355453 0.912368 0.260748 136 123 105 1 6
1.376767 0.909892 0.259382 137 123 106 1 6
1.372337 0.909975 0.263725 130 113 95 1 6
1.386366 0.912886 0.241798 103 92 83 1 6
1.362325 0.908437 0.250204 110 100 91 1 6
1.357261 0.909696 0.242491 114 103 96 1 6
0.540175 0.887568 0.246375 165 154 144 0 0
0.555512 0.891753 0.239097 165 153 143 0 0
0.589064 0.893526 0.234794 132 126 113 0 0
1.013009 0.550948 0.845268 223 214 211 3 7
0.982718 0.548889 0.869931 183 176 170 3 7
0.705736 0.925331 1.127215 196 187 180 1 6
0.692502 0.934550 1.132521 205 197 189 1 6
0.698506 0.934399 1.115143 211 203 197 1 6
0.690199 0.937931 1.109640 213 205 199 1 6
0.672138 0.939375 1.113544 217 209 204 1 6
0.714964 0.921861 1.118418 186 179 170 1 6
0.451841 0.939089 1.161078 236 225 221 1 6
0.818674 0.878836 0.281055 137 125 115 0 0
0.797859 0.552929 0.708829 236 229 228 3 7
0.583530 0.637175 1.142200 174 165 156 0 0
0.575666 0.649046 1.139430 175 167 159 0 0
0.583100 0.657438 1.137423 146 137 130 0 0
1.120774 0.597147 0.267845 85 79 72 3 7
1.403956 0.548764 0.275003 248 245 240 3 7
0.507823 0.703340 1.073115 147 135 123 0 0
0.512495 0.701915 1.096564 152 139 128 0 0
0.512917 0.709337 1.084457 117 108 98 0 0
0.506597 0.701825 1.086331 78 72 64 0 0
0.489676 0.940805 1.091187 235 226 221 1 6
0.508318 0.939072 1.102271 234 224 221 1 6
0.518423 0.938968 1.116053 232 222 219 1 6
0.482365 0.939305 1.113829 234 223 219 1 6
1.024404 0.543534 0.435074 207 200 194 3 7
1.053919 0.549007 0.459969 175 168 160 3 7
1.037993 0.550772 0.468181 218 210 206 3 7
1.101403 0.550629 0.694829 230 222 221 3 7
0.992536 0.556442 0.262948 169 160 147 3 7
0.533443 0.558485 0.875536 239 231 231 3 7
0.530885 0.557427 0.855538 240 231 232 3 7
1.024696 0.590031 0.265629 102 93 90 3 7
1.036166 0.588829 0.264270 114 105 98 3 7
1.049368 0.590939 0.266355 113 101 96 3 7
0.532428 0.938012 1.179710 230 219 217 1 6
1.421120 0.547550 0.463454 231 223 216 3 7
1.378488 0.547859 0.468767 231 225 218 3 7
1.261674 0.549351 0.373829 234 227 217 3 7
0.449781 0.576331 0.263109 124 115 108 3 7
0.433058 0.592801 0.263533 114 104 95 3 7
0.457374 0.594008 0.263173 109 100 92 3 7
0.463650 0.606077 0.265437 119 108 100 3 7
0.429305 0.602493 0.264101 113 102 94 3 7
1.158829 0.547078 0.445329 172 165 157 3 7
1.149834 0.547370 0.458829 201 193 189 3 7
0.829548 0.554947 0.406829 242 234 229 3 7
1.019260 0.917503 0.252619 130 120 102 1 6
0.479327 0.939726 1.145699 235 225 221 1 6
0.468844 0.939030 1.156544 233 223 220 1 6
0.977131 0.595465 0.271291 134 120 110 3 7
0.959198 0.591976 0.265245 114 108 99 3 7
0.459472 0.561656 0.426829 229 220 215 3 7
0.470436 0.560140 0.460829 246 236 233 3 7
0.987513 0.915626 0.215671 133 122 111 1 6
0.998282 0.916863 0.230225 129 119 109 1 6
0.965737 0.916402 0.215404 125 115 104 1 6
0.905559 0.554399 0.406329 239 231 226 3 7
0.889415 0.553896 0.439579 239 231 225 3 7
1.293853 0.548600 0.345767 232 224 214 3 7
1.241055 0.549838 0.449579 232 225 218 3 7
0.643009 0.534593 1.061602 105 97 89 0 0
0.644892 0.536950 1.051987 107 99 91 0 0
0.635980 0.538074 1.041162 105 95 87 0 0
0.663318 0.540927 1.039536 100 91 85 0 0
0.662406 0.540025 1.050293 107 97 91 0 0
0.635914 0.533993 1.069439 107 97 90 0 0
0.643967 0.556221 1.140794 121 113 107 0 0
0.648030 0.543565 1.131424 82 77 71 0 0
0.634255 0.555578 1.136864 134 124 118 0 0
0.712078 0.917237 0.198772 142 132 119 1 6
0.745712 0.917256 0.201541 148 133 125 1 6
0.530396 0.938990 1.164381 230 220 216 1 6
0.537658 0.941845 1.142385 232 221 218 1 6
0.799092 0.552278 0.823829 234 226 226 3 7
0.840221 0.551890 0.843079 234 226 225 3 7
1.009986 0.584864 0.209800 69 63 72 0 0
0.998749 0.567709 0.220240 89 86 82 0 0
0.999083 0.570195 0.205806 71 64 73 0 0
1.009990 0.578813 0.228593 58 58 62 0 0
0.996999 0.554004 0.214474 81 80 77 0 0
1.016909 0.566236 0.231112 71 68 78 0 0
1.001395 0.560608 0.226439 76 75 76 0 0
0.757848 0.887550 0.247000 162 151 139 0 0
0.771851 0.895962 0.239077 153 139 129 0 0
0.748776 0.895866 0.238548 156 144 134 0 0
0.570250 0.755676 1.071834 68 61 55 0 0
0.566762 0.746725 1.078269 72 65 59 0 0
0.562149 0.739541 1.069688 66 60 54 0 0
0.560385 0.743572 1.085875 71 65 58 0 0
0.560273 0.726071 1.076541 104 95 85 0 0
0.560015 0.735695 1.086893 106 96 88 0 0
1.056400 0.551105 0.519329 236 230 225 3 7
0.480341 0.597004 0.263077 113 104 96 3 7
0.489745 0.597859 0.264146 128 119 109 3 7
0.504443 0.576179 0.262859 148 138 129 3 7
0.486241 0.575292 0.262873 114 107 96 3 7
0.481816 0.583026 0.261880 118 110 100 3 7
0.514833 0.581332 0.261739 79 70 62 3 7
1.070789 0.588675 0.263965 113 105 95 3 7
1.089109 0.590779 0.263933 105 98 94 3 7
0.621848 0.532030 1.062195 103 93 86 0 0
0.481396 0.937215 1.170802 234 224 219 1 6
0.487818 0.938118 1.184279 233 222 216 1 6
0.483900 0.937687 1.197788 233 222 219 1 6
0.465730 0.940701 1.184303 234 224 219 1 6
0.510359 0.556682 0.842829 240 232 231 3 7
1.199393 0.548978 0.750829 225 217 215 3 7
0.593993 0.556008 0.849657 239 230 232 3 7
0.602714 0.612129 1.122272 177 169 166 0 0
0.590961 0.603945 1.129590 207 199 193 0 0
0.594216 0.615279 1.131289 214 204 199 0 0
0.770561 0.558966 0.266816 140 133 125 3 7
0.807497 0.557940 0.266699 140 132 124 3 7
0.858734 0.552152 0.759579 234 226 226 3 7
1.357681 0.548375 0.320704 226 218 210 3 7
0.474869 0.557546 0.792579 239 233 231 3 7
0.491116 0.557223 0.807829 240 232 231 3 7
0.536883 0.641548 1.003925 163 154 145 0 0
0.615162 0.530574 1.077652 114 105 98 0 0
0.605425 0.529420 1.070526 111 103 94 0 0
0.626061 0.530856 1.070763 96 86 81 0 0
0.606524 0.537694 1.070936 117 106 99 0 0
0.542782 0.566254 0.266145 126 118 110 3 7
0.570285 0.565352 0.266671 130 123 114 3 7
0.817356 0.552580 0.735829 235 227 226 3 7
0.776602 0.552942 0.737329 236 228 226 3 7
1.144216 0.550098 0.501204 231 225 223 3 7
1.189160 0.549775 0.493329 231 225 224 3 7
0.718474 0.553572 0.734079 235 229 229 3 7
0.732741 0.553456 0.784720 236 229 229 3 7
0.721333 0.552957 0.764829 235 230 229 3 7
0.450090 0.556768 0.709579 238 229 227 3 7
0.436825 0.556347 0.730829 242 233 234 3 7
0.927002 0.560555 0.261391 172 162 152 3 7
0.961033 0.557716 0.262627 164 156 146 3 7
0.785906 0.554867 0.494844 242 234 231 3 7
1.166176 0.458952 0.210775 59 61 69 0 0
1.175760 0.465153 0.205031 61 63 71 0 0
1.133343 0.457832 0.226554 138 129 119 0 0
1.152443 0.460815 0.223072 72 72 79 0 0
1.164128 0.460953 0.217034 59 60 71 0 0
1.160096 0.469855 0.215652 60 61 73 0 0
1.290811 0.909225 0.279479 142 125 108 1 6
1.298662 0.907696 0.273977 138 123 105 1 6
1.281790 0.910175 0.268990 121 104 90 1 6
1.156286 0.550225 0.763329 226 218 216 3 7
0.781108 0.880824 0.278969 109 101 93 0 0
0.806038 0.875831 0.282785 134 126 114 0 0
0.725729 0.559483 0.267565 172 164 157 3 7
0.718978 0.565959 0.262285 161 153 141 3 7
0.986744 0.597000 0.269983 144 135 129 3 7
0.819228 0.562709 0.909333 168 164 168 3 7
1.329939 0.903876 0.277343 134 119 104 1 6
1.339579 0.907946 0.263915 131 119 99 1 6
1.318249 0.903818 0.273986 131 115 103 1 6
0.780754 0.581544 0.261268 137 126 116 3 7
0.774933 0.590031 0.265812 109 103 95 3 7
0.770249 0.565274 0.262335 134 123 116 3 7
0.761356 0.575550 0.260864 137 128 116 3 7
1.327420 0.548327 0.423329 232 225 218 3 7
1.331076 0.548464 0.398829 233 226 218 3 7
0.833518 0.561871 0.938559 163 158 156 3 7
0.817340 0.560906 0.944281 169 163 159 3 7
0.802355 0.557086 0.958835 147 140 137 3 7
0.808857 0.561087 0.975711 101 96 92 3 7
1.051880 0.577882 0.258860 94 84 78 3 7
1.080807 0.557375 0.257380 135 117 104 3 7
1.081819 0.568264 0.256576 129 118 99 3 7
0.951138 0.555734 0.266726 166 157 146 3 7
0.937946 0.554417 0.305079 233 224 218 3 7
0.971698 0.917327 0.249748 121 111 101 1 6
0.973011 0.912217 0.256695 105 95 91 1 6
0.996291 0.918109 0.247157 103 96 87 1 6
0.967076 0.918013 0.235712 123 108 99 1 6
0.984057 0.917422 0.230853 126 116 104 1 6
1.166890 0.549623 0.471293 219 212 209 3 7
1.320763 0.907542 0.247927 110 100 93 1 6
1.311921 0.911171 0.259711 139 123 108 1 6
1.300645 0.907725 0.251096 139 127 113 1 6
0.480289 0.608752 0.266237 105 97 84 3 7
0.854872 0.552695 0.713829 235 228 227 3 7
1.109413 0.589661 0.262638 106 97 89 3 7
0.561872 0.558895 0.506079 245 236 235 3 7
1.009643 0.543382 0.333780 210 199 188 3 7
1.007450 0.545267 0.346217 220 210 202 3 7
0.998111 0.551055 0.355959 229 220 211 3 7
0.821166 0.552391 0.794798 234 225 226 3 7
0.846533 0.551754 0.783142 232 225 224 3 7
0.908965 0.559104 0.262082 125 117 106 3 7
0.897172 0.567769 0.259687 125 117 108 3 7
0.912793 0.575482 0.258886 96 88 79 3 7
0.899507 0.582613 0.260690 120 112 100 3 7
0.901608 0.591219 0.264377 121 114 100 3 7
0.726928 0.556496 0.429079 243 235 233 3 7
1.219535 0.549373 0.658704 225 219 214 3 7
1.228089 0.548910 0.628048 225 218 215 3 7
0.611621 0.555810 0.752829 240 232 232 3 7
0.523909 0.687032 1.032549 133 123 112 0 0
0.520996 0.683205 1.049876 142 130 117 0 0
0.527129 0.698410 1.064211 135 124 110 0 0
0.518806 0.695149 1.031420 132 123 110 0 0
1.062551 0.908817 0.285774 130 115 102 1 6
1.057282 0.915450 0.277373 129 115 100 1 6
1.081569 0.915500 0.276559 130 118 101 1 6
0.528142 0.677413 1.028181 127 117 105 0 0
0.527065 0.686920 1.068717 134 122 111 0 0
0.533542 0.666710 1.039359 118 108 97 0 0
1.073501 0.912775 0.285535 120 108 96 1 6
1.084719 0.920260 0.284510 109 95 86 1 6
0.895959 0.879590 0.284570 122 112 104 0 0
0.709727 0.894500 0.218871 142 135 122 0 0
0.662305 0.894089 0.218660 144 137 120 0 0
0.661299 0.899038 0.214764 157 148 134 0 0
0.704917 0.895446 0.234015 125 114 101 0 0
0.687343 0.892269 0.226755 117 109 94 0 0
0.680607 0.911351 0.207697 161 150 141 0 0
0.791997 0.553522 0.698829 236 229 227 3 7
0.765374 0.553911 0.669829 239 233 232 3 7
0.671957 0.556705 0.463632 244 236 234 3 7
0.642427 0.557578 0.479829 243 235 233 3 7
1.281914 0.548707 0.309829 228 218 210 3 7
1.265483 0.549141 0.330079 230 223 213 3 7
0.422812 0.560841 0.476579 245 236 234 3 7
0.900044 0.910459 0.207189 139 127 117 0 0
0.871891 0.891836 0.228029 134 126 116 0 0
0.894064 0.894954 0.233949 136 127 116 0 0
0.868377 0.892864 0.218947 124 115 100 0 0
0.874382 0.899187 0.214162 151 143 128 0 0
0.902128 0.893193 0.217699 141 130 118 0 0
0.874374 0.911230 0.206822 146 140 128 0 0
0.556910 0.558023 0.548079 245 237 236 3 7
0.552402 0.557803 0.576954 246 237 237 3 7
0.591132 0.560737 0.286689 244 235 229 3 7
0.602913 0.564125 0.267251 206 197 189 3 7
0.593506 0.561585 0.275735 206 197 189 3 7
0.765917 0.555578 0.442329 242 234 232 3 7
1.283423 0.549019 0.438829 233 226 219 3 7
1.258803 0.548698 0.285445 226 217 210 3 7
0.476972 0.570573 0.961295 227 217 213 3 7
0.468848 0.568553 0.953791 229 220 217 3 7
0.511702 0.565633 0.956020 222 214 206 3 7
0.456600 0.557050 0.770829 239 231 229 3 7
0.507603 0.556516 0.758329 241 233 232 3 7
0.479378 0.557807 0.774829 234 225 224 3 7
0.474855 0.557014 0.757579 240 231 230 3 7
0.981618 0.552787 0.300025 190 180 171 3 7
0.979706 0.553356 0.323704 230 221 213 3 7
0.957947 0.554207 0.321324 234 225 217 3 7
0.481359 0.885477 0.251593 168 158 147 0 0
0.506866 0.885932 0.250617 169 158 148 0 0
0.998930 0.553007 0.507829 238 230 226 3 7
1.049079 0.552202 0.493036 238 230 226 3 7
1.026369 0.552679 0.517954 236 228 226 3 7
1.007415 0.552350 0.537829 234 227 223 3 7
1.034165 0.551984 0.535829 235 227 222 3 7
0.674037 0.938409 1.135561 216 207 202 1 6
0.704359 0.920434 1.144156 174 162 156 1 6
0.685801 0.936023 1.146674 216 208 201 1 6
0.531425 0.893159 0.237037 130 121 109 0 0
0.543363 0.898060 0.215043 170 160 149 0 0
0.548937 0.909826 0.208004 167 156 145 0 0
0.536375 0.893005 0.218876 169 157 148 0 0
0.515877 0.894070 0.236655 114 104 91 0 0
1.143385 0.549393 0.526829 235 227 225 3 7
0.971755 0.890815 0.281650 119 110 97 0 0
0.977209 0.889119 0.281465 119 109 100 0 0
1.205931 0.550350 0.392329 235 227 221 3 7
0.565717 0.560080 0.363304 246 237 233 3 7
0.588337 0.559972 0.382932 246 237 233 3 7
1.363417 0.547768 0.408829 234 226 220 3 7
1.389930 0.547898 0.402204 234 226 217 3 7
0.539635 0.602705 1.140379 254 243 238 0 0
0.563087 0.575986 1.139134 255 246 244 0 0
0.545937 0.585174 1.136417 255 246 244 0 0
0.571887 0.587863 1.145424 255 246 243 0 0
0.570210 0.601027 1.149220 255 246 243 0 0
0.554524 0.594964 1.144571 255 246 243 0 0
0.506076 0.687162 1.097872 154 141 128 0 0
0.507774 0.690449 1.091537 150 140 125 0 0
1.267408 0.548682 0.584329 230 223 220 3 7
1.291426 0.549030 0.584829 230 224 219 3 7
0.642269 0.556313 0.603454 242 234 232 3 7
0.753368 0.554100 0.850469 231 224 222 3 7
0.799950 0.555198 0.865937 231 223 220 3 7
1.138838 0.552822 0.271754 224 218 211 3 7
1.123875 0.554314 0.271125 253 253 247 3 7
1.129940 0.547774 0.293877 206 197 189 3 7
1.359343 0.572912 0.256547 148 139 126 3 7
1.343717 0.559037 0.255688 145 135 124 3 7
0.535566 0.634825 1.055948 119 108 99 0 0
0.519689 0.660265 1.084996 121 111 99 0 0
0.524259 0.633604 1.099334 122 112 103 0 0
0.526253 0.637081 1.089877 121 110 102 0 0
1.312920 0.548531 0.442704 235 226 220 3 7
1.165815 0.910493 0.279866 124 110 98 1 6
1.138553 0.551111 0.786329 224 216 214 3 7
1.182705 0.550383 0.785735 225 216 214 3 7
1.189980 0.585241 0.259392 67 61 58 3 7
1.050801 0.553308 0.262664 189 180 172 3 7
1.079828 0.552309 0.263137 150 143 137 3 7
0.716899 0.583309 0.988399 116 108 103 3 7
0.719956 0.567082 0.978080 128 119 113 3 7
0.721284 0.577605 0.983901 134 125 120 3 7
0.615403 0.557019 0.554829 245 236 236 3 7
0.829798 0.554955 0.381329 243 235 229 3 7
0.784680 0.555837 0.399579 240 234 228 3 7
0.879397 0.553319 0.622829 236 228 228 3 7
0.902640 0.552741 0.608454 235 227 228 3 7
0.885672 0.552582 0.643204 237 229 229 3 7
0.562044 0.709830 1.124691 161 152 143 0 0
0.569599 0.696529 1.129398 152 143 136 0 0
0.556135 0.710610 1.118009 131 123 114 0 0
0.550668 0.702907 1.122216 159 150 142 0 0
0.570138 0.713897 1.121680 123 115 107 0 0
1.029180 0.552629 0.557329 232 224 222 3 7
1.066412 0.551440 0.568829 233 223 221 3 7
1.040188 0.552023 0.580829 233 225 220 3 7
0.521918 0.558813 0.535329 247 238 237 3 7
0.536413 0.558411 0.562829 244 236 235 3 7
1.425197 0.915650 0.266867 139 122 105 1 6
1.420581 0.899768 0.274888 98 92 79 1 6
1.103662 0.550949 0.826829 225 217 214 3 7
1.102409 0.550878 0.668829 231 222 221 3 7
1.081903 0.550899 0.676767 229 221 219 3 7
0.679085 0.570224 1.118436 93 85 78 0 0
0.669687 0.568998 1.112895 122 114 107 0 0
0.688163 0.570941 1.118124 93 86 80 0 0
0.669049 0.544634 1.095978 81 74 65 0 0
0.678637 0.535253 1.068429 119 110 100 0 0
1.058405 0.551286 0.775829 225 217 214 3 7
0.446006 0.561458 0.902466 237 227 221 3 7
0.469681 0.562267 0.903392 229 221 215 3 7
0.606092 0.884736 0.257504 152 145 132 0 0
0.610823 0.885733 0.267832 152 145 132 0 0
0.676850 0.550483 1.105082 88 81 73 0 0
0.683153 0.554867 1.115165 77 72 64 0 0
0.673201 0.565172 1.111215 88 81 74 0 0
0.689021 0.557940 1.113178 75 71 66 0 0
0.691498 0.565457 1.120912 87 81 74 0 0
1.193296 0.550134 0.403579 233 227 217 3 7
0.525151 0.560951 0.338165 248 239 234 3 7
0.854938 0.555210 0.317579 241 232 226 3 7
0.568116 0.741871 1.095820 112 103 94 0 0
0.793362 0.553096 0.676829 238 229 228 3 7
0.873634 0.552898 0.690579 237 229 227 3 7
1.249420 0.549374 0.410829 236 228 220 3 7
1.258430 0.549619 0.425829 233 225 221 3 7
1.236179 0.549868 0.423829 233 225 219 3 7
1.078666 0.914992 0.234356 140 128 115 1 6
1.066622 0.917641 0.269003 136 125 110 1 6
1.080970 0.914264 0.251639 139 126 113 1 6
1.046130 0.477703 0.213320 70 67 83 0 0
1.042100 0.484821 0.226495 69 76 84 0 0
0.597861 0.892633 0.238543 160 151 139 0 0
0.580072 0.886866 0.246781 161 153 143 0 0
0.476780 0.574585 0.967843 214 206 200 3 7
0.491160 0.577238 0.967748 218 209 204 3 7
0.512877 0.575334 0.969819 216 207 202 3 7
0.506300 0.582209 0.969715 227 219 214 0 0
0.492184 0.581902 0.966401 231 223 218 0 0
0.496610 0.600492 0.953155 156 140 137 0 0
0.486514 0.592455 0.952017 217 208 204 0 0
0.808793 0.552632 0.812954 234 229 226 3 7
1.120394 0.542318 0.314504 159 151 140 3 7
1.127868 0.541472 0.377434 160 151 142 3 7
1.158591 0.547527 0.355829 160 150 141 3 7
0.557120 0.940008 1.160944 228 218 214 1 6
0.570102 0.938185 1.169387 226 216 212 1 6
0.554212 0.938990 1.177202 227 217 212 1 6
0.858393 0.553435 0.604829 237 230 227 3 7
0.901332 0.578758 0.875600 230 224 219 0 0
0.890692 0.560309 0.882591 253 248 250 3 7
0.928301 0.571112 0.884505 234 226 225 0 0
0.899984 0.570514 0.898094 223 215 210 3 7
0.903089 0.583868 0.897056 213 210 210 3 7
0.910506 0.583636 0.902824 225 219 218 3 7
0.911008 0.570198 0.888724 251 244 244 3 7
0.906396 0.576596 0.891132 229 224 219 3 7
1.357457 0.547845 0.294312 225 216 208 3 7
0.766038 0.558210 0.879608 231 223 221 3 7
0.564937 0.558951 0.440329 247 237 236 3 7
0.599941 0.558664 0.475829 244 236 234 3 7
0.628799 0.557624 0.465079 244 236 234 3 7
1.146397 0.549815 0.570829 230 222 220 3 7
1.176643 0.549269 0.559329 229 223 220 3 7
0.934630 0.591742 0.266679 120 110 105 3 7
0.827412 0.554557 0.496829 241 234 231 3 7
0.799383 0.553840 0.518829 241 233 232 3 7
0.813975 0.553882 0.507957 242 234 233 3 7
1.354677 0.548245 0.602548 225 216 214 3 7
0.548114 0.577367 0.261723 75 66 59 3 7
0.568720 0.582940 0.261921 78 70 60 3 7
0.565886 0.596646 0.264373 125 117 106 3 7
0.549965 0.596577 0.264766 96 90 84 3 7
1.313555 0.548902 0.547641 230 223 221 3 7
1.280793 0.548872 0.507017 231 224 221 3 7
1.280802 0.549222 0.538704 231 224 221 3 7
0.650430 0.557573 0.450454 244 235 234 3 7
0.649447 0.558232 0.426829 245 237 235 3 7
1.134941 0.591737 0.262988 124 112 98 3 7
1.151394 0.593239 0.265869 124 116 104 3 7
0.597468 0.559705 0.409829 243 235 234 3 7
0.623687 0.558210 0.427704 245 237 235 3 7
0.559011 0.561189 0.284080 246 237 230 3 7
0.555043 0.562910 0.272512 198 189 181 3 7
0.521919 0.562792 0.279870 239 232 225 3 7
0.980446 0.552706 0.546579 233 224 224 3 7
0.535245 0.561575 0.328829 249 240 234 3 7
1.026967 0.911488 0.277729 112 103 92 1 6
1.007869 0.896523 0.279193 119 106 97 1 6
1.015615 0.896395 0.281889 123 108 97 1 6
1.030487 0.909255 0.282886 121 113 98 1 6
0.539741 0.602261 1.074878 151 142 137 0 0
0.544676 0.583198 1.092876 196 184 182 0 0
0.552338 0.574007 1.098092 209 198 195 0 0
0.748046 0.883988 0.251921 149 140 129 0 0
1.320942 0.549115 0.273624 253 252 248 3 7
1.346770 0.548793 0.277001 253 252 248 3 7
1.332062 0.549429 0.263550 250 247 238 3 7
0.795456 0.556672 0.306829 241 232 225 3 7
1.038998 0.578691 0.891902 158 151 145 0 0
1.035335 0.566075 0.891807 197 186 182 0 0
1.033413 0.585077 0.884671 165 158 152 0 0
1.034707 0.552823 0.894119 212 202 196 0 0
0.695230 0.568475 0.980812 111 105 101 3 7
0.703323 0.573879 0.984149 100 95 88 3 7
1.191037 0.478961 0.217016 57 60 71 0 0
1.201536 0.456012 0.216644 54 66 73 0 0
1.182948 0.461999 0.217451 55 56 68 0 0
1.206552 0.469358 0.204483 56 64 77 0 0
1.185869 0.470775 0.215356 53 58 65 0 0
1.185670 0.474381 0.204588 53 57 61 0 0
1.205480 0.479254 0.207840 52 52 67 0 0
1.206564 0.469466 0.224148 82 80 89 0 0
1.102379 0.581322 0.905688 116 108 101 0 0
1.092492 0.574759 0.910156 118 111 103 0 0
0.538834 0.619674 1.067098 115 106 97 0 0
0.539967 0.591744 1.090193 157 147 142 0 0
0.537232 0.615111 1.080163 112 104 95 0 0
0.467593 0.566201 0.938829 228 219 216 3 7
0.927864 0.887172 0.248388 134 122 112 0 0
0.935093 0.885290 0.261867 125 118 109 0 0
0.944619 0.887587 0.266851 112 103 91 0 0
0.944307 0.909008 0.236598 132 123 112 0 0
0.932358 0.898360 0.237549 139 127 117 0 0
0.950607 0.908198 0.252482 121 116 103 0 0
0.959870 0.893870 0.265727 113 102 92 1 6
0.959271 0.911394 0.255572 113 107 96 1 6
1.220090 0.912474 0.268092 139 122 108 1 6
1.236051 0.911514 0.280518 123 110 96 1 6
1.245224 0.906453 0.275909 135 123 108 1 6
1.234066 0.909428 0.273634 136 120 109 1 6
1.225669 0.905833 0.281926 93 85 73 1 6
0.586107 0.578350 1.147560 254 245 242 0 0
0.592062 0.586038 1.146452 251 241 238 0 0
0.606294 0.573124 1.143027 250 239 235 0 0
0.602461 0.584452 1.136309 231 220 218 0 0
0.587564 0.596054 1.141200 253 243 240 0 0
0.577581 0.594054 1.146726 255 246 243 0 0
1.225670 0.549656 0.465829 234 226 221 3 7
1.226429 0.549991 0.486829 231 223 221 3 7
1.092634 0.632349 0.900268 159 155 149 0 0
1.100494 0.639016 0.899619 160 156 150 0 0
1.098147 0.643497 0.905587 192 187 181 0 0
0.839757 0.553250 0.586704 239 229 228 3 7
0.588018 0.618836 1.138567 187 177 171 0 0
0.586940 0.607779 1.136300 241 229 227 0 0
0.577277 0.610632 1.139688 228 217 212 0 0
0.623913 0.557276 0.491329 243 235 233 3 7
0.606423 0.557892 0.502329 242 234 232 3 7
0.669219 0.558816 0.330579 247 238 232 3 7
0.661842 0.558836 0.351204 246 238 232 3 7
0.553680 0.940057 1.108671 228 218 215 1 6
0.571643 0.938596 1.119930 227 217 212 1 6
0.582597 0.939653 1.098081 225 216 213 1 6
0.587062 0.938734 1.125795 225 216 211 1 6
0.556698 0.943031 1.134990 228 218 217 1 6
0.757358 0.553437 0.828329 235 229 228 3 7
1.109400 0.550417 0.658829 230 222 219 3 7
1.081907 0.551061 0.645829 230 222 220 3 7
0.534510 0.617928 0.977636 155 142 137 0 0
0.526850 0.615347 0.969439 159 147 141 0 0
0.513292 0.597349 0.962586 161 148 142 0 0
0.513801 0.605028 0.958686 156 141 138 0 0
0.518650 0.614645 0.963339 149 134 131 0 0
0.524886 0.708751 1.036962 107 100 87 0 0
0.604186 0.558395 0.452454 247 236 235 3 7
1.056737 0.562068 0.900859 134 127 118 0 0
1.065857 0.577086 0.898795 134 127 118 0 0
1.064210 0.565090 0.904427 154 145 137 0 0
0.957205 0.550171 0.866531 217 209 206 3 7
0.990841 0.549743 0.853329 216 208 206 3 7
0.928352 0.550951 0.843778 230 221 221 3 7
0.694064 0.554952 0.572454 243 234 235 3 7
0.671605 0.938785 1.154209 228 219 217 1 6
1.193634 0.913913 0.269741 131 114 98 1 6
0.495785 0.940130 1.074109 245 238 235 1 6
0.515291 0.941930 1.073228 243 236 233 1 6
1.182748 0.903817 0.281033 115 101 89 1 6
1.161519 0.915553 0.267513 132 122 104 1 6
1.179048 0.911889 0.277825 137 120 104 1 6
1.171973 0.908612 0.285321 111 102 91 1 6
1.153423 0.914596 0.281075 124 112 97 1 6
0.744403 0.882389 0.277708 130 122 112 0 0
0.507878 0.557429 0.620329 243 235 234 3 7
0.487262 0.558080 0.638454 245 236 236 3 7
0.454947 0.560798 0.482829 244 235 234 3 7
1.117648 0.540702 0.411829 220 211 202 3 7
1.107139 0.540471 0.380829 228 219 210 3 7
1.098789 0.544358 0.410387 223 215 206 3 7
1.018939 0.916029 0.201829 132 124 107 1 6
1.000922 0.915601 0.198829 134 123 108 1 6
1.010910 0.918041 0.242192 133 122 109 1 6
1.019750 0.915734 0.220253 131 121 107 1 6
1.084471 0.521449 0.209176 52 54 59 0 0
0.650659 0.546230 1.102125 100 92 84 0 0
0.661092 0.552837 1.100476 81 75 70 0 0
0.671397 0.556124 1.110513 80 74 67 0 0
0.660884 0.565317 1.111200 104 96 88 0 0
0.660298 0.552569 1.109953 116 108 100 0 0
0.663219 0.555860 1.115425 110 102 95 0 0
0.641989 0.549636 1.105464 103 95 87 0 0
0.648667 0.536825 1.110301 92 86 78 0 0
0.637074 0.541668 1.107977 107 100 93 0 0
0.649518 0.551180 1.107297 104 97 89 0 0
0.635808 0.540923 1.119201 107 100 92 0 0
0.641005 0.544007 1.124203 98 91 86 0 0
0.497808 0.568769 0.962184 220 213 205 3 7
0.531647 0.570996 0.968296 212 203 196 3 7
0.507172 0.588541 0.961433 216 206 203 0 0
1.138653 0.550171 0.601329 228 222 218 3 7
1.015418 0.590136 0.213359 55 53 59 0 0
1.015422 0.590201 0.226924 55 53 59 0 0
1.019731 0.600599 0.199110 43 44 53 0 0
1.147142 0.571657 0.257144 139 125 111 3 7
1.171894 0.569390 0.255283 137 121 106 3 7
1.168691 0.554087 0.258554 188 179 171 3 7
0.717947 0.553731 0.677892 241 232 233 3 7
0.710049 0.561164 0.971687 114 107 101 3 7
0.728000 0.557172 0.971409 127 122 115 3 7
1.188956 0.910409 0.278040 137 121 102 1 6
1.215285 0.908309 0.278237 125 111 94 1 6
0.835942 0.555613 0.364329 242 235 229 3 7
0.859362 0.554609 0.380204 240 232 226 3 7
0.830617 0.552797 0.709579 235 227 227 3 7
0.845369 0.552714 0.741829 236 228 228 3 7
0.877378 0.552609 0.734829 235 226 226 3 7
0.665145 0.557985 1.022948 101 92 84 0 0
0.678500 0.562567 1.029145 84 77 70 0 0
0.623699 0.558649 0.389392 243 235 233 3 7
0.598474 0.559949 0.371829 246 237 234 3 7
1.031716 0.554921 0.262599 163 153 141 3 7
1.026704 0.561780 0.257877 134 120 102 3 7
1.049989 0.558496 0.258644 128 118 101 3 7
1.052200 0.567250 0.257458 131 119 104 3 7
1.027758 0.575861 0.258169 125 113 101 3 7
0.455352 0.892017 0.236564 172 164 153 0 0
1.433043 0.914355 0.206676 121 114 103 1 6
1.430902 0.914577 0.222912 121 112 99 1 6
0.493515 0.560498 0.420829 248 239 237 3 7
0.489190 0.560081 0.447329 248 238 236 3 7
1.361595 0.551228 0.262179 254 254 248 3 7
1.378591 0.548958 0.273646 254 254 249 3 7
0.699861 0.554289 0.829329 237 229 231 3 7
0.671700 0.554582 0.834540 236 229 229 3 7
0.794170 0.555312 0.447829 243 234 233 3 7
0.805911 0.554811 0.461329 242 234 232 3 7
0.804416 0.555030 0.435829 240 232 230 3 7
1.053351 0.520464 0.215557 67 68 76 0 0
1.090059 0.498067 0.206899 52 52 60 0 0
1.066932 0.503552 0.213950 66 70 79 0 0
1.060403 0.518890 0.207855 51 53 62 0 0
1.067840 0.492013 0.232012 141 131 124 0 0
1.049056 0.521980 0.226447 72 74 87 0 0
1.081002 0.496597 0.209360 70 70 78 0 0
1.070951 0.497235 0.226200 70 72 84 0 0
0.717334 0.930784 1.100878 188 180 174 1 6
0.722125 0.919986 1.106393 145 133 127 1 6
0.710270 0.935801 1.103721 180 172 164 1 6
1.025044 0.915473 0.187761 132 120 109 1 6
1.035260 0.917408 0.244470 133 123 109 1 6
1.052944 0.915743 0.223829 133 121 107 1 6
0.503049 0.887122 0.273496 164 155 145 0 0
0.485951 0.887832 0.278059 85 78 67 0 0
0.513748 0.884499 0.266920 111 103 95 0 0
0.594849 0.557559 0.571642 245 236 236 3 7
0.986030 0.552218 0.439704 235 226 219 3 7
0.958110 0.553257 0.443767 231 221 218 3 7
0.905866 0.551772 0.749579 231 225 224 3 7
0.925385 0.552260 0.776829 231 224 224 3 7
1.108012 0.541127 0.428593 218 211 203 3 7
1.099666 0.547292 0.452663 221 214 206 3 7
1.095624 0.547480 0.440771 225 217 209 3 7
1.091326 0.547821 0.417829 220 212 204 3 7
1.088609 0.549129 0.456829 178 170 166 3 7
1.326429 0.548696 0.642329 227 218 215 3 7
0.827928 0.580482 0.262292 131 121 108 3 7
0.844916 0.570424 0.260838 127 116 105 3 7
0.444599 0.556422 0.870493 242 233 233 3 7
0.463665 0.557026 0.847267 240 232 232 3 7
0.773368 0.553587 0.726829 237 230 228 3 7
1.036913 0.551877 0.747954 228 221 218 3 7
1.022164 0.552105 0.763829 231 222 221 3 7
0.862962 0.593615 0.268467 121 114 111 3 7
0.825340 0.551838 0.766829 235 228 226 3 7
1.184779 0.464465 0.199587 46 52 62 0 0
1.190840 0.481264 0.203020 55 55 64 0 0
0.883953 0.555393 0.311329 239 230 222 3 7
0.905445 0.554824 0.320829 238 227 220 3 7
1.141269 0.545003 0.329329 184 175 166 3 7
0.468691 0.556784 0.729048 242 234 232 3 7
0.515364 0.556806 0.738829 242 234 233 3 7
1.008418 0.552432 0.568829 232 224 221 3 7
1.043921 0.552101 0.600829 231 224 219 3 7
1.036666 0.551981 0.617829 231 224 221 3 7
1.250290 0.549155 0.737454 225 216 213 3 7
0.614909 0.559603 0.343142 247 238 232 3 7
0.623226 0.559696 0.299704 247 238 232 3 7
1.180776 0.549534 0.336579 232 223 216 3 7
1.213429 0.550175 0.350829 234 226 220 3 7
0.913263 0.554845 0.275778 235 226 219 3 7
0.923876 0.556095 0.267807 229 219 211 3 7
1.257417 0.549124 0.688329 225 218 215 3 7
1.253407 0.548823 0.708329 225 217 215 3 7
1.381003 0.913716 0.194829 123 115 104 1 6
1.113361 0.540749 0.389162 222 214 205 3 7
1.089649 0.547456 0.387829 227 218 210 3 7
1.089544 0.547865 0.353046 225 217 208 3 7
1.097920 0.542950 0.346534 230 221 212 3 7
1.100811 0.542185 0.382931 223 214 206 3 7
0.502027 0.563221 0.927829 211 203 200 3 7
0.525024 0.563712 0.938591 206 198 196 3 7
0.558237 0.565068 0.916740 209 201 197 3 7
1.023398 0.551482 0.814329 224 217 215 3 7
1.015388 0.551189 0.831829 222 214 212 3 7
1.123783 0.550541 0.749891 226 219 215 3 7
1.030171 0.553202 0.485368 237 228 228 3 7
1.039779 0.552341 0.478444 221 214 209 3 7
0.605315 0.540392 1.102574 132 122 116 0 0
0.627218 0.541551 1.102361 118 109 101 0 0
0.631389 0.544717 1.100782 119 110 103 0 0
0.634361 0.537341 1.103467 105 99 91 0 0
0.606390 0.538304 1.123561 136 126 122 0 0
0.630038 0.536302 1.115870 106 99 93 0 0
0.621020 0.539756 1.109604 113 105 101 0 0
0.622893 0.542739 1.117697 114 106 101 0 0
0.618679 0.539652 1.124936 124 115 110 0 0
0.623317 0.546019 1.132287 113 106 101 0 0
0.632381 0.540654 1.126851 112 104 100 0 0
0.893002 0.552393 0.724079 236 228 227 3 7
0.897450 0.555125 0.370829 239 232 225 3 7
0.919695 0.554621 0.381454 238 230 223 3 7
0.884860 0.567678 0.946519 156 149 147 3 7
0.883841 0.569555 0.958858 139 133 126 3 7
0.865123 0.561687 0.947387 146 140 134 3 7
1.090875 0.601259 0.905150 166 158 153 0 0
1.240766 0.911269 0.215250 133 121 110 1 6
0.811929 0.566012 0.981479 60 54 52 3 7
0.832483 0.570925 0.982279 67 62 59 3 7
0.824215 0.563447 0.972612 95 90 87 3 7
0.642822 0.563903 0.981595 109 100 93 3 7
0.650310 0.566144 0.990496 107 98 89 3 7
0.652749 0.569101 0.994777 74 68 61 3 7
0.652288 0.577486 0.997782 101 93 85 3 7
0.635365 0.578872 1.002260 94 86 78 0 0
0.666605 0.554493 0.812329 238 230 230 3 7
1.327411 0.547980 0.380829 233 225 217 3 7
1.237028 0.585225 0.260967 117 108 97 3 7
1.222792 0.587915 0.260650 125 117 106 3 7
0.564694 0.564450 0.903918 232 224 218 3 7
0.582509 0.561479 0.893323 232 220 205 3 7
0.629279 0.547633 1.044482 97 90 85 0 0
0.615696 0.542821 1.050583 103 97 89 0 0
0.620988 0.552480 1.040122 92 87 81 0 0
0.610551 0.542734 1.062628 105 96 89 0 0
0.618886 0.539154 1.067506 105 98 91 0 0
0.626903 0.536948 1.053360 102 93 86 0 0
0.869926 0.554545 0.478829 240 232 230 3 7
0.919416 0.553503 0.483829 239 232 230 3 7
0.944141 0.878309 0.286690 97 91 84 0 0
0.732329 0.562209 0.924079 217 208 201 3 7
0.497183 0.559703 0.523579 245 237 236 3 7
1.223915 0.549485 0.720579 226 218 216 3 7
0.645449 0.940399 1.148829 220 211 206 1 6
0.678967 0.556211 0.492892 241 234 232 3 7
0.654663 0.556852 0.497829 241 233 231 3 7
1.058662 0.551562 0.698079 231 224 221 3 7
1.088414 0.551246 0.709829 231 224 221 3 7
0.839062 0.882743 0.282088 126 117 105 0 0
0.859575 0.882148 0.276876 134 121 112 0 0
0.871235 0.881298 0.283397 138 125 118 0 0
0.999040 0.588395 0.264485 136 121 114 3 7
0.898301 0.916042 0.201124 126 119 105 1 6
1.173214 0.911746 0.208410 128 118 106 1 6
1.187470 0.910122 0.232193 125 116 106 1 6
0.765400 0.884906 0.250778 154 142 131 0 0
0.793952 0.883400 0.254385 152 141 127 0 0
0.819271 0.884622 0.250869 149 143 130 0 0
0.793719 0.895595 0.239212 154 144 133 0 0
0.599167 0.592774 1.129205 211 202 197 0 0
0.753437 0.556504 0.387329 244 235 230 3 7
1.260962 0.909611 0.226229 128 119 108 1 6
1.277383 0.910026 0.231835 117 108 96 1 6
0.466282 0.886770 0.272520 155 145 135 0 0
0.452063 0.892262 0.281720 138 129 120 0 0
0.468505 0.883719 0.280643 131 122 114 0 0
0.478432 0.885616 0.281454 154 144 136 0 0
0.973979 0.550450 0.838579 225 217 215 3 7
0.542363 0.556427 0.762829 242 234 233 3 7
0.575860 0.555877 0.778329 242 233 233 3 7
0.978158 0.552460 0.520079 238 229 227 3 7
1.412763 0.913910 0.190217 121 112 102 1 6
1.383360 0.913413 0.215215 122 112 101 1 6
1.400080 0.912461 0.223140 118 109 97 1 6
1.370486 0.911599 0.228767 117 108 97 1 6
0.524990 0.572980 0.263248 118 111 103 3 7
0.528992 0.601145 0.265253 112 100 92 3 7
0.510443 0.597571 0.264368 114 105 100 3 7
1.112034 0.915959 0.267888 134 119 107 1 6
1.103216 0.925656 0.283709 133 119 103 1 6
1.121103 0.913557 0.279814 129 118 104 1 6
1.093736 0.915598 0.279500 132 119 102 1 6
1.107984 0.916615 0.278751 132 118 102 1 6
1.028907 0.915652 0.263100 96 85 75 1 6
1.045805 0.916568 0.272585 111 97 83 1 6
1.052502 0.912483 0.284012 123 112 100 1 6
0.627984 0.563546 0.901247 212 198 162 3 7
0.617318 0.564064 0.921340 216 202 169 3 7
0.557866 0.558708 0.529204 245 237 237 3 7
0.600580 0.558008 0.533267 244 236 236 3 7
0.576295 0.558163 0.547954 246 237 237 3 7
1.372524 0.550436 0.262502 152 143 131 3 7
1.386037 0.574937 0.256736 138 129 118 3 7
1.393929 0.587244 0.258961 138 129 118 3 7
1.371277 0.553895 0.257693 164 153 142 3 7
1.382378 0.562515 0.257430 164 155 142 3 7
1.396612 0.552403 0.262626 235 227 217 3 7
0.866949 0.555454 0.293954 235 226 219 3 7
0.880734 0.555763 0.274058 234 226 218 3 7
0.853829 0.556016 0.269061 181 170 160 3 7
0.517753 0.670630 1.117641 141 132 118 0 0
0.524720 0.682616 1.118670 143 135 119 0 0
0.517997 0.685457 1.105632 154 143 131 0 0
0.515062 0.696515 1.107002 157 146 136 0 0
0.529243 0.692863 1.113975 155 144 132 0 0
0.526563 0.670660 1.127562 123 110 97 0 0
0.538378 0.679281 1.127683 131 121 105 0 0
0.530509 0.688965 1.123345 153 141 127 0 0
0.534662 0.696448 1.115011 141 134 119 0 0
0.563200 0.941215 1.091771 237 230 227 1 6
0.564387 0.943445 1.072208 242 234 231 1 6
0.570070 0.556731 1.099600 208 197 194 0 0
0.602372 0.543577 1.090438 130 120 113 0 0
0.590296 0.552342 1.074279 163 153 144 0 0
0.582984 0.551704 1.093657 189 179 172 0 0
0.600588 0.541237 1.075917 134 124 115 0 0
0.564160 0.570932 1.073446 166 155 154 0 0
0.573239 0.559070 1.082227 176 164 162 0 0
0.589676 0.544911 1.097389 174 163 156 0 0
1.317124 0.547720 0.285926 226 218 208 3 7
0.451187 0.563152 0.324025 249 240 235 3 7
0.445527 0.563972 0.302829 249 238 234 3 7
0.613807 0.942218 1.118426 223 214 211 1 6
0.585859 0.939617 1.113013 224 215 212 1 6
0.660727 0.884346 0.254071 159 148 137 0 0
0.683247 0.883638 0.257121 155 148 133 0 0
1.097413 0.585396 0.909183 130 123 115 0 0
1.101635 0.605643 0.908177 154 147 142 0 0
0.473695 0.940004 1.207834 232 221 219 1 6
0.455991 0.940416 1.203912 233 222 219 1 6
0.945630 0.551795 0.688329 235 227 225 3 7
0.461325 0.589132 0.966964 140 107 117 0 0
0.465017 0.587698 0.973474 142 113 120 0 0
0.452665 0.583372 0.976771 175 159 162 3 7
0.460772 0.577006 0.971740 190 180 177 3 7
0.974566 0.586416 0.261534 126 116 108 3 7
0.985775 0.585023 0.260501 139 126 115 3 7
0.967218 0.566210 0.257919 139 130 115 3 7
0.947094 0.566614 0.259399 131 121 111 3 7
0.960393 0.579723 0.259303 129 118 105 3 7
1.281906 0.548391 0.633954 225 217 214 3 7
0.577505 0.885866 0.278431 110 104 93 0 0
0.568274 0.882335 0.278783 125 118 106 0 0
0.623510 0.552265 1.012833 92 83 77 0 0
0.631808 0.550636 1.017060 96 88 80 0 0
0.619532 0.555382 1.026365 89 81 74 0 0
0.609080 0.567771 1.020482 82 76 70 0 0
0.625526 0.555973 1.009262 86 78 72 0 0
0.632784 0.556967 1.024528 93 84 78 0 0
0.614614 0.558404 1.031295 89 84 79 0 0
0.623936 0.558485 1.019966 94 85 78 0 0
1.114091 0.540130 0.380059 163 153 145 3 7
1.239893 0.548470 0.599079 229 221 217 3 7
0.591985 0.568028 1.140918 250 240 236 0 0
0.565489 0.567164 1.133279 252 242 239 0 0
0.602949 0.560600 1.143076 249 238 233 0 0
1.313410 0.548130 0.334829 227 219 210 3 7
1.374253 0.548486 0.520517 230 223 220 3 7
0.611749 0.585902 1.129447 222 213 207 0 0
0.605567 0.597841 1.125000 234 225 220 0 0
0.617621 0.590668 1.118287 238 230 224 0 0
0.725366 0.554144 0.610954 241 233 231 3 7
0.630118 0.561830 0.952872 172 165 155 3 7
0.618284 0.561886 0.964103 160 152 141 3 7
0.715500 0.556835 0.963087 149 143 138 3 7
0.732052 0.557594 0.959272 142 138 134 3 7
0.722044 0.559384 0.949707 183 178 173 3 7
0.700555 0.558725 0.959289 161 153 146 3 7
0.539044 0.668056 1.132536 122 110 103 0 0
0.666003 0.563521 0.900384 231 220 217 3 7
0.561863 0.556175 0.830392 241 232 233 3 7
0.536747 0.556830 0.831517 239 231 231 3 7
0.927397 0.552677 0.726829 232 225 224 3 7
0.937377 0.551808 0.755829 235 226 226 3 7
1.214788 0.549553 0.680829 228 219 217 3 7
0.549365 0.724520 1.087290 74 68 62 0 0
1.108148 0.550386 0.615329 229 220 218 3 7
1.140641 0.549694 0.621329 230 221 219 3 7
1.149897 0.549774 0.649329 229 220 218 3 7
0.845607 0.560625 0.898422 200 196 195 3 7
0.852376 0.555125 0.876168 200 195 195 3 7
0.553804 0.557635 0.616423 243 235 235 3 7
0.879424 0.554355 0.388829 238 232 225 3 7
0.881908 0.553699 0.417829 240 232 227 3 7
0.794858 0.562500 0.919714 159 153 155 3 7
0.764078 0.561760 0.933829 127 121 116 3 7
0.788970 0.561253 0.939456 153 147 148 3 7
1.019854 0.550721 0.884439 151 143 137 3 7
1.029138 0.549499 0.885874 164 156 150 3 7
1.056749 0.546662 0.895481 185 175 169 3 7
1.062355 0.546949 0.882056 141 134 128 3 7
1.045920 0.556226 0.900683 185 175 169 0 0
1.083873 0.623273 0.895319 158 155 147 0 0
1.074766 0.615818 0.892565 158 154 148 0 0
1.085394 0.616975 0.903121 194 189 181 0 0
1.088311 0.631087 0.904606 194 190 181 0 0
0.868032 0.915149 0.202869 128 124 112 1 6
0.966383 0.555378 0.878023 179 171 168 3 7
0.522475 0.556182 0.729329 240 232 231 3 7
0.492363 0.557069 0.738829 242 234 233 3 7
0.805570 0.563018 0.262881 159 145 137 3 7
0.828531 0.587717 0.266226 131 120 110 3 7
0.797935 0.579398 0.261220 132 122 110 3 7
0.828828 0.566203 0.262634 136 124 115 3 7
0.810984 0.580978 0.261817 134 125 115 3 7
0.827431 0.555276 0.430329 242 234 229 3 7
0.958372 0.887038 0.282225 114 106 93 0 0
0.950935 0.885915 0.283193 94 89 83 0 0
0.956566 0.888769 0.272269 103 99 85 0 0
0.543865 0.638370 1.034116 128 118 112 0 0
0.541811 0.650432 1.032381 186 173 168 0 0
0.585802 0.565028 0.913354 213 200 165 3 7
0.585576 0.564850 0.924154 224 212 168 3 7
1.169419 0.549192 0.308994 229 221 211 3 7
1.152169 0.547442 0.310393 225 217 209 3 7
1.141989 0.549974 0.280637 222 213 206 3 7
1.101030 0.552073 0.273305 254 250 239 3 7
1.100417 0.549086 0.281521 205 198 188 3 7
1.085415 0.547251 0.303716 184 175 166 3 7
1.104732 0.547232 0.291602 194 185 177 3 7
1.313687 0.910508 0.221177 123 113 102 1 6
1.304157 0.912832 0.209351 123 110 102 1 6
1.317286 0.910115 0.229381 120 109 96 1 6
1.290096 0.911849 0.218588 119 110 99 1 6
0.576798 0.598806 1.021501 109 103 94 0 0
0.649562 0.562801 0.898540 234 224 220 3 7
