ply
format ascii 1.0
element vertex 1111
property float x
property float y
property float z
property uchar red
property uchar green
property uchar blue
property uchar semantic_label
property uchar instance_label
end_header
-0.290739 -1.325390 -0.669024 12 7 5 14 6
-0.306519 -1.334172 -0.668846 12 7 5 14 6
-0.954306 -1.168395 -0.799517 15 14 10 2 2
-0.927062 -1.159039 -0.800827 15 14 10 2 2
-0.918160 -1.176548 -0.797261 16 13 10 2 2
-0.497375 -0.828369 -0.793606 30 14 12 14 8
-0.940547 -1.146038 -0.804877 15 14 10 2 2
-1.037259 -1.187859 -0.707659 22 12 10 14 8
-1.027739 -1.190024 -0.711998 21 12 10 14 8
-1.037800 -1.197085 -0.707955 22 13 9 14 8
-1.036449 -1.185386 -0.688910 18 13 8 14 8
-1.021090 -1.193956 -0.711863 17 12 9 14 8
-0.368250 -1.270625 -0.626337 13 7 7 14 6
-0.549468 -0.678725 -0.754786 39 22 18 14 8
-0.542280 -0.686834 -0.764595 39 22 18 14 8
-0.552574 -0.656346 -0.750576 40 23 18 14 8
-0.529668 -0.677088 -0.774282 39 21 15 14 8
-0.996603 -0.771986 -0.821547 34 26 19 2 2
-1.039809 -0.776409 -0.819118 32 28 23 2 2
-1.022704 -0.783507 -0.819205 39 30 21 2 2
-0.434508 -1.091730 -0.679751 19 17 13 14 6
-0.462147 -1.094994 -0.673837 18 17 13 14 6
-0.437349 -1.118328 -0.673487 21 16 12 14 6
-0.435854 -1.106714 -0.677278 20 15 12 14 6
-0.458591 -1.101985 -0.672454 19 17 13 14 6
-0.810833 -1.178326 -0.698058 19 12 10 14 8
-0.811080 -1.180620 -0.714249 17 12 11 2 2
-0.809971 -1.189433 -0.718989 21 14 10 2 2
-0.791551 -1.180346 -0.715160 19 12 10 2 2
-0.807658 -1.204230 -0.714284 19 11 7 2 2
-0.789927 -1.198120 -0.711320 18 17 14 2 2
-0.798265 -1.188617 -0.716756 18 12 7 2 2
-0.787490 -1.180492 -0.692768 19 12 9 14 8
-0.823079 -1.188181 -0.717160 20 13 10 2 2
-0.403929 -1.167277 -0.698076 13 7 7 14 6
-0.407073 -1.161238 -0.705665 14 7 8 14 6
-0.405176 -1.179092 -0.700989 13 7 8 14 6
-0.418766 -1.146090 -0.703193 18 14 10 14 6
-0.415783 -1.154842 -0.712815 16 9 9 14 6
-0.408772 -1.169423 -0.712998 13 7 8 14 6
-0.408589 -1.156880 -0.692343 15 8 7 14 6
-0.415153 -1.149281 -0.696223 18 13 10 14 6
-0.404440 -1.180053 -0.682388 14 7 8 14 6
-0.469020 -1.256681 -0.650999 23 18 19 14 6
-0.465321 -1.258804 -0.641067 25 20 21 14 6
-0.475515 -1.261687 -0.633406 25 20 21 14 6
-0.493560 -1.265000 -0.650248 30 25 26 14 6
-0.484581 -1.259307 -0.655503 25 20 20 14 6
-0.500090 -1.266018 -0.637990 33 28 30 14 6
-0.499926 -1.264635 -0.613119 29 24 26 14 6
-0.539996 -1.252751 -0.584041 30 18 13 14 8
-0.860126 -0.767501 -0.820004 19 18 16 2 2
-0.873343 -0.753088 -0.820698 19 18 16 2 2
-0.876036 -0.729545 -0.819254 20 18 15 2 2
-0.308141 -0.454116 -0.848363 13 16 20 2 2
-0.285347 -0.466251 -0.849967 16 15 20 2 2
-0.304777 -0.443848 -0.852426 14 15 21 2 2
-0.295959 -0.454739 -0.852087 13 15 21 2 2
-0.278594 -0.451644 -0.850785 15 15 19 2 2
-0.786943 -0.588543 -0.824435 24 26 32 2 2
-0.828238 -0.587983 -0.825997 23 28 36 2 2
-0.499207 -0.473277 -0.822374 26 32 44 2 2
-0.522789 -0.461906 -0.830151 39 42 52 2 2
-0.474434 -0.454160 -0.772981 30 31 37 14 6
-0.467654 -0.455855 -0.751286 14 14 23 14 6
-0.505229 -0.461341 -0.828454 29 34 46 2 2
-0.515326 -0.450979 -0.831737 26 32 45 2 2
-0.526179 -0.446090 -0.830239 24 27 38 2 2
-0.974113 -1.052318 -0.811072 20 17 15 2 2
-0.958325 -1.070690 -0.810758 18 17 13 2 2
-0.347334 -0.555758 -0.847717 13 13 13 0 0
-0.372756 -0.559837 -0.846233 12 12 14 0 0
-0.340930 -0.547598 -0.848639 13 13 14 2 2
-0.356616 -0.545702 -0.852429 11 11 13 2 2
-0.343779 -0.537295 -0.851900 11 11 13 2 2
-0.818396 -1.125672 -0.804304 16 15 11 2 2
-0.803181 -1.134470 -0.805542 15 15 11 2 2
-0.671923 -0.464261 -0.829450 20 21 28 2 2
-0.736430 -0.890690 -0.819810 16 15 13 2 2
-0.663212 -0.989647 -0.817406 17 13 12 2 2
-0.776587 -1.257686 -0.764006 23 23 22 0 0
-0.763773 -1.264228 -0.762187 22 23 23 0 0
-0.762435 -1.244947 -0.765675 18 14 13 0 0
-0.881244 -0.556085 -0.826169 27 22 22 2 2
-0.351245 -0.570675 -0.840183 12 11 12 0 0
-0.355495 -0.588102 -0.838389 12 11 13 0 0
-0.369667 -0.592280 -0.843741 12 12 14 0 0
-0.356103 -0.604900 -0.837343 11 11 12 0 0
-0.345997 -0.589920 -0.838055 11 11 12 0 0
-0.364689 -0.569636 -0.840272 12 12 14 0 0
-0.361887 -0.559023 -0.849701 13 13 15 0 0
-0.352019 -0.540622 -0.841071 17 13 18 2 2
-0.363344 -0.543414 -0.838302 17 14 17 2 2
-0.903808 -1.232967 -0.753268 17 13 9 0 0
-0.878394 -1.223888 -0.756239 21 17 13 2 2
-0.919906 -1.242885 -0.756617 20 14 10 0 0
-0.607371 -0.954785 -0.819867 17 14 12 2 2
-0.623526 -0.943118 -0.820542 18 15 12 2 2
-0.470104 -1.063575 -0.780297 20 22 21 2 2
-0.477045 -1.063602 -0.767201 21 20 22 14 6
-0.477635 -1.071518 -0.775625 21 20 22 14 6
-0.603573 -1.140205 -0.812118 16 15 13 2 2
-0.586926 -1.132258 -0.811522 16 15 13 2 2
-0.574076 -1.116616 -0.812026 16 15 13 2 2
-1.028332 -0.508274 -0.840762 32 31 31 2 2
-1.048138 -0.496827 -0.836740 33 32 33 2 2
-1.030292 -0.494094 -0.837673 34 31 32 2 2
-1.009230 -0.495973 -0.838030 27 27 30 2 2
-1.017046 -0.477067 -0.830105 33 30 31 2 2
-0.566733 -0.510152 -0.828292 21 24 31 2 2
-0.961598 -0.976006 -0.819510 20 18 13 2 2
-0.948286 -0.958878 -0.821377 20 18 13 2 2
-0.613482 -0.594163 -0.825649 21 22 26 2 2
-0.243293 -0.877522 -0.824437 17 12 11 2 2
-0.248500 -0.859186 -0.821508 15 11 10 2 2
-0.875968 -1.313434 -0.746782 24 20 17 0 0
-0.857335 -1.324794 -0.738007 28 20 16 0 0
-0.850827 -1.318350 -0.737463 26 20 16 0 0
-0.371233 -1.265057 -0.563073 17 8 6 14 6
-0.568328 -1.194154 -0.695395 37 16 8 14 8
-0.602015 -1.196975 -0.710155 13 6 4 14 8
-0.589096 -1.196163 -0.705618 23 13 12 14 8
-0.575842 -1.174185 -0.704297 22 11 9 14 8
-0.532630 -0.971691 -0.707687 22 11 9 14 8
-0.535371 -0.983556 -0.708920 25 13 10 14 8
-0.551630 -0.599639 -0.718865 47 53 89 14 6
-0.553697 -0.574170 -0.720685 42 50 83 14 6
-0.242243 -1.273514 -0.680068 17 13 14 14 6
-0.253756 -1.267433 -0.686409 15 11 13 14 6
-0.267422 -1.272313 -0.677040 14 12 11 14 6
-0.425763 -1.095272 -0.684771 21 17 13 14 6
-0.614727 -0.816604 -0.823272 17 19 19 2 2
-0.585025 -0.865119 -0.823763 16 18 19 2 2
-0.621781 -0.843097 -0.824280 17 17 19 2 2
-0.372577 -1.389197 -0.679813 12 6 5 14 6
-0.399265 -1.389933 -0.666059 13 8 8 14 6
-0.384911 -1.383042 -0.669340 13 9 7 14 6
-0.396575 -1.384947 -0.664242 14 9 8 14 6
-0.854005 -1.034099 -0.813622 18 17 12 2 2
-0.829314 -1.027586 -0.814954 18 17 12 2 2
-0.555169 -1.014695 -0.816668 20 16 14 2 2
-0.586474 -1.021356 -0.816195 18 14 11 2 2
-0.608415 -1.046146 -0.814589 17 15 12 2 2
-0.602062 -1.025465 -0.815842 18 14 13 2 2
-0.603712 -0.493864 -0.829316 21 23 30 2 2
-0.634397 -0.487011 -0.828480 22 23 30 2 2
-0.625316 -0.468447 -0.830432 22 22 30 2 2
-0.935634 -0.474804 -0.824641 21 22 26 2 2
-0.953841 -0.476856 -0.827157 20 20 25 2 2
-0.222294 -0.938844 -0.822003 16 13 8 2 2
-0.235517 -0.951889 -0.820103 16 12 8 2 2
-0.239192 -0.924652 -0.821210 15 13 8 2 2
-0.474940 -0.644519 -0.706189 21 19 30 14 6
-0.162588 -1.279568 -0.678922 24 19 22 14 6
-0.267264 -1.363961 -0.682142 16 11 12 14 6
-0.259463 -1.345980 -0.674353 16 11 12 14 6
-0.269916 -1.368554 -0.687153 17 13 14 14 6
-0.270285 -1.355523 -0.681190 16 11 12 14 6
-0.242917 -1.355669 -0.676591 15 11 13 14 6
-0.838480 -1.190458 -0.680220 18 11 8 14 8
-0.839769 -1.198514 -0.681372 22 12 6 14 8
-0.819731 -1.209945 -0.687132 22 11 7 14 8
-0.493291 -0.663622 -0.799523 25 28 31 14 8
-0.511343 -0.689251 -0.788944 36 20 12 14 8
-0.499292 -0.691219 -0.798223 25 18 17 14 8
-0.500956 -0.680705 -0.799461 21 18 21 14 8
-0.514478 -0.668319 -0.786582 35 22 17 14 8
-0.511700 -0.679121 -0.787771 37 24 17 14 8
-0.512578 -0.903471 -0.770007 31 16 12 14 8
-0.631701 -1.227194 -0.745504 9 1 0 14 8
-0.645197 -1.224590 -0.739936 10 3 1 14 8
-0.632185 -1.225334 -0.732408 8 1 1 14 8
-0.638662 -1.213207 -0.731157 14 5 3 14 8
-0.866776 -1.240052 -0.718960 24 13 6 2 2
-0.679669 -0.488007 -0.828018 20 21 28 2 2
-0.700714 -0.455711 -0.828449 21 21 29 2 2
-0.711839 -0.439152 -0.827731 21 21 29 2 2
-0.826450 -0.854317 -0.820881 18 17 15 2 2
-0.796711 -0.821799 -0.820400 18 17 15 2 2
-0.778739 -1.315102 -0.749783 20 18 18 0 0
-0.785140 -1.313077 -0.724231 27 20 17 0 0
-0.763093 -1.313910 -0.742833 23 18 17 0 0
-0.771038 -1.314027 -0.734959 26 20 18 0 0
-0.777627 -1.316021 -0.736726 23 19 17 0 0
-0.420856 -1.171320 -0.791970 22 23 24 2 2
-0.448204 -1.163640 -0.789661 19 20 23 2 2
-0.389936 -1.138092 -0.792741 15 16 17 2 2
-0.138011 -0.747392 -0.816455 13 9 10 2 2
-0.153200 -0.735852 -0.817363 13 9 10 2 2
-0.529514 -1.240247 -0.677827 13 11 10 14 8
-0.519979 -1.240810 -0.672435 21 20 25 14 8
-0.505675 -1.222836 -0.665408 19 18 20 14 8
-0.516120 -1.226952 -0.670170 21 12 9 14 8
-0.495732 -1.209170 -0.660560 20 20 23 14 8
-0.507965 -1.234114 -0.665245 20 20 24 14 8
-0.523386 -1.222072 -0.656357 25 11 8 14 8
-0.521361 -1.208179 -0.657186 24 10 7 14 8
-0.523987 -1.214324 -0.672014 22 17 18 14 8
-0.358472 -0.649062 -0.827811 9 9 9 0 0
-0.346910 -0.647217 -0.830181 7 7 7 0 0
-0.339170 -0.641542 -0.831291 10 10 10 0 0
-0.355596 -0.631629 -0.831783 10 10 11 0 0
-0.346099 -0.635204 -0.832734 9 10 10 0 0
-0.365403 -0.644020 -0.823794 7 7 8 0 0
-0.360591 -0.633526 -0.823879 10 11 13 0 0
-0.921069 -1.434715 -0.784163 17 15 12 2 2
-0.944295 -1.430295 -0.783087 18 15 12 2 2
-0.926027 -1.425636 -0.786934 18 15 13 2 2
-0.911699 -1.418160 -0.786471 17 14 11 2 2
-0.933862 -1.407316 -0.793346 16 15 12 2 2
-0.913328 -1.410489 -0.791982 18 13 10 2 2
-0.529717 -0.956844 -0.708552 23 12 10 14 8
-0.527828 -0.944833 -0.704764 21 13 10 14 6
-0.516551 -0.944020 -0.700140 25 16 14 14 6
-0.511017 -0.961661 -0.698590 13 8 5 14 6
-0.515626 -0.932467 -0.701846 13 6 3 14 6
-0.371424 -0.631004 -0.823210 9 10 10 0 0
-0.370742 -0.610347 -0.845758 10 10 12 0 0
-0.356519 -0.600344 -0.840078 10 10 12 0 0
-0.350716 -0.616158 -0.835966 10 10 11 0 0
-0.371938 -0.627418 -0.825942 10 10 11 0 0
-0.363119 -0.617973 -0.827901 10 11 12 0 0
-0.685107 -0.542891 -0.826623 23 21 28 2 2
-0.772133 -0.646797 -0.823994 21 26 34 2 2
-0.584569 -1.231159 -0.578767 36 16 8 14 8
-0.582984 -1.229057 -0.551389 38 15 8 14 8
-0.573771 -1.217469 -0.595764 28 11 7 14 8
-0.576089 -1.221901 -0.581537 31 13 7 14 8
-0.515264 -0.965861 -0.820505 22 19 20 2 2
-0.438561 -0.798016 -0.733986 21 19 17 14 6
-0.472194 -0.534672 -0.771352 13 12 15 14 6
-0.473308 -0.504789 -0.775036 13 12 15 14 6
-0.541708 -1.040914 -0.719674 27 12 7 14 8
-0.533969 -1.068349 -0.744502 27 12 8 14 8
-0.540771 -1.065414 -0.728281 27 12 8 14 8
-0.543406 -1.082861 -0.719975 26 12 8 14 8
-0.542852 -0.645032 -0.826712 20 21 25 2 2
-0.709084 -1.118035 -0.807062 15 14 11 2 2
-0.730982 -1.087381 -0.809362 14 14 10 2 2
-0.741681 -1.105622 -0.807240 15 14 10 2 2
-0.357409 -1.403144 -0.696676 6 4 5 14 6
-0.348462 -1.395943 -0.693987 6 4 5 14 6
-0.368013 -1.390544 -0.687963 9 6 5 14 6
-0.358673 -1.395207 -0.690081 6 4 5 14 6
-0.235763 -0.842313 -0.824581 16 10 10 2 2
-0.219096 -0.852480 -0.821238 11 10 8 2 2
-0.414093 -1.212558 -0.723650 11 7 6 14 6
-0.429739 -1.186064 -0.735200 12 7 7 14 6
-0.427450 -0.502591 -0.832067 17 19 29 2 2
-0.426153 -0.478789 -0.835581 15 24 33 2 2
-0.401914 -0.482440 -0.838843 15 22 31 2 2
-0.421401 -0.493654 -0.836177 15 22 32 2 2
-0.494636 -0.624601 -0.707026 9 8 13 14 6
-0.475762 -0.595216 -0.708012 41 41 66 14 6
-0.474863 -0.623091 -0.708521 29 31 48 14 6
-0.407892 -1.253430 -0.586076 19 13 13 14 6
-0.398654 -1.254765 -0.568898 18 13 14 14 6
-0.427140 -1.253672 -0.570628 17 13 13 14 6
-0.797154 -0.502135 -0.827447 20 25 35 2 2
-0.812047 -0.529575 -0.826913 22 27 36 2 2
-0.398728 -1.226141 -0.788745 22 22 24 2 2
-0.385849 -1.236071 -0.792348 12 13 17 2 2
-0.535295 -1.224766 -0.619969 30 12 7 14 8
-0.567951 -1.219823 -0.622354 28 12 7 14 8
-0.554648 -1.212088 -0.619039 27 11 7 14 8
-0.558780 -1.216122 -0.612068 29 12 7 0 0
-0.555034 -1.243163 -0.596598 34 13 7 0 0
-0.531249 -1.240307 -0.591237 38 15 9 14 8
-0.532076 -1.237826 -0.618008 25 12 7 14 8
-0.548904 -1.231014 -0.619352 27 13 6 14 8
-0.535406 -1.229370 -0.608142 33 14 7 14 8
-0.545230 -1.239445 -0.593997 36 15 8 0 0
-0.537376 -1.233575 -0.593958 35 15 8 14 8
-0.537477 -1.237914 -0.622331 25 12 7 14 8
-0.525558 -0.898399 -0.752980 35 16 6 14 8
-0.525606 -0.930712 -0.754328 30 15 8 14 8
-0.397829 -1.086627 -0.803006 12 13 15 2 2
-0.371943 -1.082750 -0.803949 12 13 15 2 2
-0.381213 -1.105462 -0.800441 12 13 15 2 2
-0.442382 -1.203933 -0.785030 22 24 24 2 2
-0.467270 -1.200243 -0.783270 22 23 25 2 2
-0.468667 -1.180165 -0.783980 21 21 25 2 2
-0.386013 -0.460558 -0.838953 15 19 29 2 2
-0.386587 -0.476930 -0.841200 14 20 31 2 2
-0.439138 -0.579322 -0.829241 13 12 17 2 2
-0.444515 -0.573024 -0.823844 12 11 16 2 2
-0.388857 -0.448998 -0.840875 13 16 26 2 2
-0.602342 -1.266835 -0.715070 14 5 3 14 8
-0.599955 -1.255142 -0.714190 22 9 7 14 8
-0.594081 -1.244627 -0.713238 50 25 15 14 8
-0.812456 -0.681417 -0.823133 22 25 30 2 2
-0.320592 -1.049795 -0.806071 12 12 14 2 2
-0.328628 -1.080236 -0.807657 11 11 13 2 2
-0.222845 -1.351297 -0.674043 16 11 12 14 6
-0.230267 -1.343835 -0.672168 16 12 13 14 6
-0.462286 -1.055901 -0.689170 20 17 12 14 6
-0.451904 -1.033217 -0.695847 23 18 14 14 6
-0.446394 -1.009286 -0.698421 26 17 14 14 6
-0.423809 -1.161387 -0.673186 19 14 15 14 6
-0.418089 -1.149465 -0.677458 15 11 12 14 6
-0.410450 -1.163449 -0.680531 14 9 10 14 6
-0.444454 -1.161596 -0.667446 18 13 11 14 6
-0.545191 -0.808993 -0.729419 30 16 10 14 8
-0.548384 -0.800347 -0.738804 34 17 11 14 8
-0.545434 -0.798224 -0.749469 34 18 10 14 8
-0.543249 -0.815112 -0.744516 33 16 8 14 8
-0.531250 -0.841822 -0.708672 21 11 9 14 6
-0.518336 -0.840902 -0.705258 19 11 8 14 6
-0.528831 -0.853004 -0.709163 23 13 11 14 6
-0.829589 -1.264166 -0.754682 24 23 25 0 0
-0.837534 -1.249115 -0.758875 24 24 24 0 0
-0.811574 -1.251787 -0.760094 24 23 24 0 0
-0.531962 -0.485685 -0.782362 42 28 26 14 8
-0.391122 -1.256002 -0.592944 15 9 9 14 6
-0.380665 -1.256850 -0.604825 15 9 9 14 6
-0.512942 -0.487424 -0.827505 26 31 38 2 2
-0.524234 -0.485072 -0.828529 30 34 44 2 2
-0.449523 -0.691758 -0.743463 17 16 15 14 6
-0.440626 -0.691592 -0.721521 13 9 9 14 6
-0.436900 -0.668702 -0.723654 12 10 11 14 6
-0.448116 -0.676329 -0.747146 14 12 11 14 6
-0.437588 -0.691871 -0.736445 16 13 12 14 6
-0.693974 -0.646188 -0.824120 19 19 20 2 2
-0.197073 -1.315142 -0.676272 12 11 15 14 6
-0.190053 -1.309411 -0.677585 12 10 12 14 6
-0.201117 -1.329908 -0.670961 16 11 13 14 6
-0.184352 -1.325888 -0.668700 16 11 13 14 6
-0.214738 -1.322362 -0.671121 12 8 9 14 6
-0.565082 -1.035229 -0.816905 20 16 15 2 2
-0.541965 -1.028844 -0.816212 19 17 15 2 2
-0.541726 -1.045254 -0.813344 20 19 17 2 2
-0.328929 -1.265719 -0.682299 12 5 5 14 6
-0.305213 -1.272030 -0.678544 12 7 5 14 6
-0.537520 -0.868809 -0.820235 18 19 18 2 2
-0.564734 -0.874353 -0.822462 19 20 21 2 2
-0.774295 -0.986486 -0.816319 17 16 11 2 2
-0.517347 -0.765676 -0.702147 20 11 9 14 6
-0.515811 -0.799394 -0.703776 19 11 8 14 6
-0.500078 -0.787147 -0.703382 19 12 10 14 6
-0.522315 -0.778156 -0.704210 20 10 8 14 6
-0.465401 -1.254439 -0.574659 19 14 15 14 6
-0.436016 -1.255690 -0.592522 23 17 18 14 6
-0.451334 -1.253916 -0.577524 25 19 20 14 6
-0.454774 -1.248232 -0.559911 31 25 27 14 6
-0.534070 -1.272213 -0.668073 27 21 17 14 8
-0.541164 -1.263858 -0.679294 24 18 15 14 8
-0.549398 -1.272318 -0.679514 23 15 13 14 8
-0.544758 -1.256227 -0.686473 25 16 15 14 8
-0.559884 -0.558534 -0.729059 34 35 62 14 8
-0.556386 -0.558501 -0.740530 14 15 23 14 8
-0.885440 -1.426550 -0.789216 16 13 10 2 2
-0.877770 -1.416125 -0.794379 16 13 9 0 0
-0.905252 -1.407656 -0.792801 18 12 10 0 0
-0.904002 -1.400198 -0.791044 18 12 10 0 0
-0.896361 -1.434623 -0.786744 17 13 10 2 2
-0.897581 -1.425360 -0.786707 19 12 10 2 2
-0.527103 -1.141505 -0.688629 21 11 6 14 8
-0.545430 -1.138481 -0.716717 25 13 5 14 8
-0.544900 -1.128997 -0.705299 24 11 5 14 8
-0.540686 -1.121828 -0.721048 22 10 5 14 8
-0.539720 -1.116620 -0.705801 22 10 5 14 8
-0.544096 -1.137545 -0.700912 22 11 5 14 8
-0.540263 -1.128932 -0.694656 21 11 8 14 8
-0.555789 -1.156067 -0.715173 26 13 6 14 8
-0.938552 -1.084619 -0.808115 17 16 12 2 2
-0.942306 -1.108375 -0.806527 17 16 12 2 2
-0.442072 -1.218158 -0.784541 22 25 24 2 2
-0.920187 -1.224838 -0.681697 23 13 4 0 0
-0.924975 -1.238135 -0.667699 29 14 6 0 0
-0.937537 -1.225132 -0.680954 17 8 2 0 0
-0.942313 -1.231104 -0.671674 24 11 3 0 0
-0.551368 -0.732942 -0.715528 28 16 14 14 6
-0.554049 -0.757584 -0.722159 27 16 12 14 8
-0.548180 -0.765003 -0.712278 24 13 11 14 6
-0.546016 -0.733612 -0.710719 21 11 9 14 6
-0.539595 -0.743009 -0.708621 21 11 9 14 6
-0.322949 -0.646732 -0.837161 9 9 9 0 0
-0.339148 -0.656833 -0.836848 11 10 9 0 0
-0.324317 -0.654884 -0.829906 9 9 8 0 0
-0.325222 -0.666602 -0.822765 7 7 5 0 0
-0.324951 -0.633909 -0.837981 10 10 10 0 0
-0.316090 -0.657268 -0.831887 10 9 8 0 0
-0.340632 -0.666641 -0.834285 7 6 4 0 0
-0.392005 -0.513198 -0.840227 17 17 27 2 2
-0.401354 -0.515057 -0.837530 19 20 27 2 2
-0.382302 -0.526858 -0.839229 18 17 25 2 2
-0.403257 -0.505748 -0.837285 15 20 34 2 2
-0.396771 -0.541792 -0.832520 19 19 26 2 2
-0.718976 -0.707044 -0.823027 19 19 19 2 2
-0.705341 -0.726964 -0.824314 19 19 19 2 2
-0.759745 -1.067716 -0.810905 15 14 10 2 2
-0.482441 -0.830907 -0.704562 17 8 6 14 6
-0.500093 -0.818597 -0.703714 19 11 9 14 6
-0.477316 -0.806822 -0.705715 17 11 12 14 6
-0.493620 -0.798019 -0.702126 18 10 9 14 6
-0.465532 -0.791831 -0.706542 15 7 7 14 6
-0.745978 -0.521349 -0.824892 23 22 23 2 2
-0.559912 -0.701257 -0.826608 21 21 23 2 2
-0.588544 -0.669663 -0.826195 22 21 26 2 2
-0.417589 -0.971151 -0.718706 19 15 10 14 6
-0.426788 -0.956337 -0.711689 19 15 10 14 6
-0.859261 -1.077774 -0.808377 17 16 12 2 2
-0.617682 -0.980029 -0.820476 19 14 13 2 2
-0.581511 -0.980201 -0.819457 18 15 11 2 2
-0.625600 -0.955491 -0.819634 18 14 13 2 2
-0.186285 -0.847374 -0.817555 12 12 10 2 2
-0.162489 -0.850563 -0.819432 12 12 10 2 2
-0.308375 -1.274797 -0.734764 6 6 8 14 6
-0.287306 -1.275884 -0.736050 7 6 8 14 6
-0.532887 -1.114613 -0.696076 20 14 10 14 8
-0.539114 -1.093637 -0.697960 20 10 8 14 8
-0.540008 -1.086732 -0.703691 20 10 10 14 8
-0.533010 -1.093086 -0.691158 23 14 13 14 6
-0.518661 -1.157995 -0.672198 37 17 9 14 8
-0.497461 -1.142214 -0.667646 21 16 12 14 8
-0.528399 -1.173935 -0.658821 37 18 11 14 8
-0.524798 -1.172758 -0.666491 35 16 8 14 8
-0.520892 -1.172977 -0.659739 35 16 8 14 8
-0.524521 -1.177507 -0.659293 35 16 8 14 8
-0.501853 -1.154543 -0.663637 34 16 9 14 8
-0.948878 -0.545073 -0.823405 19 20 24 2 2
-0.955904 -0.563329 -0.824422 18 19 22 2 2
-0.912754 -0.565340 -0.823016 33 26 20 2 2
-0.901728 -0.482089 -0.827349 21 22 25 2 2
-0.898232 -0.471226 -0.828467 21 22 25 2 2
-0.910240 -0.463019 -0.828328 21 22 26 2 2
-0.890240 -0.451789 -0.828164 21 22 25 2 2
-0.320182 -0.535081 -0.848693 12 12 13 2 2
-0.440100 -1.262990 -0.774981 20 19 22 2 2
-0.424182 -1.244491 -0.785364 22 22 22 2 2
-0.448164 -1.257319 -0.765892 21 20 24 14 6
-0.455718 -1.250450 -0.778308 20 20 22 2 2
-0.462718 -1.243751 -0.778324 22 22 25 14 6
-0.452312 -1.247697 -0.760512 19 17 20 14 6
-0.170810 -0.675728 -0.818852 7 5 6 2 2
-0.172274 -0.699224 -0.822286 8 8 8 2 2
-0.152496 -0.701524 -0.820431 8 8 8 2 2
-0.178843 -0.686262 -0.821782 7 6 7 2 2
-0.163803 -0.690518 -0.818609 8 8 9 2 2
-0.981269 -1.424303 -0.781833 16 15 11 2 2
-0.531431 -0.585393 -0.780488 36 22 20 14 8
-0.539855 -0.576708 -0.774690 38 21 19 14 8
-0.546980 -0.605184 -0.763057 37 21 18 14 8
-0.554267 -0.606492 -0.749112 38 23 20 14 8
-0.553823 -0.578453 -0.748317 37 23 20 14 8
-0.259479 -1.351070 -0.694604 16 10 11 14 9
-0.266092 -1.364951 -0.691339 16 12 13 14 9
-0.527252 -1.059328 -0.811869 21 19 17 2 2
-0.520357 -1.070271 -0.811612 21 19 17 2 2
-0.515709 -1.081372 -0.804861 21 20 18 2 2
-0.511706 -1.070209 -0.810595 19 20 20 2 2
-0.503643 -1.079423 -0.784736 14 10 9 14 8
-0.718331 -1.310035 -0.741307 22 18 17 0 0
-0.427118 -1.233797 -0.784070 21 21 25 2 2
-0.410789 -1.217676 -0.786200 20 21 23 2 2
-0.472696 -0.843575 -0.700124 16 8 6 14 6
-0.465401 -0.819211 -0.703946 14 7 6 14 6
-0.493690 -0.850119 -0.702587 20 12 10 14 6
-0.247980 -0.696208 -0.825580 10 9 6 2 2
-0.225472 -0.697296 -0.825994 10 10 6 2 2
-0.230259 -0.665228 -0.826789 9 9 5 2 2
-0.246819 -0.669858 -0.826784 13 11 8 2 2
-0.881120 -0.985848 -0.815515 21 16 13 2 2
-0.558877 -1.093817 -0.808302 19 19 16 2 2
-0.541118 -1.107856 -0.808869 18 17 15 2 2
-0.546424 -1.100056 -0.807922 20 18 16 2 2
-0.564298 -1.105966 -0.809012 18 17 15 2 2
-0.535350 -1.093462 -0.806785 19 18 16 2 2
-0.823396 -0.817872 -0.820504 19 18 16 2 2
-0.817397 -0.785652 -0.819456 19 18 16 2 2
-0.302990 -1.376974 -0.694143 16 11 12 14 6
-0.294259 -1.372912 -0.690569 16 12 12 14 6
-0.917022 -0.794590 -0.821392 22 16 14 2 2
-0.813630 -1.175309 -0.795557 14 14 10 0 0
-0.834895 -1.179796 -0.792006 15 15 10 2 2
-0.835412 -0.620948 -0.823001 24 28 35 2 2
-0.500832 -1.095146 -0.668936 23 18 14 14 8
-0.520984 -1.107979 -0.682016 15 8 4 14 8
-0.510347 -1.087955 -0.679293 24 18 14 14 6
-0.497305 -1.087165 -0.669930 25 18 14 14 6
-0.521348 -1.098489 -0.680803 22 16 12 14 8
-0.495025 -1.112889 -0.665762 22 17 13 14 8
-0.263483 -0.997303 -0.816792 12 13 14 2 2
-0.459837 -1.083336 -0.673833 20 16 13 14 6
-0.455925 -1.068757 -0.681561 20 14 11 14 6
-0.447027 -1.072905 -0.675237 20 16 13 14 6
-0.502120 -0.618988 -0.822669 27 30 38 2 2
-0.493225 -0.618590 -0.808333 28 31 37 2 2
-0.978004 -1.173560 -0.801597 17 16 12 2 2
-0.990390 -1.163684 -0.803110 17 16 12 2 2
-0.993020 -1.154881 -0.802814 22 20 15 2 2
-1.049254 -0.824474 -0.817451 41 27 18 2 2
-0.422862 -0.579993 -0.838418 8 7 10 2 2
-0.430787 -0.580757 -0.836038 10 10 13 2 2
-0.430717 -0.588836 -0.825729 8 7 9 2 2
-0.404173 -0.585898 -0.835183 9 9 12 2 2
-0.416296 -0.589827 -0.830893 10 10 13 2 2
-0.408317 -0.577334 -0.833722 10 10 13 2 2
-0.489388 -0.998360 -0.815088 22 20 21 2 2
-0.325539 -1.377008 -0.685817 9 6 7 14 6
-0.322991 -1.391679 -0.697975 13 10 11 14 6
-0.310622 -1.383083 -0.691689 13 11 12 14 6
-0.322512 -1.344880 -0.669587 13 7 6 14 6
-0.313286 -1.355672 -0.676787 13 7 6 14 6
-0.793124 -1.259496 -0.674816 19 13 7 0 0
-0.789195 -1.249224 -0.674967 20 15 8 0 0
-0.765690 -1.258697 -0.675431 19 14 10 0 0
-0.788074 -1.241958 -0.671476 21 15 9 0 0
-0.760573 -1.258401 -0.684602 20 14 8 2 2
-0.762952 -1.262430 -0.675554 19 14 10 2 2
-0.770890 -1.259170 -0.688017 19 14 10 2 2
-0.784198 -1.253500 -0.676247 19 13 7 0 0
-0.602931 -0.993604 -0.819830 17 14 11 2 2
-0.562701 -1.002844 -0.815928 18 14 12 2 2
-0.583602 -1.006820 -0.815084 19 14 12 2 2
-0.746874 -1.247472 -0.703134 26 15 7 2 2
-0.755766 -1.261423 -0.695257 22 14 8 2 2
-0.742171 -1.256300 -0.690992 21 14 7 2 2
-0.526446 -1.141569 -0.565221 30 21 17 0 0
-0.617208 -1.156198 -0.807296 16 13 12 2 2
-0.621273 -1.162002 -0.804000 17 13 11 2 2
-0.599225 -1.169408 -0.796712 17 15 13 2 2
-0.917375 -1.130189 -0.804332 17 16 13 2 2
-0.881159 -1.111756 -0.805372 16 15 11 2 2
-0.910487 -1.112553 -0.805278 17 16 12 2 2
-0.893087 -1.133190 -0.802832 17 16 14 2 2
-0.359835 -1.178054 -0.795680 14 15 17 2 2
-0.357914 -1.187897 -0.793915 13 13 15 2 2
-0.359469 -1.214305 -0.793192 11 12 15 2 2
-0.195991 -0.890649 -0.820634 16 12 9 2 2
-0.209486 -0.917149 -0.822260 16 12 9 2 2
-0.187759 -0.905867 -0.821588 17 13 10 2 2
-0.198054 -0.881202 -0.818784 14 13 11 2 2
-0.805298 -0.757167 -0.820848 21 18 14 2 2
-0.225062 -0.723768 -0.823411 14 8 9 2 2
-0.256620 -0.708909 -0.825988 10 8 7 2 2
-0.234208 -0.711100 -0.824413 10 8 7 2 2
-0.815628 -0.494802 -0.828097 23 29 37 2 2
-0.200850 -0.840765 -0.815507 13 11 10 2 2
-0.209109 -0.828746 -0.817315 13 11 9 2 2
-0.206714 -0.847946 -0.819872 11 10 8 2 2
-0.830080 -0.890393 -0.822482 18 17 15 2 2
-0.821074 -0.921131 -0.820560 18 17 15 2 2
-0.841497 -0.914138 -0.822604 19 17 16 2 2
-0.211298 -0.640502 -0.829100 12 10 9 2 2
-0.188066 -0.612929 -0.830598 13 11 14 2 2
-0.187830 -0.624262 -0.825739 9 7 7 2 2
-0.538771 -0.734778 -0.767608 33 19 9 14 8
-0.551065 -0.738450 -0.748617 35 20 11 14 8
-0.438820 -1.208875 -0.744599 12 8 8 14 6
-0.441286 -1.182976 -0.744931 13 9 8 14 6
-0.455675 -1.208036 -0.760152 15 11 13 14 6
-0.433341 -0.610876 -0.739347 21 20 19 14 6
-0.567304 -1.233492 -0.666808 26 12 9 14 8
-0.561510 -1.225830 -0.659487 25 11 7 14 8
-0.413268 -1.395087 -0.662544 16 12 12 14 6
-0.407092 -1.389137 -0.661662 16 12 12 14 6
-0.427143 -1.399691 -0.657699 13 10 9 14 6
-0.499538 -0.504930 -0.819885 24 29 36 2 2
-0.506373 -0.535086 -0.822474 22 26 31 2 2
-0.506844 -0.517023 -0.826375 22 28 35 2 2
-0.522411 -0.549147 -0.823878 23 26 32 2 2
-0.517865 -0.515990 -0.829388 22 24 31 2 2
-0.946588 -1.215778 -0.768341 17 13 11 0 0
-0.916662 -1.210834 -0.762468 15 12 10 0 0
-0.949097 -1.228680 -0.767681 17 13 10 0 0
-0.910227 -1.226548 -0.758632 26 20 14 0 0
-1.054056 -0.505883 -0.835860 32 31 30 2 2
-0.428524 -0.803176 -0.722848 22 20 19 14 6
-0.434752 -0.788916 -0.728675 18 17 15 14 6
-0.434559 -0.794056 -0.723582 18 17 15 14 6
-0.431682 -0.822747 -0.732059 16 11 10 14 6
-0.416945 -0.824933 -0.733083 16 11 10 14 6
-0.423501 -0.817208 -0.728450 14 11 12 14 6
-0.417621 -0.815527 -0.729684 14 11 12 14 6
-0.426922 -0.821031 -0.722687 14 12 11 14 6
-0.434192 -0.809190 -0.730082 16 11 11 14 6
-1.017362 -1.204934 -0.673566 19 9 4 14 8
-1.010435 -1.234002 -0.675654 19 8 2 14 8
-0.978816 -1.212635 -0.676666 17 7 3 14 8
-1.001000 -1.237378 -0.673597 19 10 5 14 8
-1.000769 -1.229964 -0.685593 20 10 4 14 8
-0.992785 -1.216588 -0.679495 8 4 1 14 8
-0.528451 -1.241734 -0.611252 30 13 7 14 8
-0.560239 -1.248401 -0.633581 25 12 6 14 8
-0.551147 -1.269071 -0.628998 34 28 28 14 6
-0.544567 -1.242810 -0.624158 23 12 7 14 8
-0.561742 -1.250666 -0.645377 23 10 7 14 8
-0.562283 -1.245548 -0.656527 22 10 7 14 8
-0.543803 -1.242797 -0.650810 24 10 7 14 8
-0.554669 -1.245438 -0.639027 23 11 6 14 8
-0.880185 -1.251674 -0.662554 18 10 3 0 0
-0.859477 -1.246190 -0.669463 16 10 3 0 0
-0.863698 -1.252363 -0.662372 16 10 3 0 0
-0.880636 -0.648472 -0.822037 22 24 28 2 2
-0.857346 -0.637889 -0.822735 23 25 30 2 2
-0.542224 -1.085090 -0.733675 25 11 8 14 8
-0.543162 -1.104823 -0.717692 24 10 7 14 8
-0.542606 -1.096056 -0.728505 25 11 8 14 8
-0.531593 -1.095338 -0.751672 28 12 8 14 8
-0.346179 -1.287603 -0.764976 6 6 8 14 6
-0.368536 -1.282143 -0.764404 8 5 6 14 6
-0.346402 -1.279413 -0.750350 7 6 7 14 6
-0.366563 -1.275242 -0.745799 9 6 7 14 6
-0.813455 -1.220580 -0.722980 8 4 3 2 2
-0.806990 -1.215494 -0.722105 10 6 3 2 2
-0.807058 -1.229815 -0.721744 9 3 2 2 2
-0.499734 -0.744971 -0.816421 28 25 27 2 2
-1.028037 -1.077798 -0.809242 31 31 21 2 2
-1.023057 -1.060321 -0.810036 28 28 19 2 2
-1.049637 -1.085362 -0.808101 31 31 24 2 2
-0.575202 -0.485186 -0.830752 23 24 30 2 2
-0.535810 -0.843778 -0.749511 28 14 9 14 8
-0.543385 -0.833933 -0.733361 25 14 12 14 8
-0.543869 -0.821863 -0.724006 26 15 13 14 8
-0.541104 -0.843661 -0.735980 28 15 12 14 8
-0.539409 -0.830625 -0.749044 32 16 8 14 8
-0.495708 -0.555361 -0.817237 25 28 38 2 2
-0.498569 -0.546029 -0.818709 25 28 36 2 2
-0.495901 -0.567139 -0.816324 27 30 39 2 2
-0.439820 -0.563255 -0.825016 11 12 19 2 2
-0.467512 -0.560536 -0.814798 26 27 34 2 2
-0.458248 -0.569849 -0.816849 18 16 22 2 2
-0.459280 -0.545227 -0.816634 8 8 12 2 2
-0.677265 -0.567597 -0.826529 18 21 23 2 2
-0.690342 -0.599512 -0.825016 27 21 21 2 2
-0.431880 -1.255329 -0.642133 17 11 13 14 6
-0.419764 -1.254130 -0.653355 15 10 14 14 6
-0.403295 -1.255152 -0.626222 15 10 13 14 6
-0.889673 -1.187042 -0.681455 20 11 7 14 8
-0.861290 -1.195008 -0.679929 20 11 7 14 8
-0.910098 -1.189412 -0.681612 18 11 8 14 8
-0.908875 -1.200539 -0.678102 22 11 5 14 8
-0.470942 -0.615066 -0.772183 13 11 13 14 6
-0.477211 -0.619922 -0.779634 17 17 20 14 6
-0.476153 -0.604898 -0.780721 19 17 20 14 6
-0.464486 -0.633624 -0.768282 17 15 17 14 6
-0.380394 -1.258194 -0.573768 14 8 8 14 6
-0.374063 -1.261157 -0.571818 14 8 8 14 6
-0.392492 -1.253461 -0.552923 16 11 11 14 6
-0.307755 -1.171854 -0.798280 13 11 12 2 2
-0.282913 -1.142931 -0.802137 13 11 12 2 2
-0.303071 -1.156298 -0.799796 13 11 12 2 2
-0.644545 -0.681598 -0.825182 18 19 22 2 2
-1.032307 -0.966573 -0.820096 34 29 23 2 2
-1.039317 -0.982807 -0.820576 34 30 23 2 2
-0.595519 -1.173835 -0.718956 21 11 9 14 8
-0.560462 -1.180244 -0.651558 19 11 8 14 8
-0.558726 -1.182179 -0.628448 17 10 4 14 8
-0.564478 -1.204498 -0.652081 23 9 7 14 8
-0.563717 -1.205666 -0.626826 25 11 7 14 8
-0.547760 -1.181420 -0.622251 19 9 4 14 8
-0.560077 -1.180876 -0.640887 17 10 5 14 8
-0.752851 -1.308960 -0.751106 19 18 18 0 0
-0.773403 -1.305693 -0.757505 19 19 20 0 0
-0.463667 -1.258377 -0.601222 22 16 18 14 6
-0.400094 -1.193299 -0.689321 14 8 8 14 6
-0.702439 -0.689967 -0.824185 19 19 21 2 2
-0.727191 -0.669926 -0.825330 19 20 20 2 2
-0.439695 -0.879305 -0.707870 16 12 11 14 6
-0.413273 -0.886815 -0.723540 16 10 9 14 6
-0.430676 -0.856731 -0.714836 16 10 9 14 6
-0.416536 -0.870246 -0.720116 17 15 13 14 6
-0.787404 -0.714313 -0.822289 22 23 27 2 2
-0.815104 -0.700551 -0.822095 23 23 23 2 2
-0.784577 -0.739246 -0.821885 19 19 18 2 2
-0.818585 -0.719471 -0.821439 19 20 18 2 2
-0.803215 -0.705637 -0.821599 19 20 18 2 2
-0.523018 -1.073904 -0.692086 23 17 13 14 6
-0.513858 -1.061466 -0.692887 15 7 4 14 6
-0.524416 -1.047465 -0.695291 23 17 14 14 6
-0.490540 -1.037313 -0.693026 12 6 3 14 6
-0.526250 -1.091532 -0.684854 20 14 10 14 6
-0.498866 -1.074211 -0.687240 14 7 4 14 6
-0.495656 -0.778992 -0.794059 22 18 18 14 8
-0.517343 -0.780327 -0.773497 33 18 12 14 8
-0.495334 -0.505539 -0.712761 36 37 47 14 6
-0.525158 -0.505734 -0.709841 65 85 137 14 6
-0.530958 -0.486183 -0.710939 60 75 122 14 6
-0.471708 -1.200185 -0.778991 20 22 23 14 6
-0.471886 -1.186990 -0.776216 22 22 24 14 6
-0.512055 -0.715494 -0.820868 25 28 35 2 2
-0.522985 -0.734957 -0.824566 20 20 22 2 2
-0.522180 -0.714987 -0.823477 25 26 33 2 2
-0.503472 -0.695794 -0.815415 27 26 31 2 2
-0.801507 -1.222051 -0.686024 26 15 8 0 0
-0.793153 -1.214395 -0.690238 14 8 4 14 8
-0.812300 -1.219716 -0.685755 13 6 4 0 0
-0.804515 -1.240701 -0.674560 28 15 8 0 0
-0.805084 -1.228950 -0.678236 30 15 7 0 0
-0.793311 -1.237637 -0.677216 29 15 7 0 0
-0.460267 -0.683933 -0.766649 14 14 14 14 6
-0.466867 -0.676252 -0.771469 16 16 17 14 6
-0.451600 -0.671733 -0.755194 17 16 16 14 6
-0.452724 -0.687450 -0.757553 23 21 20 14 6
-0.672087 -0.860270 -0.821100 16 17 12 2 2
-0.672417 -0.882553 -0.821802 16 17 12 2 2
-0.704616 -0.876734 -0.821707 16 17 12 2 2
-0.458335 -1.112702 -0.758451 21 20 20 14 6
-0.465505 -1.141043 -0.765236 20 19 20 14 6
-0.822881 -1.014376 -0.814784 18 17 12 2 2
-0.863733 -0.999127 -0.813830 19 17 13 2 2
-0.347257 -1.021003 -0.786883 12 10 16 2 2
-0.348354 -1.047036 -0.805889 10 10 13 2 2
-0.322048 -1.029109 -0.803181 12 11 16 2 2
-0.332758 -1.040573 -0.808600 11 11 13 2 2
-0.310634 -1.036187 -0.811810 11 11 13 2 2
-0.330033 -1.026873 -0.796527 12 10 15 2 2
-0.346070 -1.024076 -0.793609 12 9 15 2 2
-0.331816 -1.019971 -0.796806 11 9 14 2 2
-0.536999 -0.536183 -0.778628 40 27 22 14 8
-0.557631 -0.541533 -0.750277 35 24 21 14 8
-0.548870 -0.573437 -0.762734 40 23 21 14 8
-0.536447 -0.554848 -0.776442 39 23 21 14 8
-0.552883 -0.564909 -0.756418 40 23 21 14 8
-0.545835 -0.555394 -0.767915 37 23 19 14 8
-0.528466 -0.541201 -0.783162 39 24 20 14 8
-0.554295 -0.537444 -0.760320 37 22 20 14 8
-1.041504 -1.028089 -0.814022 33 29 23 2 2
-0.893445 -0.523292 -0.825000 31 25 24 2 2
-0.741044 -1.195938 -0.687541 22 12 7 14 8
-0.734655 -1.190826 -0.687220 19 11 8 14 8
-0.494998 -0.999993 -0.787199 26 15 10 14 8
-0.290790 -0.792460 -0.811069 15 7 5 2 2
-0.555718 -0.592884 -0.724815 42 48 76 14 8
-0.555593 -0.583628 -0.730174 31 25 33 14 8
-0.737610 -0.797094 -0.822209 18 17 15 2 2
-0.735215 -0.813070 -0.823547 17 17 15 2 2
-0.714826 -1.247327 -0.678495 24 14 9 0 0
-0.658905 -0.547212 -0.827126 24 21 22 2 2
-0.627635 -0.526776 -0.827738 23 23 29 2 2
-0.531232 -1.137456 -0.806810 22 18 17 2 2
-0.540637 -1.148942 -0.807130 19 18 16 2 2
-0.539900 -1.135787 -0.809209 21 18 16 2 2
-0.919614 -0.907908 -0.820924 21 17 13 2 2
-0.481596 -1.125073 -0.661903 20 15 11 14 6
-0.479115 -1.111961 -0.661577 20 15 11 14 6
-0.473241 -1.134365 -0.659582 20 15 12 14 6
-0.479424 -1.138494 -0.659052 17 12 8 14 8
-0.470424 -1.149824 -0.662806 18 15 11 14 6
-0.363019 -1.319364 -0.614406 11 8 5 14 6
-0.367446 -1.330596 -0.646649 12 7 4 14 6
-0.362781 -1.332980 -0.633669 12 7 4 14 6
-0.366644 -1.313898 -0.645154 13 7 5 14 6
-0.300830 -1.268886 -0.684409 12 9 8 14 6
-0.276519 -1.267931 -0.682718 11 9 9 14 6
-0.797605 -1.122474 -0.803656 16 15 11 2 2
-0.766718 -1.135347 -0.806583 15 15 10 2 2
-0.767583 -1.120350 -0.805323 15 14 11 2 2
-0.996863 -1.015655 -0.815332 23 21 16 2 2
-0.422390 -1.047658 -0.716100 23 16 12 14 6
-0.418086 -1.031343 -0.720021 26 18 15 14 6
-0.418079 -1.021629 -0.716284 21 16 12 14 6
-0.437004 -1.035626 -0.704121 23 18 14 14 6
-0.424155 -1.043179 -0.711137 20 17 12 14 6
-0.936059 -0.856651 -0.821293 22 18 12 2 2
-0.920160 -0.882623 -0.821938 19 18 13 2 2
-0.391014 -1.128466 -0.793982 13 13 14 2 2
-0.396378 -1.119109 -0.797129 13 14 15 2 2
-1.014894 -0.665246 -0.816338 31 24 19 2 2
-0.713387 -1.060074 -0.812245 14 13 9 2 2
-0.282931 -1.298504 -0.674966 13 10 8 14 6
-0.282838 -1.279174 -0.673817 16 14 10 14 6
-0.306139 -1.281501 -0.673830 13 10 7 14 6
-0.428029 -0.460274 -0.838133 14 22 34 2 2
-0.408747 -0.471050 -0.836271 15 20 31 2 2
-0.409296 -0.456835 -0.839859 14 20 31 2 2
-0.849411 -1.435902 -0.778612 15 14 10 0 0
-0.204823 -0.536669 -0.853733 11 11 10 2 2
-0.435563 -1.230306 -0.743887 15 12 14 14 6
-0.407839 -1.221018 -0.717102 11 7 6 14 6
-0.805542 -1.023576 -0.814915 17 16 12 2 2
-0.804426 -1.315251 -0.752162 20 18 18 0 0
-0.807402 -1.314949 -0.732584 21 16 14 0 0
-0.481346 -0.956484 -0.819784 19 18 18 2 2
-0.477183 -0.936079 -0.820405 18 16 17 2 2
-0.474777 -0.949442 -0.811972 13 12 12 14 8
-0.616689 -1.190302 -0.711419 22 13 9 14 8
-0.608067 -1.201237 -0.713757 13 4 3 14 8
-0.602954 -1.187393 -0.712509 22 13 9 14 8
-0.611380 -1.193723 -0.708454 22 13 9 14 8
-0.585872 -1.208073 -0.704934 11 3 2 14 8
-0.629660 -1.189018 -0.704691 24 14 12 14 8
-0.596380 -1.189354 -0.705091 23 13 12 14 8
-0.598801 -1.186634 -0.706722 23 13 11 14 8
-0.409253 -1.189276 -0.712134 13 7 8 14 6
-0.418849 -1.202031 -0.725911 12 7 6 14 6
-0.799899 -1.110001 -0.805086 16 15 11 2 2
-0.811951 -1.085532 -0.810017 17 16 11 2 2
-0.786613 -1.099599 -0.808285 16 15 11 2 2
-0.608285 -1.009896 -0.816658 18 14 13 2 2
-0.481959 -0.835801 -0.819166 12 11 12 14 8
-0.487430 -0.836074 -0.821750 17 14 13 2 2
-0.485950 -0.826962 -0.818734 15 12 10 14 8
-0.488090 -0.851953 -0.821657 18 19 17 2 2
-1.039550 -0.875991 -0.818951 33 30 22 2 2
-1.015340 -0.870176 -0.818295 32 22 17 2 2
-1.008080 -1.104902 -0.806221 26 26 20 2 2
-0.990187 -1.116190 -0.805918 24 22 18 2 2
-1.006148 -1.080409 -0.809897 27 25 21 2 2
-0.982830 -1.086975 -0.808336 20 19 14 2 2
-0.975288 -1.400011 -0.794110 17 16 11 2 2
-0.968865 -1.384025 -0.792917 18 14 11 2 2
-0.956947 -1.379604 -0.792477 16 13 13 2 2
-0.488051 -0.677781 -0.811797 26 27 29 2 2
-0.487664 -0.665128 -0.816000 27 27 29 2 2
-0.486679 -0.663279 -0.797727 27 28 34 14 8
-0.488515 -0.682002 -0.796064 27 28 33 14 8
-0.491872 -0.686413 -0.814816 24 22 24 2 2
-0.469070 -0.680923 -0.795327 29 28 33 2 2
-0.484327 -0.679439 -0.800575 28 28 31 2 2
-0.474885 -0.691195 -0.789908 26 28 32 2 2
-0.209785 -0.504862 -0.851367 11 11 11 2 2
-0.466290 -0.496082 -0.716982 88 111 160 14 6
-0.497383 -0.488274 -0.713008 83 94 134 14 6
-0.493303 -0.467833 -0.714650 86 97 138 14 6
-0.996689 -0.688332 -0.820513 21 21 18 2 2
-0.982822 -0.665161 -0.820106 22 21 21 2 2
-0.210161 -0.466161 -0.845529 17 16 20 2 2
-0.247979 -0.463305 -0.841227 18 15 20 2 2
-0.222869 -0.454570 -0.841641 18 17 21 2 2
-0.805275 -0.660458 -0.823205 22 26 30 2 2
-0.800529 -0.618478 -0.825314 23 27 33 2 2
-0.273510 -1.269557 -0.720883 8 7 9 14 6
-1.049557 -1.098117 -0.810665 33 29 22 2 2
-1.037982 -1.091560 -0.809422 31 28 23 2 2
-1.032618 -1.105884 -0.808583 33 30 23 2 2
-0.425249 -0.837577 -0.719670 15 11 10 14 6
-0.706168 -1.090850 -0.809573 13 13 9 2 2
-0.687634 -1.113018 -0.806952 14 13 10 2 2
-0.708035 -1.106938 -0.808887 14 13 10 2 2
-0.590776 -0.655671 -0.826182 24 23 28 2 2
-0.470334 -0.869359 -0.700148 20 12 11 14 6
-0.467210 -1.256254 -0.589717 20 15 16 14 6
-0.487527 -1.260936 -0.596691 23 16 18 14 6
-0.476821 -1.257276 -0.579952 22 16 18 14 6
-0.487821 -1.024334 -0.811283 16 16 16 2 2
-0.492383 -1.019303 -0.815027 19 19 19 2 2
-0.488140 -1.027134 -0.805238 14 14 14 14 8
-0.941477 -1.413618 -0.786473 18 15 12 2 2
-0.962234 -1.403551 -0.791684 18 14 11 2 2
-0.328343 -0.461869 -0.846691 12 16 22 2 2
-0.305141 -0.465958 -0.847156 14 16 21 2 2
-0.775199 -1.190847 -0.684958 19 11 8 14 8
-0.759791 -1.184799 -0.687274 18 11 9 14 8
-0.777182 -1.184929 -0.687052 17 12 9 14 8
-0.976119 -1.183835 -0.696693 16 12 8 14 8
-0.939600 -1.181738 -0.691897 15 13 9 14 8
-0.948368 -1.187204 -0.713674 17 12 8 14 8
-0.963708 -1.184781 -0.707595 16 12 8 14 8
-0.959435 -1.193144 -0.714630 18 11 8 14 8
-0.923975 -1.005700 -0.810192 19 16 13 2 2
-0.886241 -1.007135 -0.812705 20 16 13 2 2
-1.001099 -0.941472 -0.821156 20 19 14 2 2
-0.965782 -0.932649 -0.820952 19 18 13 2 2
-0.268612 -0.647147 -0.840596 10 10 10 0 0
-0.289950 -0.625347 -0.840887 10 10 10 0 0
-0.308371 -0.642801 -0.839069 10 10 10 0 0
-0.296274 -0.655796 -0.844447 11 11 11 0 0
-0.305045 -0.636574 -0.839607 10 10 10 0 0
-0.278425 -0.671514 -0.820371 10 10 6 2 2
-0.274512 -0.668237 -0.829907 10 10 9 2 2
-0.301292 -0.660468 -0.838243 10 10 10 0 0
-0.302114 -0.663230 -0.830777 7 6 5 0 0
-0.290595 -0.660370 -0.819391 7 6 5 2 2
-0.284969 -0.662990 -0.833061 10 9 7 2 2
-0.304039 -0.651519 -0.829479 10 11 9 0 0
-0.282186 -0.659508 -0.843470 11 11 10 0 0
-0.424685 -1.131056 -0.794240 18 17 21 2 2
-0.416049 -1.129974 -0.795196 18 17 21 2 2
-0.521714 -1.113990 -0.680428 16 7 5 14 8
-0.514007 -1.123915 -0.675892 20 15 11 14 8
-0.514985 -1.141928 -0.679880 20 14 10 14 8
-0.520579 -1.132260 -0.681496 16 8 5 14 8
-0.702083 -0.945610 -0.816074 17 14 12 2 2
-0.711484 -0.934999 -0.815989 16 17 12 2 2
-0.441967 -0.812586 -0.714027 14 12 10 14 6
-0.447743 -0.795740 -0.712036 13 10 11 14 6
-0.458466 -0.811767 -0.706604 13 7 6 14 6
-0.248624 -1.287376 -0.674888 21 17 17 14 6
-0.271161 -1.311231 -0.672983 14 11 13 14 6
-0.264297 -1.278491 -0.675202 16 13 13 14 6
-0.259298 -1.300097 -0.674332 19 15 16 14 6
-0.779406 -0.814375 -0.821263 20 18 17 2 2
-0.640800 -0.697408 -0.826490 19 19 21 2 2
-0.582708 -1.057564 -0.813913 18 17 13 2 2
-0.553518 -0.806876 -0.822298 20 21 22 2 2
-0.546439 -0.828048 -0.824746 20 22 23 2 2
-0.549928 -0.791269 -0.823552 20 21 23 2 2
-0.431201 -1.082802 -0.799657 18 19 21 2 2
-0.412931 -1.103297 -0.800678 15 16 18 2 2
-0.425697 -1.113108 -0.799636 17 18 20 2 2
-0.352075 -1.401765 -0.703143 6 5 5 14 6
-0.407097 -1.376845 -0.624271 17 13 13 14 6
-0.409042 -1.378120 -0.639095 13 9 8 14 6
-0.423423 -1.388499 -0.632267 12 11 10 14 6
-0.422334 -1.389374 -0.648649 13 9 9 14 6
-0.436864 -1.399489 -0.641512 12 11 10 14 6
-0.475017 -0.471902 -0.715267 73 100 166 14 6
-0.539121 -0.773986 -0.761203 38 19 11 14 8
-0.530550 -0.781211 -0.758185 35 19 13 14 8
-0.202672 -0.557059 -0.826739 11 9 8 2 2
-0.232500 -0.559239 -0.824775 11 11 10 2 2
-0.234251 -0.531064 -0.826771 12 10 10 2 2
-0.236166 -0.547699 -0.826838 12 10 11 2 2
-0.213961 -0.545472 -0.826837 12 10 10 2 2
-0.221360 -0.565150 -0.827962 11 11 10 2 2
-0.536005 -0.887307 -0.736567 32 16 8 14 8
-0.535388 -0.868765 -0.742383 31 17 9 14 8
-0.536857 -0.865141 -0.725482 30 14 9 14 8
-0.171319 -0.757915 -0.820325 12 8 7 2 2
-0.153844 -0.774706 -0.818446 12 10 10 2 2
-0.179475 -0.790848 -0.815961 12 10 9 2 2
-0.979731 -1.031989 -0.808771 18 17 15 2 2
-0.957085 -1.037042 -0.811532 17 16 13 2 2
-0.839315 -0.580859 -0.824985 22 26 32 2 2
-0.832379 -0.568226 -0.825252 22 26 34 2 2
-0.993907 -0.882346 -0.820022 26 19 13 2 2
-1.007483 -0.885207 -0.820475 25 21 15 2 2
-0.833545 -0.825288 -0.819847 18 17 15 2 2
-0.846929 -0.839886 -0.820252 18 17 15 2 2
-0.852027 -0.978291 -0.814754 19 17 15 2 2
-0.547767 -0.554552 -0.714607 57 65 104 14 6
-0.555733 -0.556718 -0.721184 55 69 103 14 6
-0.539577 -0.557909 -0.711387 61 74 119 14 6
-0.543243 -0.536547 -0.712972 60 72 112 14 6
-0.525801 -0.570194 -0.709118 59 74 114 14 6
-0.556572 -0.535286 -0.722064 58 71 110 14 6
-0.402093 -0.581676 -0.840165 12 12 17 2 2
-0.375512 -0.580278 -0.839943 14 13 20 0 0
-0.401119 -0.564683 -0.838816 11 10 14 2 2
-0.391153 -0.581457 -0.847759 12 12 17 0 0
-0.382346 -0.586110 -0.837916 14 14 18 0 0
-0.387325 -0.597730 -0.827035 8 8 10 0 0
-0.397505 -0.595157 -0.833508 7 9 13 0 0
-0.389314 -0.594005 -0.842223 12 12 19 0 0
-0.380197 -0.598337 -0.842555 13 12 14 0 0
-0.464784 -0.535561 -0.715517 50 62 93 14 6
-0.891586 -0.814733 -0.819944 18 18 16 2 2
-0.529523 -1.021963 -0.748821 29 14 9 14 8
-0.586612 -0.967591 -0.819149 18 14 11 2 2
-0.573274 -0.963445 -0.819490 19 16 17 2 2
-0.572460 -0.948557 -0.820885 20 16 16 2 2
-0.875642 -1.273674 -0.759153 13 12 12 0 0
-0.860981 -1.270791 -0.756615 25 22 21 0 0
-0.875219 -1.303822 -0.750648 22 23 19 0 0
-0.858740 -1.301288 -0.754423 20 22 19 0 0
-0.885774 -1.279555 -0.760997 26 20 18 0 0
-0.846147 -1.279354 -0.752841 23 22 23 0 0
-0.863861 -1.281165 -0.751275 24 21 21 0 0
-0.554258 -0.627275 -0.723854 31 24 30 14 6
-0.552686 -0.608149 -0.722432 33 28 35 14 6
-0.553943 -0.616905 -0.744127 39 25 22 14 8
-0.553627 -0.640091 -0.742622 36 24 20 14 8
-0.672471 -1.038779 -0.815881 14 13 11 2 2
-0.713500 -1.191023 -0.694808 21 12 9 14 8
-0.700951 -1.195758 -0.702456 21 12 6 14 8
-0.715256 -1.184817 -0.698215 18 12 10 14 8
-0.696424 -1.184345 -0.703071 18 11 9 14 8
-0.712697 -1.200583 -0.707818 21 9 8 2 2
-0.694580 -1.188147 -0.699080 21 12 8 14 8
-0.699403 -1.187132 -0.707067 20 12 8 2 2
-0.170451 -0.651100 -0.822432 11 8 11 2 2
-0.157847 -0.643620 -0.828920 10 7 10 2 2
-0.155011 -0.661851 -0.821900 7 5 6 2 2
-0.177070 -0.648839 -0.824525 10 6 9 2 2
-0.150723 -0.655181 -0.827906 11 8 12 2 2
-0.897237 -0.687679 -0.821833 19 18 16 2 2
-0.526796 -0.891066 -0.708790 27 13 12 14 6
-0.529882 -0.922423 -0.712162 26 13 10 14 8
-0.229310 -0.593617 -0.827478 10 10 8 2 2
-0.225046 -0.576855 -0.827035 11 10 11 2 2
-0.241288 -0.566052 -0.826120 11 10 10 2 2
-0.537908 -1.115841 -0.737254 27 12 5 14 8
-0.536207 -1.139602 -0.742262 25 12 10 14 8
-0.542187 -1.146459 -0.736960 27 12 9 14 8
-0.539709 -1.133108 -0.732867 27 12 9 14 8
-0.654428 -0.937606 -0.818421 15 15 13 2 2
-0.633173 -0.931584 -0.819265 17 15 12 2 2
-0.636306 -0.974590 -0.821318 15 15 13 2 2
-0.646646 -0.953576 -0.820574 16 15 13 2 2
-1.006663 -0.807229 -0.820068 36 28 12 2 2
-0.993086 -0.795940 -0.818732 28 20 10 2 2
-0.761448 -0.702976 -0.824015 29 30 41 2 2
-0.725796 -0.688255 -0.824374 20 19 19 2 2
-0.752879 -0.687152 -0.823531 27 27 35 2 2
-0.746984 -0.662535 -0.825245 20 20 19 2 2
-0.468293 -0.572722 -0.766505 18 15 15 14 6
-0.458722 -0.596971 -0.751970 17 16 18 14 6
-0.462317 -0.574466 -0.750112 15 12 13 14 6
-0.156199 -0.792209 -0.817654 12 11 9 2 2
-0.179185 -0.814201 -0.817793 13 13 11 2 2
-0.163498 -0.823016 -0.819871 13 13 11 2 2
-0.158592 -0.810457 -0.817908 12 12 10 2 2
-0.515962 -1.204686 -0.598953 30 13 6 0 0
-0.509235 -1.196957 -0.599825 30 13 6 0 0
-0.509256 -1.180922 -0.618698 26 11 5 0 0
-0.510571 -1.170679 -0.612507 25 11 6 0 0
-0.507465 -1.188482 -0.597569 28 12 6 0 0
-0.505416 -1.209244 -0.609856 27 13 7 0 0
-0.514874 -1.205275 -0.612316 26 11 7 0 0
-0.508308 -1.197330 -0.618425 28 12 7 0 0
-0.503519 -1.197210 -0.621214 29 12 7 0 0
-0.644940 -0.826542 -0.823619 17 18 17 2 2
-0.695354 -0.813789 -0.821867 16 16 15 2 2
-0.933953 -0.781131 -0.821150 25 19 15 2 2
-0.896917 -0.772510 -0.820417 22 18 16 2 2
-0.525826 -0.616948 -0.708242 33 33 52 14 6
-0.858255 -1.230837 -0.675990 15 7 3 0 0
-0.872070 -1.221429 -0.685403 12 4 1 0 0
-0.867969 -1.215206 -0.686409 16 6 3 14 8
-0.275784 -1.359348 -0.688576 15 11 11 14 6
-0.489622 -1.056607 -0.690849 27 18 15 14 6
-0.476115 -1.026289 -0.689148 28 18 16 14 6
-0.476381 -1.013821 -0.690889 28 18 16 14 6
-0.472023 -1.036993 -0.689265 23 14 12 14 6
-0.257068 -0.608484 -0.842950 10 9 7 2 2
-0.262084 -0.602250 -0.839490 9 9 8 2 2
-0.255875 -0.631768 -0.829652 11 10 9 2 2
-0.263534 -0.629172 -0.843881 9 9 7 2 2
-0.269332 -0.618345 -0.845671 11 10 10 0 0
-0.258852 -0.622733 -0.829883 11 9 7 2 2
-0.257967 -0.610598 -0.831015 11 10 9 2 2
-0.267058 -0.601312 -0.829417 11 10 9 2 2
-0.583299 -0.465566 -0.831155 23 23 31 2 2
-0.256328 -0.642996 -0.832090 11 11 10 2 2
-0.268013 -0.639479 -0.844532 11 11 10 0 0
-0.264506 -0.657523 -0.832501 11 11 10 2 2
-0.263338 -0.652743 -0.845327 10 10 8 0 0
-0.258749 -0.637513 -0.836841 11 11 10 2 2
-0.274162 -0.661013 -0.826795 11 11 9 2 2
-0.258849 -0.656537 -0.826456 12 12 10 2 2
-0.262294 -0.662488 -0.839815 11 11 10 2 2
-0.734168 -1.120018 -0.806322 15 14 10 2 2
-0.745583 -1.145255 -0.806537 15 14 10 2 2
-0.747025 -1.129161 -0.805999 15 14 10 2 2
-0.535303 -1.185698 -0.675195 35 18 10 14 8
-0.541986 -1.190528 -0.667480 34 17 9 14 8
-0.557409 -1.184573 -0.655473 36 17 9 14 8
-0.535357 -1.207718 -0.659020 36 16 9 14 8
-0.554039 -1.203577 -0.687328 35 18 10 14 8
-0.534233 -1.208060 -0.670557 37 16 10 14 8
-1.017396 -0.518493 -0.838801 28 27 32 2 2
-1.007352 -0.514010 -0.838392 27 26 31 2 2
-0.994895 -0.519367 -0.838162 23 23 26 2 2
-1.012804 -0.506545 -0.840621 27 26 31 2 2
-0.986637 -0.527384 -0.835370 18 19 23 2 2
-0.527464 -0.554819 -0.709279 59 75 114 14 6
-0.496998 -0.537585 -0.710595 13 13 29 14 6
-0.986598 -1.139195 -0.806920 20 19 15 2 2
-1.015377 -1.131834 -0.804003 27 25 21 2 2
-0.566958 -1.218827 -0.630569 25 11 7 14 8
-0.567481 -1.222556 -0.653710 25 12 7 14 8
-0.569294 -1.239379 -0.648744 25 12 6 14 8
-0.572042 -1.235762 -0.628659 24 11 6 14 8
-0.567980 -1.235528 -0.633887 27 13 8 14 8
-0.633063 -1.075252 -0.812540 14 13 11 2 2
-0.669048 -1.069018 -0.812988 14 14 11 2 2
-0.651638 -1.053742 -0.814492 15 13 12 2 2
-0.635814 -1.048168 -0.814092 15 13 11 2 2
-0.752059 -0.881773 -0.820773 16 16 13 2 2
-0.502713 -1.190086 -0.587695 29 14 7 0 0
-0.513097 -1.205474 -0.587525 31 15 8 0 0
-0.507843 -1.204332 -0.577134 32 15 9 0 0
-0.424798 -0.564727 -0.837503 10 10 13 2 2
-0.410829 -0.539600 -0.828591 20 21 32 2 2
-0.435715 -0.563014 -0.832278 12 12 19 2 2
-0.407316 -0.553259 -0.828717 14 16 23 2 2
-0.404959 -0.563533 -0.828884 12 12 20 2 2
-0.439645 -0.555250 -0.820459 15 17 26 2 2
-0.436522 -0.539317 -0.825163 19 22 35 2 2
-0.434408 -0.549054 -0.817163 19 21 33 2 2
-0.422952 -0.548283 -0.825526 15 19 28 2 2
-0.424911 -0.540559 -0.822641 20 23 35 2 2
-0.231607 -0.825513 -0.819772 12 9 8 2 2
-0.212797 -0.792101 -0.819044 12 8 7 2 2
-0.237624 -0.801831 -0.823678 14 10 9 2 2
-0.220436 -0.818541 -0.815157 10 8 7 2 2
-0.353723 -1.346271 -0.660850 12 7 4 14 6
-0.361842 -1.343269 -0.661160 11 7 4 14 6
-0.351048 -1.380592 -0.686311 12 7 6 14 6
-0.358123 -1.367103 -0.669770 14 7 5 14 6
-0.339286 -1.354249 -0.669308 12 7 5 14 6
-0.336424 -1.336646 -0.665253 11 7 4 14 6
-0.362202 -1.356136 -0.661047 13 8 5 14 6
-0.808602 -0.968900 -0.815458 18 17 14 2 2
-0.805302 -0.957400 -0.817926 18 17 14 2 2
-0.504929 -1.134224 -0.781916 20 11 9 14 8
-0.506601 -1.116013 -0.780110 19 12 9 14 8
-0.523069 -1.115450 -0.759629 23 12 7 14 8
-0.878234 -0.914478 -0.821653 21 17 14 2 2
-0.867204 -0.925702 -0.823106 19 17 15 2 2
-0.891720 -0.902717 -0.822420 20 16 15 2 2
-0.651536 -1.191028 -0.803032 8 6 6 0 0
-0.641648 -1.175532 -0.790854 19 12 10 2 2
-0.643139 -1.181506 -0.788171 19 12 10 2 2
-0.633081 -1.191953 -0.816846 13 9 8 0 0
-0.653766 -1.190722 -0.791080 13 9 7 0 0
-0.643943 -1.186560 -0.784540 16 12 9 0 0
-0.627686 -1.184097 -0.793507 16 12 9 0 0
-0.918354 -1.186217 -0.788288 17 13 8 2 2
-0.937854 -1.193101 -0.787102 17 13 10 2 2
-0.949057 -1.186554 -0.791138 16 13 10 2 2
-0.947457 -1.201343 -0.782451 19 13 10 2 2
-0.861329 -0.789436 -0.818791 22 18 15 2 2
-0.894804 -0.789940 -0.820832 19 18 16 2 2
-0.244916 -0.645788 -0.829217 13 12 8 2 2
-0.224078 -0.651047 -0.829754 14 10 7 2 2
-0.512332 -0.615509 -0.801300 35 23 20 14 8
-0.517702 -0.603674 -0.791748 37 23 20 14 8
-0.515667 -0.626598 -0.791808 36 24 19 14 8
