ply
format ascii 1.0
element vertex 1137
property float x
property float y
property float z
property uchar red
property uchar green
property uchar blue
property uchar semantic_label
property uchar instance_label
end_header
0.940885 -1.487202 0.104912 0 255 0 81 14
0.963850 -1.436877 0.106950 0 255 0 81 14
0.930668 -1.390975 0.106936 0 255 0 81 14
0.969793 -1.399292 0.106966 0 255 0 81 14
0.804558 -1.407108 0.106918 0 255 0 81 14
0.955467 -1.351263 0.114951 0 255 0 81 14
0.995757 -1.412989 0.107906 0 255 0 81 14
0.905718 -1.508353 0.115138 0 255 0 81 14
0.928229 -1.267776 0.114545 0 255 0 81 14
0.944042 -1.453113 0.107000 0 255 0 81 14
0.884984 -1.471231 0.106941 0 255 0 81 14
0.882422 -1.358229 0.114954 0 255 0 81 14
0.953502 -1.514420 0.104908 0 255 0 81 14
0.846765 -1.420169 0.114915 0 255 0 81 14
0.932378 -1.411786 0.106979 0 255 0 81 14
0.823592 -1.259847 0.114572 0 255 0 81 14
0.914092 -1.334290 0.106923 0 255 0 81 14
0.897705 -1.392147 0.115005 0 255 0 81 14
0.960753 -1.321717 0.107906 0 255 0 81 14
0.888762 -1.332994 0.107906 0 255 0 81 14
0.982543 -1.464365 0.105906 0 255 0 81 14
0.952036 -1.473215 0.114222 0 255 0 81 14
0.974614 -1.357378 0.114882 0 255 0 81 14
0.876478 -1.395813 0.114918 0 255 0 81 14
0.955022 -1.420688 0.114855 0 255 0 81 14
0.896503 -1.426651 0.114794 0 255 0 81 14
0.986903 -1.530430 0.109907 0 255 0 81 14
0.850120 -1.337049 0.106937 0 255 0 81 14
0.856697 -1.527356 0.105906 0 255 0 81 14
0.995110 -1.304482 0.113907 0 255 0 81 14
0.804276 -1.321856 0.111907 0 255 0 81 14
0.830501 -1.467829 0.106987 0 255 0 81 14
0.986083 -1.495811 0.105906 0 255 0 81 14
0.988844 -1.372671 0.103907 0 255 0 81 14
0.860072 -1.357567 0.115411 0 255 0 81 14
0.907051 -1.300077 0.115206 0 255 0 81 14
0.898781 -1.367840 0.114686 0 255 0 81 14
0.919319 -1.453992 0.106941 0 255 0 81 14
0.891486 -1.517596 0.106971 0 255 0 81 14
0.839186 -1.398111 0.106912 0 255 0 81 14
0.819225 -1.492013 0.114599 0 255 0 81 14
0.990955 -1.342449 0.103907 0 255 0 81 14
0.892307 -1.254005 0.112568 0 255 0 81 14
0.986897 -1.429508 0.103907 0 255 0 81 14
0.956223 -1.386184 0.106943 0 255 0 81 14
0.978669 -1.444116 0.114644 0 255 0 81 14
0.842286 -1.498959 0.106969 0 255 0 81 14
0.962072 -1.291327 0.106935 0 255 0 81 14
0.878775 -1.433105 0.115129 0 255 0 81 14
0.920953 -1.513636 0.106987 0 255 0 81 14
0.846935 -1.438607 0.114949 0 255 0 81 14
0.820814 -1.523021 0.114897 0 255 0 81 14
0.869947 -1.416917 0.114905 0 255 0 81 14
0.985500 -1.267681 0.114719 0 255 0 81 14
0.975512 -1.478205 0.114805 0 255 0 81 14
0.871960 -1.282396 0.106932 0 255 0 81 14
0.977770 -1.323288 0.114469 0 255 0 81 14
0.931746 -1.366668 0.114752 0 255 0 81 14
0.980511 -1.291157 0.114663 0 255 0 81 14
0.818685 -1.292552 0.107906 0 255 0 81 14
0.946678 -1.527282 0.114493 0 255 0 81 14
0.819253 -1.424544 0.115010 0 255 0 81 14
0.952499 -1.499894 0.114524 0 255 0 81 14
0.931594 -1.444334 0.114890 0 255 0 81 14
0.848107 -1.471570 0.106979 0 255 0 81 14
0.916190 -1.420613 0.106964 0 255 0 81 14
0.817667 -1.393537 0.106977 0 255 0 81 14
0.864182 -1.309369 0.106964 0 255 0 81 14
0.925272 -1.252834 0.106915 0 255 0 81 14
0.985860 -1.400661 0.114680 0 255 0 81 14
0.956864 -1.267729 0.106933 0 255 0 81 14
0.844884 -1.380919 0.106915 0 255 0 81 14
0.804236 -1.466335 0.109056 0 255 0 81 14
0.911057 -1.358181 0.106966 0 255 0 81 14
0.889320 -1.306533 0.106938 0 255 0 81 14
0.870145 -1.367887 0.106938 0 255 0 81 14
0.876913 -1.489962 0.115036 0 255 0 81 14
0.855687 -1.493629 0.114995 0 255 0 81 14
0.912230 -1.391145 0.106972 0 255 0 81 14
0.832286 -1.449806 0.106941 0 255 0 81 14
0.863936 -1.329762 0.114825 0 255 0 81 14
0.903252 -1.452621 0.114344 0 255 0 81 14
0.816683 -1.475115 0.115062 0 255 0 81 14
0.942605 -1.344440 0.106941 0 255 0 81 14
0.944513 -1.316220 0.106945 0 255 0 81 14
0.857009 -1.448926 0.106937 0 255 0 81 14
0.817468 -1.442567 0.106915 0 255 0 81 14
0.962753 -1.365080 0.106974 0 255 0 81 14
0.928202 -1.335244 0.114845 0 255 0 81 14
0.901371 -1.413373 0.106925 0 255 0 81 14
0.942529 -1.383273 0.114895 0 255 0 81 14
0.939305 -1.292622 0.114923 0 255 0 81 14
0.839375 -1.512653 0.114514 0 255 0 81 14
0.846576 -1.305625 0.106914 0 255 0 81 14
0.990561 -1.315784 0.103907 0 255 0 81 14
0.956421 -1.337152 0.106925 0 255 0 81 14
0.819480 -1.308046 0.115008 0 255 0 81 14
0.916700 -1.475927 0.114833 0 255 0 81 14
0.950864 -1.440251 0.114781 0 255 0 81 14
0.976768 -1.520396 0.103907 0 255 0 81 14
0.919866 -1.278265 0.106923 0 255 0 81 14
0.871508 -1.515394 0.115116 0 255 0 81 14
0.804213 -1.355917 0.107906 0 255 0 81 14
0.837674 -1.328269 0.109030 0 255 0 81 14
0.995376 -1.461980 0.113907 0 255 0 81 14
0.856972 -1.256719 0.114365 0 255 0 81 14
0.824803 -1.273384 0.107906 0 255 0 81 14
0.929146 -1.484707 0.114992 0 255 0 81 14
0.844034 -1.288728 0.106969 0 255 0 81 14
0.833070 -1.417258 0.106991 0 255 0 81 14
0.872366 -1.444013 0.106954 0 255 0 81 14
0.896561 -1.291715 0.106912 0 255 0 81 14
0.890069 -1.505026 0.115085 0 255 0 81 14
0.829480 -1.357199 0.114730 0 255 0 81 14
0.865571 -1.389407 0.106907 0 255 0 81 14
0.927095 -1.427020 0.114931 0 255 0 81 14
0.819739 -1.335685 0.107906 0 255 0 81 14
0.804668 -1.450069 0.107906 0 255 0 81 14
0.987647 -1.382638 0.114725 0 255 0 81 14
0.889434 -1.459908 0.115175 0 255 0 81 14
0.964605 -1.471797 0.106961 0 255 0 81 14
0.932483 -1.305484 0.115206 0 255 0 81 14
0.942756 -1.266774 0.114591 0 255 0 81 14
0.904840 -1.483630 0.106986 0 255 0 81 14
0.819036 -1.377470 0.106968 0 255 0 81 14
0.847624 -1.348788 0.115041 0 255 0 81 14
0.881421 -1.343703 0.114751 0 255 0 81 14
0.900198 -1.380409 0.106938 0 255 0 81 14
0.870590 -1.298461 0.114599 0 255 0 81 14
0.899593 -1.267823 0.114650 0 255 0 81 14
0.959474 -1.409366 0.106966 0 255 0 81 14
0.942066 -1.356593 0.114684 0 255 0 81 14
0.858210 -1.414423 0.106940 0 255 0 81 14
0.846651 -1.266793 0.109040 0 255 0 81 14
0.983006 -1.279418 0.106925 0 255 0 81 14
0.899140 -1.500821 0.104913 0 255 0 81 14
0.902353 -1.331795 0.114624 0 255 0 81 14
0.964614 -1.308225 0.114524 0 255 0 81 14
0.988516 -1.296947 0.103907 0 255 0 81 14
0.914752 -1.311939 0.114964 0 255 0 81 14
0.923449 -1.501898 0.114555 0 255 0 81 14
0.963821 -1.504346 0.106948 0 255 0 81 14
0.902249 -1.438096 0.106979 0 255 0 81 14
0.918458 -1.525373 0.114472 0 255 0 81 14
0.830896 -1.369768 0.106928 0 255 0 81 14
0.868529 -1.404347 0.106927 0 255 0 81 14
0.860676 -1.470153 0.114773 0 255 0 81 14
0.812280 -1.515073 0.106979 0 255 0 81 14
0.896306 -1.475682 0.114900 0 255 0 81 14
0.926878 -1.379946 0.114642 0 255 0 81 14
0.806799 -1.266500 0.107906 0 255 0 81 14
0.995274 -1.433332 0.114401 0 255 0 81 14
0.836256 -1.315701 0.114892 0 255 0 81 14
0.805201 -1.288652 0.109056 0 255 0 81 14
0.888216 -1.398309 0.106943 0 255 0 81 14
0.940913 -1.419734 0.114462 0 255 0 81 14
0.890323 -1.321059 0.114686 0 255 0 81 14
0.806590 -1.368690 0.112594 0 255 0 81 14
0.995891 -1.269890 0.105906 0 255 0 81 14
0.888996 -1.529334 0.113907 0 255 0 81 14
0.963283 -1.516499 0.114292 0 255 0 81 14
0.872367 -1.266126 0.107906 0 255 0 81 14
0.995245 -1.500801 0.114717 0 255 0 81 14
0.820946 -1.349251 0.106981 0 255 0 81 14
0.915509 -1.346859 0.114339 0 255 0 81 14
0.873954 -1.475019 0.114583 0 255 0 81 14
0.983394 -1.344931 0.114976 0 255 0 81 14
0.940516 -1.517794 0.106986 0 255 0 81 14
0.894991 -1.356811 0.106910 0 255 0 81 14
0.825634 -1.481107 0.107009 0 255 0 81 14
0.829924 -1.287774 0.114231 0 255 0 81 14
0.873519 -1.380873 0.114941 0 255 0 81 14
0.931603 -1.280761 0.115064 0 255 0 81 14
0.926217 -1.402297 0.114488 0 255 0 81 14
0.978158 -1.388801 0.106966 0 255 0 81 14
0.954532 -1.461477 0.107000 0 255 0 81 14
0.985633 -1.517161 0.114030 0 255 0 81 14
0.906673 -1.494243 0.114753 0 255 0 81 14
0.805097 -1.394954 0.112710 0 255 0 81 14
0.856036 -1.366933 0.106928 0 255 0 81 14
0.976513 -1.492731 0.114531 0 255 0 81 14
0.826683 -1.524268 0.103116 0 255 0 81 14
0.941131 -1.466807 0.106945 0 255 0 81 14
0.864636 -1.499620 0.106956 0 255 0 81 14
0.875138 -1.330100 0.107906 0 255 0 81 14
0.911086 -1.290713 0.106919 0 255 0 81 14
0.960900 -1.258363 0.115182 0 255 0 81 14
0.880070 -1.455873 0.106973 0 255 0 81 14
0.918127 -1.324924 0.115198 0 255 0 81 14
0.943842 -1.502144 0.104908 0 255 0 81 14
0.894794 -1.405841 0.115270 0 255 0 81 14
0.833926 -1.264088 0.107906 0 255 0 81 14
0.955911 -1.281837 0.114887 0 255 0 81 14
0.913703 -1.268778 0.115111 0 255 0 81 14
0.808066 -1.418077 0.113907 0 255 0 81 14
0.965663 -1.351386 0.106956 0 255 0 81 14
0.847153 -1.485681 0.106940 0 255 0 81 14
0.987391 -1.354980 0.103907 0 255 0 81 14
0.839063 -1.408308 0.114861 0 255 0 81 14
0.985104 -1.365742 0.114707 0 255 0 81 14
0.851565 -1.282151 0.115142 0 255 0 81 14
0.955410 -1.486200 0.114850 0 255 0 81 14
0.958717 -1.374445 0.114815 0 255 0 81 14
0.846963 -1.371138 0.115012 0 255 0 81 14
0.886306 -1.426528 0.106986 0 255 0 81 14
0.846717 -1.391532 0.114964 0 255 0 81 14
0.975304 -1.267558 0.106941 0 255 0 81 14
0.989528 -1.421888 0.115005 0 255 0 81 14
0.972922 -1.432671 0.115201 0 255 0 81 14
0.832088 -1.498836 0.114722 0 255 0 81 14
0.847494 -1.522557 0.114805 0 255 0 81 14
0.859069 -1.343040 0.114949 0 255 0 81 14
0.965219 -1.420811 0.106935 0 255 0 81 14
0.932766 -1.477298 0.104908 0 255 0 81 14
0.979868 -1.409612 0.106955 0 255 0 81 14
0.960429 -1.395256 0.114874 0 255 0 81 14
0.925016 -1.436801 0.106941 0 255 0 81 14
0.920839 -1.360260 0.115172 0 255 0 81 14
0.890399 -1.282226 0.114761 0 255 0 81 14
0.938787 -1.400878 0.106923 0 255 0 81 14
0.949502 -1.292744 0.106932 0 255 0 81 14
0.815190 -1.501379 0.106994 0 255 0 81 14
0.952943 -1.430469 0.106945 0 255 0 81 14
0.946905 -1.410784 0.106948 0 255 0 81 14
0.876751 -1.307950 0.106925 0 255 0 81 14
0.957442 -1.447783 0.106954 0 255 0 81 14
0.915283 -1.463357 0.114722 0 255 0 81 14
0.974633 -1.453482 0.106936 0 255 0 81 14
0.940591 -1.478961 0.114681 0 255 0 81 14
0.930318 -1.517671 0.114432 0 255 0 81 14
0.935950 -1.375741 0.106973 0 255 0 81 14
0.982505 -1.483781 0.104913 0 255 0 81 14
0.930981 -1.495320 0.106964 0 255 0 81 14
0.954919 -1.526989 0.105031 0 255 0 81 14
0.965909 -1.330991 0.114594 0 255 0 81 14
0.983932 -1.332778 0.109058 0 255 0 81 14
0.984415 -1.455561 0.114612 0 255 0 81 14
0.849573 -1.512775 0.104913 0 255 0 81 14
0.936386 -1.258262 0.107906 0 255 0 81 14
0.864807 -1.518059 0.104921 0 255 0 81 14
0.817420 -1.413931 0.106950 0 255 0 81 14
0.994073 -1.467837 0.103067 0 255 0 81 14
0.935441 -1.320426 0.115090 0 255 0 81 14
0.984083 -1.255112 0.112561 0 255 0 81 14
0.885862 -1.495954 0.106958 0 255 0 81 14
0.941140 -1.303235 0.106909 0 255 0 81 14
0.882281 -1.483945 0.105906 0 255 0 81 14
0.901268 -1.519675 0.114770 0 255 0 81 14
0.829403 -1.396032 0.114712 0 255 0 81 14
0.867055 -1.526716 0.114913 0 255 0 81 14
0.934968 -1.457319 0.114771 0 255 0 81 14
0.913250 -1.501775 0.106989 0 255 0 81 14
0.856471 -1.461081 0.106956 0 255 0 81 14
0.868729 -1.355318 0.106938 0 255 0 81 14
0.888585 -1.367717 0.106959 0 255 0 81 14
0.891397 -1.344867 0.107906 0 255 0 81 14
0.986957 -1.472459 0.114465 0 255 0 81 14
0.857189 -1.303792 0.115116 0 255 0 81 14
0.806656 -1.493431 0.114199 0 255 0 81 14
0.808206 -1.332230 0.106910 0 255 0 81 14
0.984178 -1.312383 0.115034 0 255 0 81 14
0.906427 -1.514637 0.104921 0 255 0 81 14
0.828251 -1.459172 0.115044 0 255 0 81 14
0.813214 -1.404859 0.115021 0 255 0 81 14
0.850971 -1.429241 0.106928 0 255 0 81 14
0.974491 -1.367575 0.106955 0 255 0 81 14
0.903865 -1.401636 0.106959 0 255 0 81 14
0.854570 -1.325727 0.106920 0 255 0 81 14
0.886383 -1.387696 0.114854 0 255 0 81 14
0.941177 -1.495443 0.114428 0 255 0 81 14
0.923721 -1.414035 0.114859 0 255 0 81 14
0.952971 -1.363001 0.114848 0 255 0 81 14
0.862586 -1.441934 0.114745 0 255 0 81 14
0.882402 -1.262125 0.115093 0 255 0 81 14
0.835055 -1.350204 0.106963 0 255 0 81 14
0.863304 -1.284646 0.114699 0 255 0 81 14
0.969066 -1.296903 0.114696 0 255 0 81 14
0.909980 -1.382488 0.114709 0 255 0 81 14
0.818762 -1.465333 0.107028 0 255 0 81 14
0.874154 -1.425990 0.106969 0 255 0 81 14
0.827665 -1.442689 0.115072 0 255 0 81 14
0.871706 -1.466363 0.106974 0 255 0 81 14
0.974188 -1.522907 0.115070 0 255 0 81 14
0.955957 -1.310473 0.106941 0 255 0 81 14
0.948049 -1.511216 0.114770 0 255 0 81 14
0.994839 -1.339185 0.114437 0 255 0 81 14
0.963415 -1.342729 0.114529 0 255 0 81 14
0.879928 -1.369966 0.114454 0 255 0 81 14
0.852728 -1.478687 0.115013 0 255 0 81 14
0.907533 -1.422862 0.114890 0 255 0 81 14
0.974094 -1.465635 0.114601 0 255 0 81 14
0.910785 -1.446043 0.106989 0 255 0 81 14
0.899103 -1.308612 0.115170 0 255 0 81 14
0.847720 -1.406059 0.106940 0 255 0 81 14
0.813045 -1.386420 0.115034 0 255 0 81 14
0.877535 -1.275403 0.115007 0 255 0 81 14
0.848655 -1.295845 0.114935 0 255 0 81 14
0.991456 -1.489772 0.114272 0 255 0 81 14
0.920074 -1.258043 0.115906 0 255 0 81 14
0.839867 -1.471864 0.115164 0 255 0 81 14
0.829476 -1.309114 0.107906 0 255 0 81 14
0.815738 -1.325652 0.114933 0 255 0 81 14
0.838817 -1.428703 0.114836 0 255 0 81 14
0.935223 -1.273352 0.106917 0 255 0 81 14
0.920471 -1.390851 0.115116 0 255 0 81 14
0.966098 -1.445534 0.114320 0 255 0 81 14
0.920158 -1.286507 0.115054 0 255 0 81 14
0.897676 -1.459616 0.106989 0 255 0 81 14
0.810059 -1.438947 0.115023 0 255 0 81 14
0.990265 -1.403643 0.103907 0 255 0 81 14
0.816806 -1.253290 0.107906 0 255 0 81 14
0.918373 -1.304530 0.106912 0 255 0 81 14
0.813829 -1.353872 0.114773 0 255 0 81 14
0.935318 -1.330623 0.106933 0 255 0 81 14
0.843316 -1.446016 0.106914 0 255 0 81 14
0.862518 -1.317194 0.115201 0 255 0 81 14
0.881686 -1.419412 0.114963 0 255 0 81 14
0.951507 -1.321795 0.114668 0 255 0 81 14
0.827060 -1.330104 0.114691 0 255 0 81 14
0.892053 -1.437973 0.115128 0 255 0 81 14
0.883245 -1.517889 0.114868 0 255 0 81 14
0.972532 -1.285372 0.107906 0 255 0 81 14
0.970087 -1.407533 0.114836 0 255 0 81 14
0.879776 -1.447632 0.114836 0 255 0 81 14
0.970987 -1.316719 0.107906 0 255 0 81 14
0.877895 -1.408383 0.114833 0 255 0 81 14
0.995559 -1.523359 0.111907 0 255 0 81 14
0.845120 -1.524097 0.103145 0 255 0 81 14
0.854543 -1.393196 0.106923 0 255 0 81 14
0.994617 -1.371853 0.113907 0 255 0 81 14
0.987848 -1.454246 0.103907 0 255 0 81 14
0.860458 -1.423079 0.114804 0 255 0 81 14
0.904603 -1.340452 0.106941 0 255 0 81 14
0.934363 -1.344733 0.114778 0 255 0 81 14
0.831796 -1.490595 0.106937 0 255 0 81 14
0.810408 -1.312251 0.108981 0 255 0 81 14
0.946734 -1.392344 0.106969 0 255 0 81 14
0.993004 -1.328572 0.103050 0 255 0 81 14
0.882110 -1.253884 0.106919 0 255 0 81 14
0.831123 -1.253269 0.109063 0 255 0 81 14
0.981012 -1.510044 0.104925 0 255 0 81 14
0.922276 -1.468934 0.106977 0 255 0 81 14
0.992249 -1.293652 0.114498 0 255 0 81 14
0.822657 -1.370060 0.114544 0 255 0 81 14
0.911351 -1.366422 0.114459 0 255 0 81 14
0.814877 -1.525847 0.105906 0 255 0 81 14
0.857407 -1.350867 0.106946 0 255 0 81 14
0.861592 -1.263834 0.106907 0 255 0 81 14
0.974851 -1.500556 0.106958 0 255 0 81 14
0.993809 -1.392128 0.114828 0 255 0 81 14
0.917850 -1.528233 0.103907 0 255 0 81 14
0.949720 -1.339818 0.115139 0 255 0 81 14
0.920404 -1.266113 0.106909 0 255 0 81 14
0.835188 -1.517897 0.105906 0 255 0 81 14
0.908544 -1.273815 0.106920 0 255 0 81 14
0.867557 -1.322354 0.106958 0 255 0 81 14
0.948624 -1.479651 0.105906 0 255 0 81 14
0.969820 -1.389074 0.113907 0 255 0 81 14
0.923504 -1.366961 0.106938 0 255 0 81 14
0.847455 -1.330348 0.115008 0 255 0 81 14
0.835395 -1.387082 0.106946 0 255 0 81 14
0.946290 -1.461770 0.114979 0 255 0 81 14
0.879757 -1.351528 0.106928 0 255 0 81 14
0.939079 -1.409120 0.115065 0 255 0 81 14
0.964899 -1.480038 0.114258 0 255 0 81 14
0.892374 -1.378746 0.114390 0 255 0 81 14
0.983535 -1.430838 0.114563 0 255 0 81 14
0.858107 -1.520724 0.114498 0 255 0 81 14
0.892941 -1.299124 0.114828 0 255 0 81 14
0.920981 -1.446167 0.114660 0 255 0 81 14
0.984632 -1.502635 0.114619 0 255 0 81 14
0.847322 -1.504118 0.115098 0 255 0 81 14
0.866300 -1.491795 0.115196 0 255 0 81 14
0.817599 -1.268796 0.114473 0 255 0 81 14
0.976277 -1.349553 0.106928 0 255 0 81 14
0.989282 -1.442283 0.114444 0 255 0 81 14
0.815635 -1.431953 0.106959 0 255 0 81 14
0.854023 -1.501454 0.106969 0 255 0 81 14
0.942207 -1.442500 0.106956 0 255 0 81 14
0.878141 -1.387989 0.106920 0 255 0 81 14
0.952281 -1.452820 0.114920 0 255 0 81 14
0.811438 -1.259308 0.115111 0 255 0 81 14
0.817855 -1.508079 0.114926 0 255 0 81 14
0.828762 -1.514487 0.114886 0 255 0 81 14
0.910198 -1.429562 0.106964 0 255 0 81 14
0.933409 -1.358843 0.106945 0 255 0 81 14
0.936641 -1.285921 0.106932 0 255 0 81 14
0.923041 -1.340281 0.106948 0 255 0 81 14
0.813319 -1.298557 0.114935 0 255 0 81 14
0.932814 -1.505933 0.104915 0 255 0 81 14
0.838449 -1.459295 0.106933 0 255 0 81 14
0.929932 -1.452158 0.106936 0 255 0 81 14
0.982345 -1.301770 0.114763 0 255 0 81 14
0.883698 -1.284891 0.106948 0 255 0 81 14
0.885276 -1.479472 0.115067 0 255 0 81 14
0.987792 -1.521708 0.103907 0 255 0 81 14
0.987313 -1.263977 0.103907 0 255 0 81 14
0.918392 -1.400634 0.106956 0 255 0 81 14
0.894557 -1.262663 0.106909 0 255 0 81 14
0.878407 -1.463697 0.114709 0 255 0 81 14
0.948767 -1.353928 0.106951 0 255 0 81 14
0.965712 -1.380022 0.106933 0 255 0 81 14
0.964179 -1.521907 0.103907 0 255 0 81 14
0.877291 -1.295797 0.106920 0 255 0 81 14
0.907343 -1.308319 0.106910 0 255 0 81 14
0.993761 -1.363492 0.105168 0 255 0 81 14
0.840074 -1.259261 0.115473 0 255 0 81 14
0.895514 -1.527503 0.105906 0 255 0 81 14
0.884327 -1.315695 0.107906 0 255 0 81 14
0.897316 -1.326635 0.106946 0 255 0 81 14
0.961185 -1.430176 0.114537 0 255 0 81 14
0.872461 -1.501284 0.114884 0 255 0 81 14
0.949834 -1.493194 0.106976 0 255 0 81 14
0.827297 -1.473282 0.115288 0 255 0 81 14
0.923580 -1.328128 0.106914 0 255 0 81 14
0.987693 -1.411274 0.114280 0 255 0 81 14
0.993769 -1.502532 0.103907 0 255 0 81 14
0.974803 -1.471920 0.104907 0 255 0 81 14
0.934213 -1.422399 0.106966 0 255 0 81 14
0.978375 -1.435874 0.106948 0 255 0 81 14
0.912673 -1.321720 0.106948 0 255 0 81 14
0.883954 -1.524173 0.103124 0 255 0 81 14
0.994955 -1.316718 0.113907 0 255 0 81 14
0.836662 -1.477317 0.106966 0 255 0 81 14
0.807119 -1.520110 0.114362 0 255 0 81 14
0.917664 -1.298244 0.115061 0 255 0 81 14
0.806395 -1.475421 0.113907 0 255 0 81 14
0.831237 -1.406645 0.106938 0 255 0 81 14
0.820558 -1.283738 0.115077 0 255 0 81 14
0.995443 -1.451771 0.114542 0 255 0 81 14
0.995022 -1.380118 0.107906 0 255 0 81 14
0.938077 -1.394595 0.114951 0 255 0 81 14
0.837597 -1.367103 0.114485 0 255 0 81 14
0.870467 -1.308660 0.115110 0 255 0 81 14
0.829452 -1.424667 0.114354 0 255 0 81 14
0.987441 -1.417355 0.103907 0 255 0 81 14
0.906503 -1.475805 0.114447 0 255 0 81 14
0.894670 -1.416038 0.114886 0 255 0 81 14
0.941111 -1.370703 0.115103 0 255 0 81 14
0.851311 -1.466118 0.115090 0 255 0 81 14
0.866281 -1.395690 0.115211 0 255 0 81 14
0.874626 -1.289097 0.115353 0 255 0 81 14
0.815021 -1.482940 0.106933 0 255 0 81 14
0.972610 -1.328326 0.106938 0 255 0 81 14
0.863862 -1.368596 0.115003 0 255 0 81 14
0.879955 -1.302498 0.114949 0 255 0 81 14
0.902816 -1.358474 0.114622 0 255 0 81 14
0.912664 -1.485292 0.114869 0 255 0 81 14
0.866110 -1.377253 0.106943 0 255 0 81 14
0.970266 -1.262398 0.115178 0 255 0 81 14
0.935147 -1.312185 0.106946 0 255 0 81 14
0.839090 -1.340838 0.106914 0 255 0 81 14
0.876809 -1.514476 0.105906 0 255 0 81 14
0.921738 -1.481088 0.106943 0 255 0 81 14
0.994034 -1.275629 0.114727 0 255 0 81 14
0.894989 -1.275023 0.107906 0 255 0 81 14
0.841709 -1.318903 0.106907 0 255 0 81 14
0.852812 -1.276282 0.106912 0 255 0 81 14
0.985227 -1.355544 0.114701 0 255 0 81 14
0.995491 -1.404754 0.113907 0 255 0 81 14
0.962195 -1.281130 0.106923 0 255 0 81 14
0.820237 -1.342966 0.114982 0 255 0 81 14
0.902089 -1.256084 0.114312 0 255 0 81 14
0.995457 -1.263663 0.113907 0 255 0 81 14
0.893102 -1.481135 0.106969 0 255 0 81 14
0.921719 -1.384983 0.106948 0 255 0 81 14
0.869976 -1.349449 0.115095 0 255 0 81 14
0.872470 -1.337711 0.114815 0 255 0 81 14
0.845490 -1.493505 0.114871 0 255 0 81 14
0.804543 -1.522613 0.103907 0 255 0 81 14
0.860733 -1.335216 0.106930 0 255 0 81 14
0.906190 -1.371459 0.106919 0 255 0 81 14
0.960939 -1.301310 0.107906 0 255 0 81 14
0.976494 -1.396626 0.114302 0 255 0 81 14
0.993584 -1.489377 0.103907 0 255 0 81 14
0.965485 -1.496520 0.114789 0 255 0 81 14
0.852757 -1.411219 0.114776 0 255 0 81 14
0.868577 -1.432984 0.115036 0 255 0 81 14
0.834545 -1.294889 0.106946 0 255 0 81 14
0.941847 -1.309520 0.114707 0 255 0 81 14
0.854153 -1.313371 0.107906 0 255 0 81 14
0.850998 -1.361773 0.114818 0 255 0 81 14
0.823460 -1.433617 0.114421 0 255 0 81 14
0.984878 -1.482240 0.115030 0 255 0 81 14
0.924356 -1.459152 0.114321 0 255 0 81 14
0.909027 -1.396598 0.115057 0 255 0 81 14
0.898385 -1.465899 0.115191 0 255 0 81 14
0.954210 -1.520705 0.114814 0 255 0 81 14
0.916899 -1.426897 0.114858 0 255 0 81 14
0.902844 -1.291006 0.114704 0 255 0 81 14
0.823515 -1.298680 0.114789 0 255 0 81 14
0.959569 -1.466637 0.114462 0 255 0 81 14
0.911880 -1.517841 0.114711 0 255 0 81 14
0.951828 -1.262568 0.114969 0 255 0 81 14
0.894822 -1.338373 0.114830 0 255 0 81 14
0.856008 -1.434401 0.114614 0 255 0 81 14
0.975350 -1.296194 0.106948 0 255 0 81 14
0.955712 -1.330869 0.114802 0 255 0 81 14
0.850752 -1.382167 0.115083 0 255 0 81 14
0.915915 -1.508476 0.114586 0 255 0 81 14
0.841483 -1.435403 0.106928 0 255 0 81 14
0.918269 -1.410830 0.106959 0 255 0 81 14
0.881440 -1.439806 0.106958 0 255 0 81 14
0.946659 -1.431178 0.114822 0 255 0 81 14
0.910245 -1.458198 0.106976 0 255 0 81 14
0.933673 -1.434552 0.114825 0 255 0 81 14
0.824264 -1.497173 0.107020 0 255 0 81 14
0.881544 -1.333506 0.114820 0 255 0 81 14
0.898394 -1.302328 0.106938 0 255 0 81 14
0.951705 -1.272766 0.114755 0 255 0 81 14
0.972309 -1.483658 0.107013 0 255 0 81 14
0.825199 -1.386959 0.106918 0 255 0 81 14
0.821673 -1.451640 0.106956 0 255 0 81 14
0.879039 -1.508816 0.114799 0 255 0 81 14
0.936896 -1.525203 0.114393 0 255 0 81 14
0.863369 -1.409385 0.114879 0 255 0 81 14
0.856935 -1.487760 0.106974 0 255 0 81 14
0.892666 -1.386987 0.106951 0 255 0 81 14
0.955268 -1.400293 0.106920 0 255 0 81 14
0.897601 -1.498449 0.115191 0 255 0 81 14
0.873350 -1.362433 0.114920 0 255 0 81 14
0.871044 -1.488714 0.106946 0 255 0 81 14
0.865383 -1.274864 0.106923 0 255 0 81 14
0.876233 -1.416209 0.106933 0 255 0 81 14
0.856622 -1.383415 0.106958 0 255 0 81 14
0.980237 -1.379020 0.106958 0 255 0 81 14
0.948738 -1.421397 0.106946 0 255 0 81 14
0.974170 -1.426803 0.106950 0 255 0 81 14
0.837862 -1.442812 0.114630 0 255 0 81 14
0.953189 -1.410075 0.114668 0 255 0 81 14
0.812478 -1.466042 0.114714 0 255 0 81 14
0.962734 -1.268976 0.114848 0 255 0 81 14
0.851140 -1.447680 0.114851 0 255 0 81 14
0.969984 -1.513834 0.106994 0 255 0 81 14
0.839430 -1.377716 0.114565 0 255 0 81 14
0.955371 -1.293992 0.114837 0 255 0 81 14
0.852804 -1.439854 0.106989 0 255 0 81 14
0.994963 -1.304451 0.103907 0 255 0 81 14
0.859674 -1.455627 0.114562 0 255 0 81 14
0.927530 -1.521168 0.104910 0 255 0 81 14
0.962045 -1.358795 0.114573 0 255 0 81 14
0.949843 -1.329621 0.106968 0 255 0 81 14
0.813168 -1.376223 0.114792 0 255 0 81 14
0.984055 -1.322580 0.106938 0 255 0 81 14
0.866336 -1.260754 0.114944 0 255 0 81 14
0.821871 -1.402609 0.106966 0 255 0 81 14
0.968206 -1.368284 0.114454 0 255 0 81 14
0.829726 -1.336803 0.106923 0 255 0 81 14
0.973197 -1.344808 0.114910 0 255 0 81 14
0.905454 -1.432642 0.114938 0 255 0 81 14
0.843684 -1.415424 0.106956 0 255 0 81 14
0.830595 -1.525100 0.114699 0 255 0 81 14
0.965277 -1.285874 0.114866 0 255 0 81 14
0.947272 -1.380192 0.106956 0 255 0 81 14
0.823998 -1.421463 0.106940 0 255 0 81 14
0.988655 -1.286754 0.103907 0 255 0 81 14
0.931765 -1.462772 0.106938 0 255 0 81 14
0.944722 -1.526866 0.104979 0 255 0 81 14
0.839289 -1.291809 0.114859 0 255 0 81 14
0.814689 -1.282491 0.106951 0 255 0 81 14
0.962554 -1.414110 0.114838 0 255 0 81 14
0.889955 -1.351651 0.114673 0 255 0 81 14
0.901248 -1.423571 0.106964 0 255 0 81 14
0.988042 -1.284579 0.114787 0 255 0 81 14
0.958614 -1.480747 0.106982 0 255 0 81 14
0.829753 -1.269336 0.115119 0 255 0 81 14
0.987741 -1.439911 0.104908 0 255 0 81 14
0.843788 -1.309123 0.115427 0 255 0 81 14
0.866375 -1.452961 0.106948 0 255 0 81 14
0.946837 -1.286044 0.114789 0 255 0 81 14
0.832547 -1.280153 0.107906 0 255 0 81 14
0.810182 -1.428750 0.115036 0 255 0 81 14
0.940960 -1.448369 0.114701 0 255 0 81 14
0.913449 -1.452744 0.114377 0 255 0 81 14
0.968641 -1.462431 0.106966 0 255 0 81 14
0.995396 -1.423136 0.107596 0 255 0 81 14
0.893470 -1.450542 0.114609 0 255 0 81 14
0.879354 -1.401525 0.107906 0 255 0 81 14
0.934350 -1.296700 0.107906 0 255 0 81 14
0.810749 -1.349128 0.106932 0 255 0 81 14
0.878339 -1.338959 0.106956 0 255 0 81 14
0.929524 -1.290543 0.114825 0 255 0 81 14
0.987563 -1.474632 0.103907 0 255 0 81 14
0.951478 -1.389264 0.114532 0 255 0 81 14
0.859703 -1.388159 0.114519 0 255 0 81 14
0.840679 -1.371847 0.106925 0 255 0 81 14
0.975690 -1.333071 0.114487 0 255 0 81 14
0.905331 -1.442841 0.114522 0 255 0 81 14
0.996024 -1.347616 0.109907 0 255 0 81 14
0.836294 -1.507909 0.107010 0 255 0 81 14
0.965938 -1.263523 0.106923 0 255 0 81 14
0.959775 -1.254034 0.106935 0 255 0 81 14
0.840093 -1.355365 0.114761 0 255 0 81 14
0.895597 -1.469397 0.106969 0 255 0 81 14
0.908346 -1.322845 0.115160 0 255 0 81 14
0.822062 -1.517152 0.106991 0 255 0 81 14
0.978677 -1.280544 0.115110 0 255 0 81 14
0.835783 -1.452594 0.115115 0 255 0 81 14
0.922112 -1.498562 0.105906 0 255 0 81 14
0.904480 -1.350649 0.106946 0 255 0 81 14
0.974397 -1.310304 0.115077 0 255 0 81 14
0.885324 -1.508107 0.106987 0 255 0 81 14
0.908932 -1.339327 0.115074 0 255 0 81 14
0.993165 -1.510582 0.114578 0 255 0 81 14
0.868843 -1.508693 0.106959 0 255 0 81 14
0.958226 -1.497022 0.105906 0 255 0 81 14
0.816891 -1.262512 0.106938 0 255 0 81 14
0.887487 -1.295919 0.106930 0 255 0 81 14
0.899055 -1.491607 0.105906 0 255 0 81 14
0.900170 -1.447878 0.107002 0 255 0 81 14
0.959077 -1.507426 0.114289 0 255 0 81 14
0.868912 -1.291972 0.107906 0 255 0 81 14
0.930308 -1.257994 0.114892 0 255 0 81 14
0.898050 -1.510812 0.105906 0 255 0 81 14
0.842616 -1.276159 0.106917 0 255 0 81 14
0.806237 -1.456929 0.113907 0 255 0 81 14
0.885427 -1.401806 0.115031 0 255 0 81 14
0.883206 -1.325680 0.106937 0 255 0 81 14
0.813580 -1.422384 0.107906 0 255 0 81 14
0.875675 -1.375196 0.107906 0 255 0 81 14
0.902032 -1.391022 0.106951 0 255 0 81 14
0.879634 -1.361725 0.106907 0 255 0 81 14
0.960552 -1.385059 0.114990 0 255 0 81 14
0.947499 -1.263693 0.106928 0 255 0 81 14
0.928569 -1.304652 0.106920 0 255 0 81 14
0.826058 -1.315578 0.114810 0 255 0 81 14
0.852227 -1.259799 0.106909 0 255 0 81 14
0.815983 -1.305258 0.106907 0 255 0 81 14
0.900596 -1.282349 0.106922 0 255 0 81 14
0.826758 -1.485435 0.115023 0 255 0 81 14
0.812242 -1.322864 0.106920 0 255 0 81 14
0.818593 -1.446895 0.114912 0 255 0 81 14
0.811231 -1.471910 0.106997 0 255 0 81 14
0.871800 -1.523634 0.103104 0 255 0 81 14
0.857231 -1.284359 0.107906 0 255 0 81 14
0.846594 -1.401730 0.114879 0 255 0 81 14
0.926444 -1.285798 0.106922 0 255 0 81 14
0.932284 -1.354514 0.114863 0 255 0 81 14
0.841605 -1.425206 0.106938 0 255 0 81 14
0.920716 -1.370458 0.114825 0 255 0 81 14
0.892885 -1.434061 0.107000 0 255 0 81 14
0.838484 -1.310040 0.107906 0 255 0 81 14
0.912372 -1.477052 0.106971 0 255 0 81 14
0.844837 -1.352283 0.106959 0 255 0 81 14
0.933239 -1.340404 0.106950 0 255 0 81 14
0.923571 -1.491701 0.113907 0 255 0 81 14
0.893741 -1.314598 0.107906 0 255 0 81 14
0.846776 -1.530584 0.109907 0 255 0 81 14
0.857889 -1.473650 0.106956 0 255 0 81 14
0.810691 -1.484065 0.114743 0 255 0 81 14
0.924166 -1.344610 0.115306 0 255 0 81 14
0.813659 -1.335433 0.115095 0 255 0 81 14
0.901031 -1.376497 0.115358 0 255 0 81 14
0.923826 -1.307733 0.114603 0 255 0 81 14
0.956298 -1.347351 0.106935 0 255 0 81 14
0.922654 -1.274769 0.115025 0 255 0 81 14
0.918384 -1.352575 0.107906 0 255 0 81 14
0.892203 -1.360308 0.114976 0 255 0 81 14
0.959039 -1.315217 0.114843 0 255 0 81 14
0.904574 -1.407920 0.115008 0 255 0 81 14
0.915065 -1.416284 0.115131 0 255 0 81 14
0.820823 -1.359447 0.115008 0 255 0 81 14
0.952643 -1.504014 0.105906 0 255 0 81 14
0.827230 -1.348542 0.114518 0 255 0 81 14
0.837616 -1.463207 0.114977 0 255 0 81 14
0.913580 -1.278975 0.114752 0 255 0 81 14
0.946754 -1.488450 0.114673 0 255 0 81 14
0.818790 -1.397865 0.115180 0 255 0 81 14
0.863671 -1.254054 0.108976 0 255 0 81 14
0.894273 -1.514099 0.114848 0 255 0 81 14
0.821702 -1.384171 0.115160 0 255 0 81 14
0.827201 -1.416009 0.114791 0 255 0 81 14
0.867159 -1.420413 0.106991 0 255 0 81 14
0.972799 -1.442869 0.106956 0 255 0 81 14
0.970796 -1.413816 0.106935 0 255 0 81 14
0.868879 -1.277652 0.114843 0 255 0 81 14
0.838060 -1.393782 0.115057 0 255 0 81 14
0.863804 -1.503533 0.114966 0 255 0 81 14
0.891882 -1.419535 0.106936 0 255 0 81 14
0.980066 -1.360580 0.106936 0 255 0 81 14
0.907097 -1.328714 0.106917 0 255 0 81 14
0.924847 -1.418363 0.106968 0 255 0 81 14
0.985151 -1.394377 0.106953 0 255 0 81 14
0.826692 -1.360695 0.106938 0 255 0 81 14
0.845376 -1.340131 0.115110 0 255 0 81 14
0.933872 -1.385522 0.114707 0 255 0 81 14
0.813016 -1.453889 0.106930 0 255 0 81 14
0.812942 -1.492722 0.106943 0 255 0 81 14
0.950060 -1.376695 0.114836 0 255 0 81 14
0.810133 -1.400114 0.106923 0 255 0 81 14
0.913422 -1.520213 0.104928 0 255 0 81 14
0.833147 -1.378425 0.106977 0 255 0 81 14
0.881118 -1.499035 0.114864 0 255 0 81 14
0.922768 -1.428144 0.106959 0 255 0 81 14
0.849317 -1.273494 0.115139 0 255 0 81 14
0.955193 -1.439126 0.106956 0 255 0 81 14
0.849477 -1.455505 0.106925 0 255 0 81 14
0.940403 -1.364419 0.106945 0 255 0 81 14
0.872566 -1.394982 0.106912 0 255 0 81 14
0.850460 -1.373926 0.106928 0 255 0 81 14
0.955760 -1.359504 0.106946 0 255 0 81 14
0.938200 -1.384397 0.106936 0 255 0 81 14
0.963216 -1.391758 0.106972 0 255 0 81 14
0.861537 -1.398772 0.106925 0 255 0 81 14
0.838381 -1.334555 0.115342 0 255 0 81 14
0.925754 -1.375618 0.106925 0 255 0 81 14
0.982165 -1.446904 0.106941 0 255 0 81 14
0.917589 -1.337078 0.114622 0 255 0 81 14
0.875712 -1.524466 0.114995 0 255 0 81 14
0.886534 -1.310030 0.114627 0 255 0 81 14
0.869578 -1.447509 0.114630 0 255 0 81 14
0.964436 -1.453359 0.106994 0 255 0 81 14
0.868379 -1.482014 0.114864 0 255 0 81 14
0.926784 -1.322675 0.114920 0 255 0 81 14
0.812439 -1.273834 0.106956 0 255 0 81 14
0.851830 -1.357860 0.106938 0 255 0 81 14
0.859723 -1.484262 0.114545 0 255 0 81 14
0.836984 -1.418090 0.114817 0 255 0 81 14
0.889313 -1.470106 0.114501 0 255 0 81 14
0.993398 -1.278628 0.103907 0 255 0 81 14
0.821319 -1.530265 0.109907 0 255 0 81 14
0.823431 -1.501086 0.114815 0 255 0 81 14
0.958767 -1.528121 0.113907 0 255 0 81 14
0.860186 -1.510942 0.107000 0 255 0 81 14
0.887063 -1.461449 0.106940 0 255 0 81 14
0.811484 -1.287944 0.115008 0 255 0 81 14
0.901986 -1.362387 0.106920 0 255 0 81 14
0.809936 -1.449145 0.114805 0 255 0 81 14
0.967988 -1.321209 0.114670 0 255 0 81 14
0.864095 -1.300161 0.107906 0 255 0 81 14
0.979745 -1.419809 0.106969 0 255 0 81 14
0.895773 -1.372372 0.107906 0 255 0 81 14
0.985840 -1.304558 0.106933 0 255 0 81 14
0.978294 -1.527869 0.107906 0 255 0 81 14
0.826125 -1.440318 0.106938 0 255 0 81 14
0.890936 -1.270072 0.114626 0 255 0 81 14
0.820395 -1.313364 0.107906 0 255 0 81 14
0.973587 -1.492108 0.105906 0 255 0 81 14
0.875080 -1.479349 0.106936 0 255 0 81 14
0.805324 -1.278456 0.109004 0 255 0 81 14
0.901832 -1.521839 0.103907 0 255 0 81 14
0.875666 -1.495831 0.104907 0 255 0 81 14
0.929060 -1.263863 0.106933 0 255 0 81 14
0.982070 -1.389633 0.114575 0 255 0 81 14
0.809255 -1.375391 0.106972 0 255 0 81 14
0.872168 -1.315155 0.107906 0 255 0 81 14
0.945087 -1.510587 0.105906 0 255 0 81 14
0.939937 -1.323426 0.107906 0 255 0 81 14
0.961997 -1.330160 0.106930 0 255 0 81 14
0.805730 -1.440072 0.106977 0 255 0 81 14
0.916039 -1.252917 0.107906 0 255 0 81 14
0.833271 -1.320126 0.107906 0 255 0 81 14
0.981069 -1.375107 0.114547 0 255 0 81 14
0.940260 -1.278512 0.114850 0 255 0 81 14
0.970084 -1.359453 0.107906 0 255 0 81 14
0.894378 -1.407797 0.106935 0 255 0 81 14
0.899498 -1.527997 0.113907 0 255 0 81 14
0.811277 -1.500546 0.115239 0 255 0 81 14
0.916454 -1.496322 0.114689 0 255 0 81 14
0.981853 -1.342559 0.106940 0 255 0 81 14
0.987135 -1.327323 0.114985 0 255 0 81 14
0.848331 -1.256927 0.113907 0 255 0 81 14
0.987647 -1.272227 0.105906 0 255 0 81 14
0.976428 -1.271887 0.114675 0 255 0 81 14
0.969521 -1.487154 0.114547 0 255 0 81 14
0.822676 -1.466165 0.115012 0 255 0 81 14
0.813706 -1.364069 0.114712 0 255 0 81 14
0.900512 -1.484754 0.115074 0 255 0 81 14
0.968300 -1.425555 0.114820 0 255 0 81 14
0.856821 -1.334384 0.115085 0 255 0 81 14
0.978744 -1.405282 0.114912 0 255 0 81 14
0.960306 -1.405453 0.114519 0 255 0 81 14
0.887432 -1.430857 0.114979 0 255 0 81 14
0.821012 -1.473989 0.106938 0 255 0 81 14
0.909934 -1.353853 0.114511 0 255 0 81 14
0.840877 -1.322817 0.114734 0 255 0 81 14
0.954390 -1.375570 0.106930 0 255 0 81 14
0.968186 -1.272180 0.106920 0 255 0 81 14
0.863153 -1.362311 0.106930 0 255 0 81 14
0.825880 -1.460711 0.107031 0 255 0 81 14
0.906711 -1.263202 0.114635 0 255 0 81 14
0.925697 -1.510555 0.114570 0 255 0 81 14
0.813697 -1.527642 0.114792 0 255 0 81 14
0.905501 -1.461278 0.115241 0 255 0 81 14
0.932105 -1.499649 0.114810 0 255 0 81 14
0.935488 -1.349061 0.106914 0 255 0 81 14
0.955079 -1.285751 0.106940 0 255 0 81 14
0.925385 -1.406209 0.106948 0 255 0 81 14
0.871053 -1.325141 0.114745 0 255 0 81 14
0.908487 -1.408751 0.106936 0 255 0 81 14
0.905509 -1.297706 0.106923 0 255 0 81 14
0.900218 -1.476512 0.106964 0 255 0 81 14
0.981805 -1.313923 0.106946 0 255 0 81 14
0.849401 -1.494338 0.106990 0 255 0 81 14
0.917901 -1.441422 0.106956 0 255 0 81 14
0.856186 -1.289267 0.115144 0 255 0 81 14
0.909800 -1.282261 0.107906 0 255 0 81 14
0.995356 -1.471423 0.113907 0 255 0 81 14
0.988258 -1.384814 0.105906 0 255 0 81 14
0.954998 -1.276511 0.107906 0 255 0 81 14
0.906096 -1.314188 0.114719 0 255 0 81 14
0.994287 -1.433123 0.105906 0 255 0 81 14
0.911596 -1.346028 0.106909 0 255 0 81 14
0.944145 -1.346812 0.114884 0 255 0 81 14
0.884359 -1.262540 0.106914 0 255 0 81 14
0.887677 -1.410463 0.114913 0 255 0 81 14
0.906135 -1.506397 0.106981 0 255 0 81 14
0.811117 -1.318536 0.115438 0 255 0 81 14
0.858087 -1.424620 0.106915 0 255 0 81 14
0.809352 -1.269119 0.115906 0 255 0 81 14
0.892572 -1.329716 0.114606 0 255 0 81 14
0.825888 -1.297140 0.106922 0 255 0 81 14
0.994534 -1.459757 0.105906 0 255 0 81 14
0.813460 -1.384464 0.106961 0 255 0 81 14
0.968431 -1.304946 0.107906 0 255 0 81 14
0.890124 -1.370089 0.114770 0 255 0 81 14
0.825459 -1.284780 0.107906 0 255 0 81 14
0.805408 -1.499299 0.106943 0 255 0 81 14
0.951336 -1.303358 0.106928 0 255 0 81 14
0.939174 -1.466392 0.114994 0 255 0 81 14
0.844761 -1.391117 0.106928 0 255 0 81 14
0.840366 -1.267502 0.114783 0 255 0 81 14
0.965806 -1.437293 0.114998 0 255 0 81 14
0.974217 -1.455438 0.114963 0 255 0 81 14
0.926359 -1.488204 0.106954 0 255 0 81 14
0.926700 -1.525080 0.115052 0 255 0 81 14
0.942462 -1.258533 0.115169 0 255 0 81 14
0.869901 -1.388282 0.114354 0 255 0 81 14
0.811363 -1.298141 0.106915 0 255 0 81 14
0.875154 -1.440516 0.114591 0 255 0 81 14
0.931150 -1.513759 0.106977 0 255 0 81 14
0.805910 -1.294938 0.114424 0 255 0 81 14
0.939599 -1.300863 0.115412 0 255 0 81 14
0.847616 -1.512360 0.114033 0 255 0 81 14
0.845499 -1.329933 0.106977 0 255 0 81 14
0.810740 -1.512700 0.114801 0 255 0 81 14
0.853352 -1.264128 0.114802 0 255 0 81 14
0.871271 -1.372216 0.114565 0 255 0 81 14
0.863181 -1.294843 0.115010 0 255 0 81 14
0.900105 -1.323138 0.114779 0 255 0 81 14
0.944428 -1.518626 0.114406 0 255 0 81 14
0.868587 -1.269411 0.115209 0 255 0 81 14
0.978508 -1.262105 0.114823 0 255 0 81 14
0.901323 -1.384737 0.114639 0 255 0 81 14
0.804152 -1.423378 0.107906 0 255 0 81 14
0.968519 -1.472629 0.114599 0 255 0 81 14
0.986663 -1.464218 0.114758 0 255 0 81 14
0.845613 -1.483309 0.114884 0 255 0 81 14
0.985794 -1.275922 0.115016 0 255 0 81 14
0.930839 -1.409413 0.114779 0 255 0 81 14
0.839081 -1.504412 0.114249 0 255 0 81 14
0.847057 -1.428410 0.114558 0 255 0 81 14
0.841538 -1.300466 0.114730 0 255 0 81 14
0.809699 -1.305967 0.114712 0 255 0 81 14
0.929836 -1.394887 0.115198 0 255 0 81 14
0.839252 -1.522850 0.114601 0 255 0 81 14
0.890644 -1.261831 0.114854 0 255 0 81 14
0.962159 -1.512171 0.104931 0 255 0 81 14
0.939939 -1.337739 0.114740 0 255 0 81 14
0.936556 -1.488327 0.114779 0 255 0 81 14
0.918637 -1.380239 0.114419 0 255 0 81 14
0.881761 -1.380579 0.114732 0 255 0 81 14
0.842908 -1.284400 0.115077 0 255 0 81 14
0.930716 -1.419611 0.114738 0 255 0 81 14
0.951630 -1.311599 0.114642 0 255 0 81 14
0.883396 -1.440223 0.115018 0 255 0 81 14
0.924942 -1.475634 0.114686 0 255 0 81 14
0.927975 -1.451743 0.115041 0 255 0 81 14
0.885153 -1.489669 0.114714 0 255 0 81 14
0.830066 -1.373681 0.115106 0 255 0 81 14
0.941082 -1.438172 0.114691 0 255 0 81 14
0.967734 -1.505177 0.114644 0 255 0 81 14
0.950912 -1.468887 0.107041 0 255 0 81 14
0.855205 -1.370845 0.114910 0 255 0 81 14
0.870487 -1.404764 0.114997 0 255 0 81 14
0.840697 -1.467951 0.106945 0 255 0 81 14
0.907609 -1.384028 0.106925 0 255 0 81 14
0.892648 -1.290883 0.114913 0 255 0 81 14
0.838912 -1.485974 0.107023 0 255 0 81 14
0.939788 -1.415405 0.106946 0 255 0 81 14
0.932426 -1.440421 0.106928 0 255 0 81 14
0.831832 -1.259553 0.115409 0 255 0 81 14
0.909461 -1.490746 0.106994 0 255 0 81 14
0.850677 -1.421000 0.106990 0 255 0 81 14
0.863464 -1.466657 0.107020 0 255 0 81 14
0.874446 -1.434231 0.106930 0 255 0 81 14
0.856527 -1.326144 0.114992 0 255 0 81 14
0.809793 -1.363238 0.106940 0 255 0 81 14
0.850412 -1.345291 0.106966 0 255 0 81 14
0.922011 -1.393224 0.106976 0 255 0 81 14
0.818961 -1.416303 0.114982 0 255 0 81 14
0.861025 -1.343457 0.106912 0 255 0 81 14
0.979576 -1.401371 0.106966 0 255 0 81 14
0.830945 -1.398404 0.106912 0 255 0 81 14
0.926981 -1.273644 0.106915 0 255 0 81 14
0.804871 -1.511453 0.106933 0 255 0 81 14
0.822013 -1.488516 0.106973 0 255 0 81 14
0.942727 -1.334243 0.106964 0 255 0 81 14
0.864957 -1.440392 0.106977 0 255 0 81 14
0.916294 -1.314311 0.106925 0 255 0 81 14
0.908781 -1.416993 0.106984 0 255 0 81 14
0.925310 -1.445043 0.106948 0 255 0 81 14
0.922078 -1.517964 0.114619 0 255 0 81 14
0.824292 -1.429704 0.106995 0 255 0 81 14
0.857916 -1.406182 0.106989 0 255 0 81 14
0.844326 -1.296968 0.106918 0 255 0 81 14
0.875579 -1.274987 0.106919 0 255 0 81 14
0.975596 -1.275799 0.106920 0 255 0 81 14
0.932134 -1.432179 0.106936 0 255 0 81 14
0.910491 -1.437803 0.107023 0 255 0 81 14
0.934457 -1.402004 0.114702 0 255 0 81 14
0.886751 -1.357104 0.106935 0 255 0 81 14
0.890683 -1.454040 0.106946 0 255 0 81 14
0.897610 -1.334876 0.106953 0 255 0 81 14
0.955854 -1.416775 0.106923 0 255 0 81 14
0.941423 -1.475048 0.106948 0 255 0 81 14
0.946714 -1.296241 0.114956 0 255 0 81 14
0.804586 -1.339639 0.106923 0 255 0 81 14
0.896457 -1.398015 0.106943 0 255 0 81 14
0.937294 -1.427143 0.114472 0 255 0 81 14
0.868085 -1.473773 0.107005 0 255 0 81 14
0.943880 -1.271101 0.106948 0 255 0 81 14
0.889482 -1.488544 0.106999 0 255 0 81 14
0.933994 -1.375325 0.114972 0 255 0 81 14
0.833241 -1.435696 0.114663 0 255 0 81 14
0.923060 -1.436386 0.114935 0 255 0 81 14
0.901966 -1.266283 0.106914 0 255 0 81 14
0.898177 -1.255254 0.106946 0 255 0 81 14
0.881250 -1.325264 0.114897 0 255 0 81 14
0.827674 -1.279117 0.114426 0 255 0 81 14
0.806326 -1.350688 0.113907 0 255 0 81 14
0.882026 -1.456289 0.114917 0 255 0 81 14
0.913043 -1.291129 0.114859 0 255 0 81 14
0.865099 -1.526299 0.106956 0 255 0 81 14
0.908260 -1.525250 0.114961 0 255 0 81 14
0.839478 -1.406352 0.106940 0 255 0 81 14
0.874568 -1.424034 0.114882 0 255 0 81 14
0.971219 -1.527261 0.103907 0 255 0 81 14
0.814367 -1.341719 0.106919 0 255 0 81 14
0.835207 -1.272539 0.106912 0 255 0 81 14
0.854816 -1.305333 0.106914 0 255 0 81 14
0.834732 -1.361349 0.107906 0 255 0 81 14
0.912164 -1.266406 0.106959 0 255 0 81 14
0.881742 -1.284475 0.114818 0 255 0 81 14
0.804852 -1.415349 0.106936 0 255 0 81 14
0.924572 -1.506226 0.106969 0 255 0 81 14
0.963367 -1.314094 0.106958 0 255 0 81 14
0.935165 -1.523726 0.103907 0 255 0 81 14
0.978922 -1.260149 0.106961 0 255 0 81 14
0.947028 -1.400586 0.106945 0 255 0 81 14
0.830679 -1.322694 0.115147 0 255 0 81 14
0.913544 -1.510015 0.106990 0 255 0 81 14
0.948058 -1.361956 0.107906 0 255 0 81 14
0.944098 -1.318176 0.114786 0 255 0 81 14
0.935638 -1.271395 0.114753 0 255 0 81 14
0.890655 -1.521508 0.114902 0 255 0 81 14
0.853446 -1.527912 0.113907 0 255 0 81 14
0.935318 -1.330623 0.114990 0 255 0 81 14
0.856565 -1.518352 0.106972 0 255 0 81 14
0.834044 -1.499252 0.106948 0 255 0 81 14
0.976448 -1.367990 0.114727 0 255 0 81 14
0.869334 -1.467904 0.114483 0 255 0 81 14
0.827959 -1.450931 0.114519 0 255 0 81 14
0.864098 -1.511774 0.114468 0 255 0 81 14
0.889775 -1.496785 0.114789 0 255 0 81 14
0.874578 -1.260461 0.114720 0 255 0 81 14
0.839799 -1.347124 0.114679 0 255 0 81 14
0.958273 -1.443871 0.113960 0 255 0 81 14
0.818933 -1.483772 0.114684 0 255 0 81 14
0.916852 -1.398262 0.114709 0 255 0 81 14
0.922503 -1.352435 0.114828 0 255 0 81 14
0.835708 -1.491426 0.114838 0 255 0 81 14
0.914866 -1.465313 0.106969 0 255 0 81 14
0.982015 -1.524570 0.114776 0 255 0 81 14
0.830424 -1.506660 0.114424 0 255 0 81 14
0.897893 -1.506690 0.114792 0 255 0 81 14
0.829772 -1.365440 0.114774 0 255 0 81 14
0.922692 -1.466978 0.114866 0 255 0 81 14
0.851613 -1.310786 0.115069 0 255 0 81 14
0.976807 -1.500972 0.114882 0 255 0 81 14
0.963707 -1.350970 0.114832 0 255 0 81 14
0.932766 -1.477298 0.114447 0 255 0 81 14
0.855979 -1.501870 0.114738 0 255 0 81 14
0.906588 -1.273399 0.115124 0 255 0 81 14
0.930820 -1.313309 0.115016 0 255 0 81 14
0.839725 -1.385957 0.115232 0 255 0 81 14
0.910594 -1.331501 0.114905 0 255 0 81 14
0.855450 -1.350451 0.114882 0 255 0 81 14
0.921321 -1.483044 0.114819 0 255 0 81 14
0.925488 -1.299908 0.114907 0 255 0 81 14
0.949616 -1.446120 0.106932 0 255 0 81 14
0.967374 -1.372196 0.106943 0 255 0 81 14
0.889094 -1.423032 0.115090 0 255 0 81 14
0.828062 -1.344629 0.106917 0 255 0 81 14
0.968254 -1.396919 0.114971 0 255 0 81 14
0.938494 -1.392638 0.106963 0 255 0 81 14
0.833364 -1.425498 0.106938 0 255 0 81 14
0.948417 -1.480624 0.114671 0 255 0 81 14
0.931330 -1.368624 0.106932 0 255 0 81 14
0.918202 -1.286091 0.106925 0 255 0 81 14
0.952339 -1.317883 0.106955 0 255 0 81 14
0.866867 -1.412173 0.106927 0 255 0 81 14
0.925168 -1.359136 0.107004 0 255 0 81 14
0.964246 -1.338817 0.106917 0 255 0 81 14
0.960381 -1.366621 0.114866 0 255 0 81 14
0.984338 -1.494394 0.114576 0 255 0 81 14
0.956951 -1.488572 0.106997 0 255 0 81 14
0.929005 -1.398799 0.106922 0 255 0 81 14
0.909688 -1.374247 0.114495 0 255 0 81 14
0.963556 -1.428636 0.106963 0 255 0 81 14
0.902912 -1.415745 0.114959 0 255 0 81 14
0.833950 -1.441981 0.106915 0 255 0 81 14
0.825662 -1.413638 0.106959 0 255 0 81 14
0.811354 -1.461714 0.106966 0 255 0 81 14
0.858285 -1.375590 0.106977 0 255 0 81 14
0.930376 -1.382734 0.106969 0 255 0 81 14
0.881732 -1.448048 0.106945 0 255 0 81 14
0.878293 -1.310323 0.114931 0 255 0 81 14
0.913157 -1.444504 0.114643 0 255 0 81 14
0.847815 -1.463330 0.106930 0 255 0 81 14
0.982467 -1.291572 0.106918 0 255 0 81 14
0.994876 -1.398489 0.107906 0 255 0 81 14
0.982316 -1.369237 0.106969 0 255 0 81 14
0.922163 -1.315558 0.114681 0 255 0 81 14
0.806665 -1.329858 0.114298 0 255 0 81 14
0.870927 -1.383450 0.107906 0 255 0 81 14
0.836208 -1.287065 0.109038 0 255 0 81 14
0.941261 -1.293038 0.106930 0 255 0 81 14
0.930491 -1.324471 0.107906 0 255 0 81 14
0.972685 -1.289493 0.114617 0 255 0 81 14
0.954407 -1.260053 0.107906 0 255 0 81 14
0.875797 -1.322061 0.106932 0 255 0 81 14
0.915890 -1.364308 0.107906 0 255 0 81 14
0.855496 -1.268672 0.107906 0 255 0 81 14
0.815348 -1.370552 0.107906 0 255 0 81 14
0.877800 -1.351112 0.114488 0 255 0 81 14
0.994256 -1.334971 0.107906 0 255 0 81 14
0.805116 -1.491058 0.106938 0 255 0 81 14
0.987012 -1.337522 0.114408 0 255 0 81 14
0.922394 -1.530300 0.109907 0 255 0 81 14
0.878141 -1.387989 0.114684 0 255 0 81 14
0.914751 -1.297626 0.107906 0 255 0 81 14
0.939221 -1.495027 0.106963 0 255 0 81 14
0.838191 -1.301799 0.107906 0 255 0 81 14
0.996180 -1.494866 0.109907 0 255 0 81 14
0.897931 -1.275648 0.114984 0 255 0 81 14
0.923940 -1.461109 0.106937 0 255 0 81 14
0.819447 -1.327445 0.107906 0 255 0 81 14
0.860354 -1.317756 0.107906 0 255 0 81 14
0.826137 -1.262433 0.107906 0 255 0 81 14
0.871934 -1.301757 0.107906 0 255 0 81 14
0.866897 -1.330392 0.107906 0 255 0 81 14
0.994620 -1.292110 0.107517 0 255 0 81 14
0.844534 -1.507616 0.107041 0 255 0 81 14
0.948341 -1.519457 0.106986 0 255 0 81 14
0.892440 -1.503486 0.106991 0 255 0 81 14
0.807696 -1.409820 0.113907 0 255 0 81 14
0.979840 -1.477080 0.106984 0 255 0 81 14
0.930101 -1.470597 0.106966 0 255 0 81 14
0.905841 -1.498156 0.106959 0 255 0 81 14
0.933060 -1.485538 0.104910 0 255 0 81 14
0.842872 -1.515440 0.106956 0 255 0 81 14
0.986173 -1.505007 0.106966 0 255 0 81 14
0.993118 -1.481946 0.103109 0 255 0 81 14
0.827722 -1.307753 0.115038 0 255 0 81 14
0.991909 -1.256774 0.112511 0 255 0 81 14
0.808359 -1.358843 0.113907 0 255 0 81 14
0.994668 -1.320746 0.107607 0 255 0 81 14
0.995471 -1.384303 0.113997 0 255 0 81 14
0.852151 -1.298633 0.109051 0 255 0 81 14
0.822657 -1.370060 0.106928 0 255 0 81 14
0.884616 -1.391410 0.107906 0 255 0 81 14
0.882116 -1.301950 0.107906 0 255 0 81 14
0.847455 -1.282251 0.107906 0 255 0 81 14
0.987477 -1.513463 0.103907 0 255 0 81 14
0.818894 -1.291564 0.115221 0 255 0 81 14
0.913545 -1.529253 0.109907 0 255 0 81 14
0.887115 -1.278432 0.107906 0 255 0 81 14
0.890323 -1.321059 0.106966 0 255 0 81 14
0.936886 -1.265527 0.109015 0 255 0 81 14
0.883245 -1.517889 0.106995 0 255 0 81 14
0.875939 -1.407968 0.106986 0 255 0 81 14
0.967231 -1.497920 0.105906 0 255 0 81 14
0.848144 -1.322317 0.107906 0 255 0 81 14
0.949878 -1.343941 0.107906 0 255 0 81 14
0.876787 -1.288548 0.107906 0 255 0 81 14
0.817534 -1.355676 0.107906 0 255 0 81 14
0.808300 -1.389501 0.109004 0 255 0 81 14
0.843986 -1.260093 0.106907 0 255 0 81 14
0.827360 -1.352659 0.107906 0 255 0 81 14
0.823218 -1.304750 0.107906 0 255 0 81 14
0.994791 -1.310549 0.109822 0 255 0 81 14
0.851859 -1.290391 0.109004 0 255 0 81 14
0.947917 -1.309828 0.107906 0 255 0 81 14
0.804468 -1.259871 0.111907 0 255 0 81 14
0.891522 -1.286555 0.108999 0 255 0 81 14
0.892374 -1.378746 0.106925 0 255 0 81 14
0.990802 -1.348551 0.114904 0 255 0 81 14
0.995663 -1.439549 0.109907 0 255 0 81 14
0.986843 -1.319083 0.114321 0 255 0 81 14
0.817818 -1.315871 0.114781 0 255 0 81 14
0.897089 -1.443134 0.114467 0 255 0 81 14
0.982968 -1.510459 0.114675 0 255 0 81 14
0.978233 -1.349967 0.114264 0 255 0 81 14
0.892128 -1.399141 0.114433 0 255 0 81 14
0.852974 -1.458292 0.115169 0 255 0 81 14
0.806071 -1.378804 0.113907 0 255 0 81 14
0.899953 -1.400804 0.114681 0 255 0 81 14
0.960938 -1.450571 0.114900 0 255 0 81 14
0.908166 -1.467978 0.114678 0 255 0 81 14
0.829847 -1.326607 0.109007 0 255 0 81 14
0.977034 -1.384473 0.115101 0 255 0 81 14
0.880655 -1.472355 0.115088 0 255 0 81 14
0.954947 -1.459521 0.114441 0 255 0 81 14
0.832362 -1.410973 0.114305 0 255 0 81 14
0.959578 -1.303065 0.114992 0 255 0 81 14
0.943842 -1.502144 0.114873 0 255 0 81 14
0.818299 -1.438653 0.114874 0 255 0 81 14
0.820529 -1.351207 0.115229 0 255 0 81 14
0.898091 -1.457659 0.114776 0 255 0 81 14
0.995337 -1.416989 0.113907 0 255 0 81 14
0.965948 -1.523200 0.114707 0 255 0 81 14
0.931807 -1.279806 0.107906 0 255 0 81 14
0.969984 -1.513834 0.114938 0 255 0 81 14
0.822637 -1.273957 0.114886 0 255 0 81 14
0.834025 -1.403148 0.114446 0 255 0 81 14
0.862339 -1.462327 0.114964 0 255 0 81 14
0.944777 -1.391930 0.114155 0 255 0 81 14
0.834706 -1.476901 0.114781 0 255 0 81 14
0.978178 -1.484905 0.114433 0 255 0 81 14
0.847692 -1.473526 0.114644 0 255 0 81 14
0.835962 -1.307460 0.114652 0 255 0 81 14
0.958076 -1.492901 0.114526 0 255 0 81 14
0.882696 -1.270365 0.114709 0 255 0 81 14
0.974103 -1.302063 0.115000 0 255 0 81 14
0.937019 -1.515006 0.114727 0 255 0 81 14
0.965712 -1.380022 0.114346 0 255 0 81 14
