ply
format ascii 1.0
element vertex 1081
property float x
property float y
property float z
property uchar red
property uchar green
property uchar blue
property uchar semantic_label
property uchar instance_label
end_header
-0.311337 -0.092924 -0.190099 246 235 220 14 6
-0.329301 -0.131339 -0.189611 159 147 133 14 6
-0.327075 -0.104028 -0.186297 244 231 217 14 6
0.335384 0.229708 -0.197493 58 54 42 0 0
0.339436 0.219675 -0.200415 54 52 41 0 0
0.333811 0.231789 -0.209792 87 80 67 14 6
0.354143 0.239261 -0.209702 81 75 61 0 0
0.329317 0.241877 -0.209325 71 62 51 14 6
0.341741 0.234645 -0.204863 82 73 59 0 0
0.345753 0.239658 -0.216579 100 90 76 0 0
0.314327 0.219140 -0.200158 72 68 54 0 0
-0.418665 -0.007798 -0.349048 24 19 10 3 3
-0.402889 0.003022 -0.353375 24 17 12 3 3
-0.433771 -0.018934 -0.330021 23 16 11 0 0
-0.412419 -0.014797 -0.344011 22 15 10 3 3
-0.297332 0.116638 -0.390263 67 59 48 3 3
-0.361956 0.181965 -0.197195 238 224 207 14 6
-0.332403 0.189219 -0.192578 223 208 192 14 6
0.373128 0.020550 -0.197712 193 181 169 40 9
-0.300489 -0.205978 -0.221341 151 141 124 14 6
-0.275764 -0.203481 -0.222530 130 119 102 14 6
0.385992 0.278088 -0.195814 122 114 102 14 6
0.390689 0.298486 -0.196568 91 83 68 14 6
0.012507 -0.001728 -0.202276 196 184 170 14 6
0.027173 0.007211 -0.201153 196 182 168 14 6
-0.030273 0.182312 -0.204226 181 171 161 14 6
-0.012623 0.169687 -0.203070 177 167 158 14 6
0.153794 -0.002926 -0.199650 192 180 168 14 6
0.162754 0.015860 -0.197360 187 177 163 14 6
-0.138185 0.107526 -0.201681 226 209 178 14 6
0.148976 -0.157057 -0.202932 200 189 175 14 6
0.299046 0.355502 -0.198729 138 126 111 14 6
0.065000 -0.095796 -0.201948 199 186 174 14 6
-0.089248 0.246940 -0.132883 189 175 160 14 6
0.197080 0.213537 -0.190098 148 133 114 0 0
0.198176 0.219102 -0.195898 68 54 40 0 0
0.216941 0.218196 -0.191292 158 141 123 0 0
0.191607 0.200936 -0.180327 89 76 59 0 0
-0.495206 -0.185054 -0.246495 120 112 95 14 6
-0.471830 -0.167427 -0.244291 138 126 105 14 6
-0.480667 -0.192299 -0.241949 89 81 65 14 6
-0.470611 -0.172844 -0.247874 118 107 87 14 6
-0.497801 -0.174354 -0.248437 116 108 98 14 6
-0.492143 -0.197568 -0.237836 71 61 47 14 6
-0.194684 0.132980 -0.068304 218 203 190 14 6
-0.190130 0.141355 -0.063757 218 203 190 0 0
-0.159852 -0.039255 -0.198561 228 220 210 14 6
0.032906 0.280626 -0.197542 173 158 137 14 6
0.046582 0.286251 -0.188888 170 154 134 14 6
0.095035 0.022522 -0.196711 176 165 149 14 6
0.228158 0.042343 -0.192230 173 165 149 40 9
0.258019 0.034631 -0.196990 162 153 137 40 9
0.418069 0.019761 -0.199246 189 180 164 40 9
0.400507 -0.005810 -0.199374 189 180 165 40 9
0.219483 -0.054706 -0.200055 195 182 171 14 6
-0.112075 0.132873 -0.200446 200 162 98 14 6
-0.561998 0.248924 -0.187192 82 71 55 0 0
-0.561859 0.242923 -0.192567 77 64 48 14 6
-0.582053 0.246807 -0.169056 77 63 46 0 0
-0.572078 0.251805 -0.176542 88 77 65 0 0
-0.579381 0.260982 -0.169590 113 96 82 0 0
-0.404530 0.072606 -0.337391 14 12 9 3 3
-0.399244 0.062782 -0.333595 14 11 7 0 0
-0.398048 0.047590 -0.335191 14 13 10 3 3
-0.392312 0.057478 -0.330561 17 15 11 0 0
-0.345507 0.269344 -0.181275 224 209 192 14 6
-0.361275 0.261694 -0.192961 210 194 178 14 6
-0.361932 0.273151 -0.190405 222 206 190 14 6
-0.353167 0.271794 -0.185710 229 213 197 14 6
-0.331937 0.230113 -0.185326 211 195 178 14 6
-0.159032 0.131468 -0.191204 221 204 177 0 0
-0.142282 0.120476 -0.170440 220 203 186 0 0
0.174461 0.048594 -0.186256 43 40 32 40 9
0.171645 0.035676 -0.191009 98 90 79 40 9
-0.176303 0.296359 -0.143263 137 121 91 14 6
-0.196538 0.311793 -0.151617 138 123 97 14 6
-0.217379 0.320309 -0.155097 150 129 82 14 6
-0.195531 0.315165 -0.158037 143 124 88 14 6
-0.540070 -0.100253 -0.387843 96 85 68 3 3
-0.061767 0.005677 -0.197376 186 175 158 14 6
-0.283503 -0.180565 -0.247277 139 127 107 14 6
-0.288166 -0.176493 -0.245540 98 88 68 14 6
-0.294265 -0.195049 -0.238917 80 72 60 14 6
-0.272707 -0.193173 -0.240369 50 43 31 14 6
-0.225514 0.240144 -0.122972 159 132 110 14 6
-0.206210 0.237378 -0.126115 164 138 114 14 6
-0.033704 0.052801 -0.201540 159 138 86 14 6
0.303970 0.242336 -0.202592 86 76 65 14 6
0.306477 0.232611 -0.215088 84 74 61 14 6
0.298106 0.229927 -0.216763 90 80 67 14 6
0.308400 0.240620 -0.209015 101 91 79 14 6
0.293097 0.238119 -0.218786 85 76 63 14 6
0.322249 0.236303 -0.215237 87 78 65 14 6
0.282195 0.241234 -0.220052 83 72 60 14 6
0.302273 0.211952 -0.200067 83 76 63 0 0
-0.009566 -0.167252 -0.236573 152 137 112 0 0
-0.021379 -0.193295 -0.246644 39 24 14 14 6
-0.001735 -0.186124 -0.253568 40 27 17 14 6
-0.012863 -0.183274 -0.252889 73 60 46 14 6
-0.000742 -0.173895 -0.247671 66 56 44 0 0
0.007053 -0.164644 -0.237773 141 130 110 0 0
0.279862 0.391592 0.029877 202 230 254 40 10
0.296347 0.393001 0.042850 198 227 253 40 10
-0.333241 0.018686 -0.359281 47 41 31 0 0
-0.349153 0.250249 -0.386407 90 84 78 3 3
-0.340830 0.258361 -0.387034 25 18 11 3 3
-0.470564 -0.127854 -0.393104 117 105 88 3 3
-0.499452 -0.123404 -0.391666 115 103 89 3 3
-0.501425 -0.115835 -0.388557 113 100 83 3 3
0.015214 -0.116556 -0.202789 199 187 171 14 6
-0.191346 0.111411 -0.153293 214 200 187 14 6
-0.212341 0.127361 -0.146035 217 205 188 14 6
-0.203942 0.123719 -0.150638 216 202 186 14 6
-0.200309 0.107857 -0.159384 227 214 198 14 6
-0.402312 0.028145 -0.352529 20 13 10 3 3
-0.413618 0.005892 -0.355600 24 18 11 3 3
-0.412209 0.027991 -0.357246 15 10 7 3 3
-0.371892 -0.015177 -0.384190 17 14 10 3 3
-0.368195 -0.031508 -0.364682 22 17 13 3 3
-0.373909 -0.002214 -0.365189 23 15 12 3 3
-0.376390 0.004268 -0.384095 19 14 10 3 3
-0.355639 -0.007598 -0.379685 31 24 18 3 3
-0.374448 -0.009074 -0.379248 23 18 14 3 3
-0.376222 0.006031 -0.357464 21 15 9 0 0
-0.039088 0.042404 -0.198632 211 194 162 14 6
0.020870 -0.187655 -0.252044 16 11 7 14 6
-0.369240 -0.101279 -0.177547 204 190 177 14 6
-0.360920 -0.110008 -0.173312 221 209 194 14 6
-0.353489 -0.082014 -0.171555 229 216 202 14 6
-0.534659 0.050901 -0.160174 243 230 213 14 6
-0.508549 0.052321 -0.160995 249 235 221 14 6
-0.539030 0.246846 -0.149459 208 181 141 14 6
-0.546598 0.227796 -0.142843 130 87 48 14 6
-0.522199 0.232305 -0.163209 177 148 121 14 6
-0.547173 0.210783 -0.144304 169 112 64 14 6
-0.287753 0.037329 -0.372907 44 43 35 0 0
-0.294746 0.030570 -0.378036 45 42 34 0 0
-0.283876 0.045829 -0.376230 59 53 49 0 0
-0.288722 0.037652 -0.355130 59 53 49 0 0
-0.283466 0.057113 -0.363833 27 22 17 0 0
-0.288189 0.032095 -0.385213 37 31 23 0 0
-0.275185 0.046656 -0.388288 24 18 13 3 3
-0.437980 0.252585 -0.186849 231 218 200 14 6
-0.405999 0.241288 -0.193998 223 209 192 14 6
-0.582460 0.231233 -0.171679 74 64 52 0 0
-0.570940 0.231863 -0.197127 75 61 45 14 6
-0.593111 0.203520 -0.192457 75 56 39 14 6
-0.576066 0.214123 -0.194480 65 53 37 14 6
-0.333116 0.242529 -0.388063 62 55 49 3 3
-0.471249 -0.007446 -0.297069 24 19 12 0 0
-0.461083 -0.008283 -0.300754 21 18 10 0 0
-0.460246 -0.020820 -0.300098 25 19 12 0 0
-0.320837 0.165561 -0.381055 147 138 125 0 0
-0.319181 0.167666 -0.385615 125 117 109 3 3
-0.311359 0.162140 -0.390114 106 99 90 3 3
-0.391651 -0.049990 -0.353517 80 73 64 3 3
-0.413992 -0.043153 -0.340608 20 14 8 3 3
-0.408118 -0.024102 -0.341206 21 16 9 3 3
-0.392011 -0.024416 -0.352943 20 15 10 3 3
-0.418244 -0.036501 -0.333571 25 20 13 3 3
-0.403974 -0.051132 -0.349268 27 22 12 3 3
0.103125 0.035752 -0.187587 83 76 67 40 9
0.088426 0.038446 -0.186049 52 47 40 14 6
0.116840 0.020817 -0.197726 155 145 132 40 9
-0.482303 -0.180370 -0.194973 91 85 149 14 6
-0.481496 -0.152515 -0.192924 231 223 227 14 6
0.367269 0.166483 -0.173440 39 38 32 40 9
0.355800 0.177658 -0.171291 33 34 26 40 9
0.387123 0.181922 -0.171933 32 31 25 40 9
-0.197196 0.163501 -0.167949 220 206 183 0 0
-0.150564 0.137877 -0.153399 212 200 186 0 0
-0.163828 0.158234 -0.148641 211 201 191 0 0
-0.168425 0.158151 -0.165323 211 201 191 0 0
-0.171926 0.171654 -0.154956 218 203 184 0 0
0.388893 0.254833 -0.194757 72 65 57 14 6
-0.399097 -0.119994 -0.359336 65 46 31 3 3
-0.399414 -0.099821 -0.348369 51 41 25 3 3
-0.260238 0.119704 -0.397501 16 12 10 3 3
-0.098648 -0.007030 -0.140553 162 154 138 14 6
-0.073391 0.014062 -0.150164 139 128 105 14 6
-0.090584 -0.003474 -0.156049 211 197 178 14 6
-0.073280 0.007937 -0.138041 87 80 60 14 6
-0.459108 -0.054576 -0.341017 24 17 9 0 0
-0.450714 -0.065093 -0.355781 47 38 27 3 3
-0.470052 -0.059450 -0.348258 31 25 12 0 0
-0.487617 -0.056212 -0.346882 40 33 20 0 0
-0.470146 -0.056668 -0.339453 30 22 13 0 0
0.290472 -0.202061 -0.231975 53 45 34 14 6
0.315939 -0.201034 -0.231965 60 51 40 14 6
0.278828 -0.186915 -0.254196 31 26 19 14 6
0.319852 -0.186186 -0.251788 65 55 43 14 6
0.288760 -0.195247 -0.244103 57 48 37 14 6
0.298131 -0.184264 -0.253938 60 51 39 14 6
-0.486844 0.040569 -0.167275 247 233 219 14 6
-0.181191 0.128005 -0.198305 234 217 193 14 6
-0.166289 0.132014 -0.195347 228 212 188 0 0
-0.150774 0.130663 -0.201165 221 209 199 14 6
-0.242904 0.157596 -0.421199 56 51 39 3 3
-0.195101 0.131108 -0.079652 216 202 188 14 6
-0.443658 -0.132591 -0.192849 252 240 225 14 6
-0.218977 -0.104017 -0.413759 86 78 63 3 3
-0.220585 -0.075261 -0.411999 81 73 61 3 3
-0.242558 -0.085642 -0.392321 72 65 55 3 3
-0.225884 -0.097938 -0.421715 88 79 60 3 3
-0.224792 -0.078130 -0.404348 76 67 58 3 3
-0.230584 -0.073745 -0.398757 63 56 48 3 3
-0.229207 -0.106053 -0.398281 78 70 59 3 3
0.242922 0.383748 -0.133808 89 83 77 40 10
0.235179 0.364018 -0.121880 84 75 61 40 10
-0.475431 -0.041082 -0.288347 25 20 10 0 0
-0.224958 -0.015580 -0.408006 55 48 40 3 3
-0.233683 -0.005304 -0.421567 33 29 24 3 3
-0.226367 -0.003607 -0.408888 46 38 33 3 3
0.279850 0.394527 0.052260 203 218 251 40 10
0.281539 0.081912 -0.181382 32 32 23 40 9
0.425770 -0.165118 -0.201093 201 188 173 14 6
0.404101 -0.188199 -0.205284 177 164 147 14 6
0.407948 0.179946 -0.174046 36 35 26 40 9
0.391713 0.164869 -0.172321 45 41 32 40 9
-0.520009 0.012386 -0.347041 28 17 14 0 0
-0.497990 0.013121 -0.348783 32 27 16 0 0
-0.510546 0.017609 -0.343365 48 42 35 0 0
-0.505118 0.000840 -0.351844 30 22 14 0 0
-0.512852 0.005973 -0.356673 23 15 10 0 0
-0.493035 -0.008652 -0.351192 30 20 13 0 0
-0.490751 0.005358 -0.355586 29 21 15 0 0
-0.495803 0.001788 -0.337514 29 23 12 0 0
-0.388411 0.021012 -0.188444 240 228 212 14 6
-0.410032 0.006538 -0.185600 237 224 208 14 6
-0.431290 0.041480 -0.181580 236 224 207 14 6
0.218445 0.184320 -0.173878 68 60 50 40 9
0.196055 0.153741 -0.171794 104 93 77 40 9
0.201362 0.180696 -0.172579 88 79 69 40 9
-0.462052 0.217633 -0.397557 21 15 9 0 0
-0.244379 0.025219 -0.396417 22 18 16 3 3
-0.247224 -0.004827 -0.392289 36 31 26 3 3
-0.251476 0.012474 -0.393607 49 45 39 3 3
-0.209515 0.205446 -0.115215 218 195 164 0 0
-0.202413 0.193443 -0.116874 207 191 165 0 0
-0.295222 0.174598 -0.390749 50 42 33 3 3
-0.005318 0.253207 -0.200225 174 157 115 14 6
-0.428599 -0.049045 -0.338641 15 15 5 0 0
-0.439362 -0.048231 -0.320460 25 18 15 0 0
-0.439241 -0.061629 -0.350240 33 26 17 3 3
-0.420080 -0.056579 -0.348300 25 20 5 3 3
-0.442646 -0.049945 -0.342122 29 22 13 0 0
-0.427336 -0.044748 -0.328108 23 15 11 3 3
0.280455 -0.134921 -0.235672 137 106 51 0 0
-0.561868 0.092989 -0.165816 240 227 209 14 6
-0.475704 0.085272 -0.169268 246 233 217 14 6
0.060706 0.243568 -0.192652 234 222 214 14 6
0.057868 0.266976 -0.187771 233 220 211 14 6
0.189936 0.379653 -0.049470 219 240 254 40 10
0.210924 0.375854 -0.070933 217 239 255 40 10
0.261230 0.223386 -0.217321 81 66 54 14 6
0.291798 0.211995 -0.197297 92 81 69 0 0
0.274915 0.226155 -0.219357 70 59 48 14 6
-0.455595 -0.177980 -0.195181 251 239 226 14 6
-0.443814 -0.150100 -0.194282 248 241 231 14 6
-0.459807 -0.146261 -0.193451 247 235 221 14 6
0.243983 0.388655 0.019722 202 228 254 40 10
0.260670 0.389757 0.021197 201 230 252 40 10
0.238110 0.387745 0.007481 197 223 255 40 10
0.262634 0.383376 -0.018932 201 227 253 40 10
0.077125 -0.180449 -0.204185 200 189 173 14 6
0.081107 -0.188363 -0.206294 170 161 144 14 6
0.129518 -0.204310 -0.225262 96 88 78 14 6
0.091425 -0.203828 -0.225501 107 99 85 14 6
0.107703 -0.205344 -0.229239 55 49 38 14 6
0.114839 -0.197503 -0.213624 133 122 106 14 6
-0.296599 -0.105052 -0.385678 87 71 55 3 3
-0.311031 -0.082746 -0.368572 66 57 39 3 3
-0.298547 -0.077003 -0.377906 41 36 21 3 3
-0.279440 -0.093211 -0.390698 63 53 35 3 3
-0.305772 -0.094740 -0.377240 42 36 15 3 3
-0.485877 -0.056545 -0.335881 41 30 20 0 0
-0.500514 -0.054467 -0.335491 35 27 17 0 0
-0.492056 -0.049124 -0.360189 56 47 37 0 0
-0.501035 -0.041307 -0.353607 55 45 36 0 0
-0.525606 0.000917 -0.290967 43 36 26 0 0
-0.543395 -0.011787 -0.287300 91 82 72 0 0
-0.391010 -0.009458 -0.185881 245 232 216 14 6
-0.399739 -0.029220 -0.185657 246 233 217 14 6
-0.416314 0.292998 -0.386913 24 21 12 3 3
-0.418222 0.280659 -0.382532 21 20 18 3 3
-0.455729 0.037456 -0.364857 37 30 19 0 0
-0.463559 0.052317 -0.360821 45 37 32 0 0
-0.290075 -0.048645 -0.394650 19 17 13 3 3
-0.307341 -0.025321 -0.393408 21 21 19 3 3
-0.064121 -0.083434 -0.200770 236 223 212 14 6
0.149705 0.121345 -0.174254 29 27 20 40 9
0.159154 0.089316 -0.178429 31 28 19 40 9
0.299813 -0.197490 -0.213781 135 122 106 14 6
0.310042 -0.184764 -0.203246 200 184 170 14 6
0.305868 -0.189670 -0.205110 152 138 122 14 6
-0.397996 0.066805 -0.189544 236 223 207 14 6
-0.415177 0.069292 -0.186297 238 225 208 14 6
-0.300110 0.192529 -0.172038 212 199 182 14 6
-0.510271 -0.056182 -0.281839 45 35 28 0 0
-0.501343 -0.051434 -0.284561 43 33 23 0 0
-0.506951 -0.053052 -0.277241 40 32 21 0 0
-0.512103 -0.041874 -0.280300 54 40 27 0 0
-0.484853 -0.047606 -0.286891 35 26 16 0 0
0.178545 0.343938 -0.185844 218 207 191 14 6
0.197979 0.352652 -0.185681 217 208 192 14 6
0.179303 0.362597 -0.186886 218 209 193 14 6
0.152760 0.256982 -0.198979 226 207 181 14 6
0.424797 -0.153774 -0.233461 150 125 82 0 0
-0.398457 0.030948 -0.334469 21 17 15 3 3
-0.389828 0.039672 -0.327147 13 11 9 0 0
-0.388248 0.022430 -0.327531 24 22 18 0 0
-0.368626 0.023484 -0.327592 23 20 13 0 0
-0.392321 0.015407 -0.335822 21 17 13 3 3
0.231137 -0.197903 -0.215189 127 116 101 14 6
0.343269 0.224950 -0.182971 69 62 50 40 9
0.366834 0.245181 -0.195378 74 67 55 40 9
-0.277274 -0.141764 -0.194111 247 235 218 14 6
-0.270288 -0.125233 -0.193022 251 240 223 14 6
-0.477569 0.054685 -0.168828 245 232 216 14 6
-0.491091 0.066903 -0.164463 246 233 216 14 6
-0.498793 0.090921 -0.162930 242 229 212 14 6
-0.160416 0.057848 -0.184375 233 219 207 14 6
-0.145309 0.066039 -0.182887 194 181 170 14 6
-0.165853 0.043802 -0.193280 234 221 206 14 6
-0.161040 0.081328 -0.162506 229 215 202 14 6
-0.155433 0.072787 -0.173434 231 216 202 14 6
-0.170195 0.081232 -0.162539 231 216 201 14 6
0.018689 -0.204599 -0.234551 30 23 16 14 6
0.016456 -0.198843 -0.243116 20 15 8 14 6
0.409253 0.076591 -0.186258 87 83 74 40 9
-0.442737 -0.044313 -0.186233 239 227 210 14 6
-0.119854 0.084569 -0.130226 205 182 140 14 6
-0.102321 0.100096 -0.099993 205 183 148 0 0
-0.103731 0.086985 -0.121807 171 147 83 0 0
-0.124700 0.084415 -0.125839 230 218 208 14 6
-0.112128 0.098440 -0.098352 221 203 183 14 6
-0.112767 0.081269 -0.135846 180 163 124 0 0
-0.318969 0.010237 -0.389522 32 27 21 3 3
0.236669 -0.014845 -0.200540 192 181 166 14 6
0.335794 0.236962 -0.198505 82 76 64 40 9
0.320815 0.228852 -0.191849 80 72 60 40 9
0.319241 0.215529 -0.180623 76 70 58 40 9
-0.577535 0.125520 -0.386921 15 11 8 3 3
-0.571778 0.111530 -0.378141 32 25 20 3 3
0.341594 -0.130125 -0.200568 205 196 184 14 6
0.341773 -0.110485 -0.200549 204 197 187 14 6
-0.077402 -0.037707 -0.200814 223 212 194 14 6
-0.073810 -0.006585 -0.200640 205 193 176 14 6
-0.535759 -0.043614 -0.368773 46 34 24 0 0
-0.526555 -0.021047 -0.364685 58 48 37 0 0
-0.519972 -0.035801 -0.375799 48 37 25 0 0
-0.505856 0.146070 -0.164132 220 206 189 14 6
-0.495856 0.178305 -0.169984 227 212 195 14 6
-0.450676 0.002799 -0.318585 28 18 10 0 0
-0.454717 0.007198 -0.328514 27 17 9 0 0
-0.454370 0.003693 -0.308183 20 12 10 0 0
0.239938 -0.038107 -0.200539 191 183 168 14 6
0.275085 -0.025372 -0.200499 191 183 167 14 6
0.281194 -0.053303 -0.199176 169 158 148 14 6
-0.464007 0.226757 -0.183244 229 214 198 14 6
-0.446077 0.238838 -0.185764 222 208 191 14 6
0.182858 0.381377 -0.027215 230 249 255 40 10
0.163021 0.378023 -0.052830 220 242 255 40 10
0.191705 0.374299 -0.076048 217 238 254 40 10
-0.286679 -0.077495 -0.386928 50 45 32 3 3
-0.146724 0.014477 -0.145725 35 44 30 14 6
-0.149671 0.023998 -0.117517 106 113 97 14 6
-0.152666 0.035780 -0.104975 53 53 41 14 6
-0.033383 0.005769 -0.192075 187 175 158 14 6
-0.039567 0.015346 -0.183190 208 194 178 14 6
-0.023240 0.021226 -0.184709 205 192 175 14 6
-0.043824 0.026502 -0.186913 187 174 157 14 6
-0.031759 0.033158 -0.191543 210 194 177 14 6
-0.017811 0.012060 -0.187030 191 178 162 14 6
-0.031602 0.009695 -0.180116 211 196 182 14 6
-0.401092 -0.155638 -0.410091 120 110 95 3 3
-0.100266 -0.008716 -0.128013 92 84 66 14 6
-0.084822 -0.004196 -0.129829 91 83 65 14 6
-0.286523 -0.017407 -0.159874 240 224 209 14 6
-0.283718 -0.023368 -0.164970 238 222 206 14 6
-0.293138 -0.012279 -0.157534 238 223 206 14 6
-0.368873 -0.026426 -0.181637 239 226 209 14 6
-0.375986 -0.038725 -0.182968 247 233 218 14 6
0.441855 -0.153444 -0.232563 179 138 64 0 0
-0.083135 0.262242 -0.131809 170 157 144 14 6
0.340925 0.368343 -0.197206 174 162 147 14 6
-0.074195 0.228907 -0.190903 135 120 82 0 0
-0.226179 0.122201 -0.190859 105 84 60 14 6
-0.247414 0.124155 -0.193613 234 218 194 0 0
-0.243982 0.113190 -0.187087 231 211 192 0 0
-0.235861 0.129792 -0.191088 132 108 83 14 6
-0.227348 0.126255 -0.185426 215 196 169 0 0
-0.217475 0.107399 -0.180050 224 206 181 0 0
-0.238021 0.119406 -0.198734 157 138 98 14 6
0.319735 0.117270 -0.177152 33 28 24 40 9
0.303777 0.122105 -0.174767 32 30 25 40 9
0.321778 0.132826 -0.175377 35 35 28 40 9
-0.291948 -0.200861 -0.233554 98 90 78 14 6
-0.361476 0.003911 -0.391230 15 15 11 3 3
-0.360104 -0.008879 -0.393454 19 17 13 3 3
-0.323565 -0.006606 -0.393122 25 23 19 3 3
-0.279170 0.307821 -0.389692 23 19 13 3 3
0.281857 0.037169 -0.196472 174 164 152 40 9
0.044981 0.162127 -0.167597 20 19 19 40 9
0.065788 0.150842 -0.169484 19 18 15 40 9
-0.061169 0.200857 -0.200136 194 178 152 14 6
-0.062743 0.212690 -0.200168 182 165 140 14 6
-0.075331 0.031280 -0.140061 181 174 163 0 0
-0.076554 0.035265 -0.158503 131 121 88 0 0
-0.094519 -0.230361 -0.218423 202 186 158 14 6
-0.072267 -0.214447 -0.226092 245 231 203 14 6
-0.089464 -0.220033 -0.213371 248 236 221 14 6
-0.074177 -0.208312 -0.213923 247 234 218 14 6
-0.075664 -0.216897 -0.219793 253 241 226 14 6
0.050957 0.068387 -0.179302 26 22 14 40 9
0.065492 0.039984 -0.185805 39 34 29 40 9
0.058560 0.047683 -0.182838 43 38 32 40 9
-0.283107 -0.047293 -0.386375 50 44 32 3 3
-0.287529 -0.046873 -0.387017 50 45 36 3 3
-0.574429 0.251828 -0.200282 76 64 48 14 6
-0.586212 0.250341 -0.199494 79 66 51 14 6
-0.038880 -0.207207 -0.229281 47 39 26 14 6
-0.003333 -0.198071 -0.243795 39 33 24 14 6
-0.019210 -0.204861 -0.234155 37 30 21 14 6
-0.297591 0.005876 -0.392618 41 36 29 3 3
-0.289195 0.020226 -0.394742 22 16 13 3 3
-0.276754 0.016104 -0.394974 38 32 24 3 3
-0.282677 -0.007920 -0.390938 28 21 16 3 3
-0.553175 -0.039077 -0.346772 55 44 34 0 0
-0.286938 -0.202297 -0.214671 251 243 223 14 6
-0.291807 -0.196591 -0.206868 246 240 219 14 6
-0.316328 -0.086643 -0.383391 43 36 20 3 3
-0.332845 -0.083644 -0.382873 48 40 23 3 3
-0.268100 -0.052364 -0.391641 46 40 28 3 3
-0.263263 -0.036354 -0.391838 93 86 69 3 3
-0.280426 -0.061597 -0.388234 43 39 24 3 3
-0.262510 -0.061068 -0.390221 49 45 33 3 3
-0.487289 -0.198266 -0.201753 91 83 113 14 6
-0.488829 -0.192162 -0.197617 104 102 141 14 6
-0.349740 -0.139512 -0.377945 98 78 54 3 3
-0.367238 -0.117563 -0.359352 82 60 40 3 3
-0.345336 -0.116806 -0.354928 62 46 28 3 3
-0.227136 0.097529 -0.176854 234 218 200 0 0
-0.223954 0.074710 -0.181810 234 213 182 0 0
-0.219007 0.091993 -0.179949 229 211 185 0 0
-0.222454 0.063735 -0.184415 232 213 186 14 6
-0.235916 0.079980 -0.176217 229 210 186 0 0
-0.434455 0.188224 -0.364896 14 11 8 3 3
-0.431400 0.172171 -0.368529 16 14 9 3 3
0.040599 0.140465 -0.169789 30 25 18 40 9
-0.256364 0.177765 -0.114495 229 211 196 14 6
-0.240983 0.159769 -0.099136 229 211 196 14 6
-0.253543 0.151266 -0.132752 226 211 195 14 6
0.165420 0.321818 -0.187564 215 201 188 14 6
0.207491 0.339963 -0.186610 218 206 190 14 6
-0.248909 0.163601 -0.401206 12 9 6 3 3
-0.246121 0.189747 -0.402992 12 9 6 3 3
-0.239441 0.170910 -0.411386 11 10 6 3 3
-0.257936 0.179271 -0.393523 11 10 4 3 3
-0.255564 0.157258 -0.398148 13 10 8 3 3
0.196111 -0.113658 -0.199654 199 187 174 14 6
-0.094127 -0.175694 -0.201322 251 239 224 14 6
-0.068002 -0.192218 -0.205190 163 147 132 14 6
-0.081486 -0.192465 -0.203233 206 193 177 14 6
-0.102633 -0.202677 -0.202368 255 242 228 14 6
0.476360 -0.179538 -0.202766 192 178 162 14 6
0.440341 -0.177553 -0.201816 196 183 167 14 6
-0.402128 -0.095084 -0.194679 254 242 226 14 6
-0.386452 -0.075604 -0.195329 243 231 215 14 6
-0.409466 -0.070730 -0.190857 253 239 223 14 6
-0.416727 0.180915 -0.190719 241 228 211 14 6
-0.435600 0.182265 -0.186763 238 224 207 14 6
-0.419652 -0.126647 -0.373136 92 69 48 3 3
-0.137491 0.297423 -0.148073 145 127 104 14 6
-0.123289 0.300565 -0.154716 161 140 119 14 6
0.062618 0.125960 -0.172799 28 25 15 40 9
0.094971 0.122214 -0.173719 27 24 17 40 9
0.085313 0.131290 -0.171921 27 23 14 40 9
0.324142 0.086002 -0.182110 43 38 33 40 9
0.310680 0.076319 -0.182741 32 30 23 40 9
0.152975 0.371139 -0.123067 34 33 27 40 10
0.144006 0.360008 -0.114949 34 33 27 40 10
0.160543 0.363584 -0.115458 50 48 44 40 10
0.160947 0.368389 -0.107781 81 82 95 40 10
0.136675 0.364427 -0.119855 50 47 44 40 10
0.146856 0.370277 -0.100035 184 200 229 40 10
0.115278 0.286792 -0.188357 229 219 210 14 6
0.133986 0.300818 -0.188263 210 199 189 14 6
0.391483 -0.072739 -0.199576 198 187 177 14 6
0.354738 -0.062353 -0.199733 195 185 175 14 6
-0.428942 0.150007 -0.396484 28 22 13 0 0
-0.437349 0.154506 -0.399852 29 19 17 0 0
0.417655 -0.057121 -0.199766 195 184 173 14 6
0.450354 -0.070396 -0.200631 197 187 177 14 6
-0.595395 0.242115 -0.159506 138 118 104 0 0
-0.554542 0.245594 -0.133902 219 200 187 14 6
-0.565524 0.264833 -0.143815 237 222 209 14 6
-0.580874 0.267049 -0.143670 228 210 196 14 6
-0.585929 0.256371 -0.130431 236 219 206 14 6
-0.337039 0.217669 -0.190934 229 215 198 14 6
-0.366919 0.214900 -0.196832 234 220 203 14 6
-0.349422 0.190847 -0.196196 231 218 201 14 6
-0.162410 0.173010 -0.195159 178 165 155 14 6
-0.180080 0.160186 -0.172738 218 202 177 0 0
0.101297 0.167116 -0.167893 24 25 24 40 9
-0.156953 0.208742 -0.128159 171 135 78 14 6
0.363455 0.356284 -0.196711 161 152 137 14 6
0.034800 -0.059486 -0.202249 199 186 170 14 6
-0.118805 -0.209973 -0.227028 123 107 94 14 6
-0.087953 -0.220674 -0.224418 167 152 128 14 6
-0.116735 -0.230327 -0.225589 167 152 128 14 6
-0.151809 -0.224720 -0.228350 94 82 68 14 6
-0.102752 -0.235057 -0.220564 29 20 12 14 6
-0.117796 -0.243811 -0.206137 250 239 225 14 6
-0.116563 -0.228001 -0.204556 251 239 224 14 6
-0.123167 -0.209232 -0.201186 251 241 226 14 6
-0.106831 -0.234307 -0.209015 222 212 201 14 6
0.151024 0.218041 -0.198452 168 151 121 0 0
0.117552 0.223787 -0.201661 132 110 68 14 6
0.156561 0.238867 -0.201303 175 160 135 14 6
0.129174 0.242023 -0.198533 225 208 181 14 6
0.118049 0.274985 -0.192861 221 204 188 14 6
0.133569 0.271505 -0.193994 218 202 176 14 6
0.124149 0.257729 -0.195154 226 210 180 14 6
0.307576 0.377361 -0.067115 211 245 254 40 10
0.298793 0.380960 -0.045390 210 242 255 40 10
0.417374 0.087644 -0.184386 52 49 38 40 9
0.410229 0.066362 -0.191458 117 108 98 40 9
0.428168 0.072293 -0.193096 127 118 108 40 9
-0.518055 0.263177 -0.164791 234 208 168 14 6
0.324615 0.377737 -0.071479 213 248 255 40 10
0.344455 0.376236 -0.080904 213 247 255 40 10
-0.073055 0.258800 -0.159752 142 126 91 0 0
-0.069189 0.261922 -0.146838 129 119 103 0 0
0.105057 -0.164586 -0.203189 202 190 175 14 6
0.166317 0.229497 -0.201910 157 139 115 14 6
0.178036 0.233887 -0.200987 221 202 175 14 6
-0.065105 0.103119 -0.203183 163 133 100 14 6
-0.084345 0.093048 -0.202707 209 175 130 14 6
-0.055105 0.105474 -0.200383 154 123 96 14 6
-0.052376 0.117286 -0.199946 115 107 81 14 6
-0.064249 0.122519 -0.201059 167 145 118 14 6
-0.306010 -0.030108 -0.158566 235 219 203 14 6
-0.518149 -0.029350 -0.293085 33 25 15 0 0
-0.515648 -0.021504 -0.281278 35 26 17 0 0
-0.516878 -0.010415 -0.294001 35 28 18 0 0
0.261606 0.387568 -0.194050 220 205 192 14 6
0.282427 0.394709 -0.195674 220 205 192 14 6
-0.477040 -0.109631 -0.191389 236 224 210 14 6
-0.456533 -0.118628 -0.191712 199 186 170 14 6
0.373062 0.380415 -0.079229 85 82 91 40 10
0.373247 0.385011 -0.055076 85 79 90 40 10
0.379769 0.405416 -0.043930 91 91 110 1 2
0.368902 0.384323 -0.044694 80 73 82 40 10
0.374555 0.390403 -0.035375 80 73 83 40 10
0.377115 0.387272 -0.068269 90 87 99 1 2
-0.085449 0.099406 -0.095385 219 201 169 0 0
-0.078324 0.090014 -0.081360 213 195 163 14 6
-0.102572 0.099763 -0.085286 207 191 173 14 6
0.358670 -0.121239 -0.200435 204 195 187 14 6
0.377010 -0.148807 -0.200803 203 194 183 14 6
-0.355305 -0.060592 -0.384637 19 13 8 3 3
-0.360898 -0.049296 -0.377916 22 17 12 3 3
0.232962 0.371297 -0.096934 188 203 237 40 10
0.259407 0.371425 -0.095142 200 216 247 40 10
0.237360 0.377073 -0.065225 200 214 245 40 10
0.245734 0.373996 -0.083485 194 218 252 40 10
0.423516 -0.021488 -0.199292 192 181 168 14 6
-0.381216 0.296768 -0.382654 134 125 120 3 3
-0.399043 0.284605 -0.387060 96 89 80 3 3
0.102506 0.225347 -0.201919 36 23 5 14 6
0.091175 0.219651 -0.200417 39 25 10 14 6
0.113895 0.215076 -0.198665 27 17 1 14 6
-0.541959 0.149065 -0.154356 186 163 138 14 6
-0.548509 0.167570 -0.155942 176 156 132 14 6
-0.531019 0.159892 -0.155375 159 137 113 14 6
-0.517823 0.176113 -0.160100 127 104 82 14 6
-0.516097 -0.035976 -0.176809 234 221 204 14 6
-0.522469 -0.010011 -0.174562 231 218 201 14 6
-0.540581 -0.029099 -0.181050 235 222 206 14 6
-0.548058 -0.031777 -0.185281 247 236 223 14 6
-0.459992 -0.160281 -0.414524 121 110 98 3 3
-0.452739 -0.137768 -0.393405 131 122 103 3 3
-0.442926 -0.157920 -0.407856 119 108 93 3 3
-0.442235 -0.153314 -0.400932 148 136 119 3 3
-0.439465 -0.146500 -0.396067 142 132 114 3 3
-0.314856 0.253791 -0.389508 113 104 95 3 3
-0.309726 0.291460 -0.390140 103 96 82 3 3
-0.004305 0.282871 -0.201065 150 130 79 14 6
0.016107 0.326625 -0.200544 144 124 74 14 6
0.184710 -0.202782 -0.225594 90 82 72 14 6
0.178237 -0.197373 -0.214115 124 116 100 14 6
0.291051 0.385997 -0.006348 198 230 249 40 10
-0.431794 0.029291 -0.365969 27 20 13 3 3
-0.421974 0.027262 -0.358599 22 17 12 3 3
-0.159750 0.303829 -0.150478 150 127 95 14 6
-0.172185 0.306006 -0.150445 146 128 99 14 6
-0.253748 0.057315 -0.157733 232 214 199 14 6
-0.257325 0.022706 -0.166283 234 221 204 14 6
-0.238098 0.059948 -0.164024 236 218 202 14 6
0.025871 0.161540 -0.173651 105 91 58 40 9
0.017594 0.173003 -0.197757 110 96 63 40 9
-0.281351 0.061977 -0.348010 65 59 53 0 0
-0.302260 0.092579 -0.332972 14 11 8 0 0
-0.288764 0.068270 -0.341302 18 15 11 0 0
-0.297671 0.067782 -0.348648 18 16 10 0 0
-0.293052 0.078992 -0.338060 33 29 24 0 0
-0.292306 0.043720 -0.330460 21 17 14 0 0
-0.287363 0.059062 -0.335470 16 13 10 0 0
-0.304887 0.069108 -0.329713 17 13 10 0 0
-0.139023 -0.060297 -0.196694 227 217 207 14 6
-0.144494 -0.044206 -0.197784 99 91 89 14 6
0.287450 0.027325 -0.198708 187 180 165 14 6
-0.150326 0.155785 -0.106071 209 193 175 14 6
0.186091 0.255748 -0.196092 216 200 175 14 6
0.210773 0.236886 -0.198932 215 199 174 14 6
-0.055025 -0.204975 -0.233939 171 154 135 14 6
0.352181 0.379860 -0.048672 214 250 254 40 10
0.337356 0.379665 -0.057263 214 249 254 40 10
0.333749 0.380198 -0.039559 212 250 253 40 10
-0.185252 0.110351 -0.126933 218 205 191 14 6
-0.198416 0.122966 -0.139827 218 203 191 14 6
-0.191633 0.124641 -0.105673 215 201 190 14 6
-0.203832 0.134631 -0.111014 215 202 189 14 6
-0.366858 0.115058 -0.330278 45 41 34 0 0
-0.371220 0.133338 -0.333719 13 9 9 0 0
-0.374912 0.127232 -0.326420 16 13 7 0 0
-0.383361 0.135940 -0.329733 17 13 9 0 0
0.213945 0.067697 -0.184214 41 38 33 40 9
0.211925 0.052506 -0.186019 97 89 76 40 9
0.333808 0.348314 -0.197475 203 194 179 14 6
0.453106 -0.186230 -0.248627 87 73 53 14 6
-0.085355 0.284635 -0.142669 183 166 141 14 6
-0.121409 0.269184 -0.132771 173 155 123 14 6
0.239021 0.201121 -0.178626 110 99 88 40 9
0.220561 0.217714 -0.196456 150 133 116 0 0
0.242915 0.216189 -0.193319 117 104 91 40 9
0.224899 0.220717 -0.195078 158 141 123 0 0
0.224212 0.206828 -0.195117 94 82 67 0 0
0.251637 0.209366 -0.197525 69 60 50 0 0
0.233445 0.213737 -0.188626 102 91 80 0 0
0.252907 0.214654 -0.186903 99 88 77 40 9
0.216467 0.196659 -0.178279 109 98 87 0 0
-0.036284 0.119844 -0.201798 144 127 93 14 6
-0.012065 0.074229 -0.201683 148 131 89 14 6
-0.001771 0.070568 -0.200428 175 165 134 14 6
0.006432 0.127879 -0.200909 138 120 77 14 6
0.024226 0.095648 -0.198613 129 109 70 40 9
0.017691 0.112499 -0.199874 132 115 73 14 6
-0.342420 0.180830 -0.317542 64 61 52 0 0
-0.342833 0.190405 -0.317456 63 59 50 0 0
-0.332847 0.193809 -0.322986 64 57 50 0 0
-0.299788 0.070107 -0.174179 234 221 204 14 6
-0.282261 0.073738 -0.168312 233 220 203 14 6
-0.327860 -0.153504 -0.414253 119 109 93 3 3
-0.381187 -0.154926 -0.407647 119 110 93 3 3
-0.266533 0.136476 -0.163069 229 216 198 14 6
-0.339200 0.298364 -0.388013 41 33 25 3 3
-0.274163 0.021282 -0.189713 213 188 150 14 6
-0.275313 0.011484 -0.180947 230 211 191 0 0
-0.288184 -0.006123 -0.189680 226 200 159 14 6
-0.267865 0.004420 -0.189061 244 223 177 14 6
-0.279345 -0.007189 -0.182236 224 200 158 0 0
-0.286637 -0.002312 -0.185143 228 209 187 0 0
-0.301055 0.203593 -0.390312 51 44 41 3 3
-0.386038 0.101498 -0.193084 235 220 205 14 6
0.307606 -0.157679 -0.201523 205 195 185 14 6
0.107504 -0.193503 -0.208947 137 126 110 14 6
0.066411 -0.196889 -0.213669 135 123 107 14 6
0.060211 -0.204852 -0.229937 54 45 35 14 6
0.069656 -0.192810 -0.209051 139 127 111 14 6
-0.287997 0.119767 -0.392363 90 81 74 3 3
-0.299416 0.145629 -0.391998 105 96 89 3 3
-0.326009 -0.128276 -0.379434 82 61 42 3 3
-0.342703 -0.129908 -0.368942 71 55 35 3 3
-0.335025 -0.113720 -0.357599 56 48 30 3 3
-0.321411 -0.137093 -0.389253 99 79 60 3 3
-0.315576 -0.107436 -0.371312 86 68 47 3 3
0.116671 0.212600 -0.197026 24 17 3 0 0
0.109560 0.190515 -0.177624 22 21 19 0 0
0.108364 0.207269 -0.194825 30 24 11 0 0
0.132442 0.190642 -0.178349 125 107 87 0 0
0.278775 -0.089214 -0.200939 195 186 173 14 6
0.292514 -0.122966 -0.201540 201 190 179 14 6
0.263873 -0.129735 -0.201485 198 188 176 14 6
-0.134138 0.190917 -0.127856 163 131 74 14 6
-0.165923 0.191398 -0.128350 166 140 93 14 6
-0.129076 0.177969 -0.130255 194 172 114 14 6
-0.346158 -0.086010 -0.171358 240 227 213 14 6
-0.339719 -0.095635 -0.177835 244 230 217 14 6
-0.150616 0.181299 -0.130413 137 114 68 14 6
-0.165852 0.182743 -0.134730 119 97 53 14 6
-0.338482 0.076607 -0.327271 25 21 18 0 0
-0.339125 0.105160 -0.323768 15 10 10 0 0
-0.426942 0.140338 -0.368734 19 15 12 3 3
-0.417257 0.114156 -0.380184 35 30 24 3 3
-0.422317 0.139176 -0.384851 18 13 10 3 3
-0.417445 0.113437 -0.372481 25 20 16 3 3
0.218269 -0.089543 -0.194354 161 152 140 14 6
0.132120 0.164163 -0.168436 92 81 69 40 9
0.128930 0.176026 -0.171552 25 19 14 0 0
0.151571 0.174793 -0.169327 155 138 117 0 0
0.030997 0.090561 -0.194329 115 98 63 40 9
0.029116 0.115976 -0.191127 102 90 53 40 9
0.020174 0.143882 -0.197197 114 101 64 40 9
0.041153 0.108079 -0.175274 60 52 34 40 9
0.038485 0.126098 -0.174242 61 57 39 40 9
-0.167836 -0.008241 -0.198317 247 235 221 14 6
-0.072666 0.042261 -0.197677 158 151 144 14 6
-0.283828 0.061978 -0.373389 33 27 24 0 0
-0.296541 0.066759 -0.368760 115 106 95 0 0
-0.288282 0.070073 -0.390613 42 38 30 3 3
-0.294168 0.067339 -0.383231 42 38 30 0 0
-0.286203 0.063829 -0.381467 42 38 30 3 3
-0.074811 0.234234 -0.156618 171 153 116 0 0
-0.081741 0.208064 -0.158675 101 88 63 0 0
-0.208832 0.290429 -0.139471 137 120 96 14 6
-0.197890 0.275192 -0.135103 154 131 101 14 6
-0.171196 0.261938 -0.132275 167 142 111 14 6
-0.069271 0.300388 -0.195886 154 136 94 14 6
-0.059468 0.309757 -0.197486 161 140 95 14 6
-0.252314 0.297332 -0.399754 32 28 23 3 3
-0.246610 0.259044 -0.403156 18 14 11 3 3
-0.275207 0.288622 -0.391138 23 18 16 3 3
-0.242667 0.273078 -0.412699 34 30 25 3 3
0.056449 -0.198266 -0.242809 22 19 13 14 6
0.049884 -0.188957 -0.250623 20 15 9 14 6
0.094239 -0.185789 -0.253033 62 49 37 14 6
-0.391914 0.122279 -0.320413 21 17 10 0 0
-0.396669 0.125295 -0.325104 47 41 35 0 0
-0.571006 0.188284 -0.129395 106 53 23 14 6
0.343241 0.393528 0.039726 214 230 254 40 10
0.323391 0.395418 0.050146 208 242 253 40 10
0.335400 0.395224 0.060232 206 239 252 40 10
0.040472 0.088462 -0.182060 58 50 30 40 9
0.035449 0.102961 -0.182844 59 50 32 40 9
0.030689 0.072844 -0.195817 113 102 86 14 6
0.025616 0.082917 -0.197438 115 104 82 14 6
-0.083188 0.041119 -0.159072 218 176 99 0 0
-0.082053 0.030761 -0.176179 187 173 147 0 0
-0.070207 0.021903 -0.172237 195 183 150 0 0
-0.081856 0.038143 -0.190168 188 162 115 0 0
-0.071590 0.025247 -0.184680 199 161 102 0 0
-0.086088 0.049632 -0.189618 196 157 91 0 0
-0.081176 0.050743 -0.199728 197 161 103 14 6
-0.268889 -0.141304 -0.396222 132 119 103 3 3
-0.308660 -0.150666 -0.407517 124 112 96 3 3
-0.270743 -0.148180 -0.402227 123 114 97 3 3
-0.309759 -0.145822 -0.398490 128 116 102 3 3
-0.291864 -0.145211 -0.398961 127 117 101 3 3
-0.529866 0.019183 -0.324841 29 21 17 0 0
-0.113049 -0.004991 -0.162569 189 176 156 14 6
-0.124513 -0.004389 -0.147180 185 175 155 14 6
-0.135511 0.000418 -0.133292 67 68 48 14 6
-0.276745 0.142114 -0.171040 228 215 198 14 6
-0.274357 0.128243 -0.171365 233 217 200 14 6
0.053612 0.360819 -0.115421 18 14 12 40 10
-0.523888 -0.049513 -0.182042 94 75 99 14 6
-0.542361 -0.056782 -0.196503 194 182 170 14 6
-0.559603 0.255087 -0.194995 85 71 54 14 6
-0.237544 0.088882 -0.406206 14 13 9 3 3
-0.234307 0.052713 -0.406978 20 19 13 3 3
-0.231093 0.072603 -0.412840 20 19 13 3 3
0.368509 0.286680 -0.197125 158 150 138 14 6
0.359082 0.254755 -0.199901 75 69 58 14 6
0.363994 0.266172 -0.199826 94 85 75 14 6
-0.326395 0.276946 -0.389132 57 51 39 3 3
0.136202 0.067454 -0.179233 35 32 25 40 9
0.117243 0.062429 -0.179980 34 30 22 40 9
0.132848 0.086778 -0.177823 30 27 18 40 9
-0.503710 0.221449 -0.173571 163 142 120 14 6
-0.503475 0.202375 -0.169111 117 96 74 14 6
-0.585168 0.194110 -0.186249 64 49 34 14 6
0.455720 -0.197287 -0.229750 99 88 72 14 6
0.441687 -0.197215 -0.222254 111 99 84 14 6
0.439580 -0.195322 -0.214209 133 121 106 14 6
0.165367 0.186975 -0.174568 57 44 36 0 0
0.159236 0.197307 -0.180533 64 51 41 0 0
0.288318 0.364950 -0.117586 12 12 10 40 10
0.269401 0.380887 -0.129285 69 63 66 40 10
0.292132 0.389315 -0.131766 56 52 55 40 10
0.270557 0.394228 -0.133943 90 86 92 40 10
0.357879 0.402774 0.119635 98 92 106 40 10
-0.131514 0.000123 -0.179721 189 175 155 14 6
-0.126474 -0.002759 -0.173133 213 196 175 14 6
-0.113146 -0.012740 -0.196757 209 194 173 14 6
-0.131231 -0.007721 -0.195496 218 201 181 14 6
-0.124175 -0.003846 -0.184942 216 199 179 14 6
-0.112196 -0.004149 -0.184349 212 196 176 14 6
-0.136853 0.000063 -0.193771 219 203 181 14 6
-0.096501 0.064243 -0.154333 180 144 71 0 0
-0.090429 0.058495 -0.166291 180 144 74 0 0
-0.103293 0.065023 -0.161171 221 210 206 0 0
-0.108204 0.068685 -0.141129 123 106 81 0 0
0.023842 -0.174354 -0.247658 127 114 95 0 0
0.052709 -0.171555 -0.244929 107 96 80 0 0
0.006201 -0.169341 -0.240861 137 123 102 0 0
0.024327 -0.183849 -0.252737 28 22 11 0 0
0.052665 -0.181943 -0.251924 71 60 47 0 0
0.037489 -0.164978 -0.236229 163 149 125 0 0
-0.063241 -0.029310 -0.108795 119 110 94 0 0
-0.063662 -0.032616 -0.126832 99 91 78 14 6
-0.046289 -0.012195 -0.128889 112 103 90 0 0
-0.053392 -0.002616 -0.107516 111 100 88 0 0
-0.060645 -0.021872 -0.102036 99 89 78 0 0
-0.194628 0.178841 -0.131425 218 201 174 0 0
-0.189678 0.187710 -0.119842 216 203 184 0 0
-0.181583 0.177555 -0.111634 210 200 192 0 0
-0.174854 0.174459 -0.129674 214 203 190 0 0
-0.186795 0.180337 -0.128107 218 204 183 0 0
-0.196889 0.196297 -0.107713 197 176 150 0 0
-0.180140 0.190359 -0.129551 204 180 130 14 6
-0.190196 0.196735 -0.124195 131 116 73 14 6
-0.182134 0.202172 -0.127239 198 170 122 14 6
-0.171524 0.205433 -0.127108 163 132 82 14 6
-0.495258 0.134927 -0.166016 217 200 185 14 6
-0.060234 -0.168522 -0.202729 208 197 181 14 6
-0.051864 -0.132473 -0.202143 247 237 221 14 6
-0.563053 0.210584 -0.385836 23 18 14 3 3
-0.575083 0.180600 -0.382227 26 21 17 3 3
0.096087 -0.172360 -0.245704 97 89 71 0 0
0.120341 -0.166590 -0.236992 129 114 91 0 0
0.107676 -0.165333 -0.236673 128 116 98 0 0
-0.479845 -0.162588 -0.237294 121 111 103 14 6
0.397485 -0.155412 -0.234183 155 146 131 0 0
0.406246 -0.154172 -0.233168 147 125 79 0 0
0.374577 -0.162167 -0.233043 179 142 64 0 0
-0.368803 -0.144313 -0.386733 121 105 82 3 3
-0.394373 -0.144457 -0.391373 119 101 82 3 3
-0.391244 -0.151050 -0.399330 129 120 103 3 3
0.207283 -0.193480 -0.246487 52 43 32 14 6
0.214444 -0.200742 -0.236888 35 29 17 14 6
0.245913 0.132604 -0.174060 28 28 20 40 9
-0.080333 0.035277 -0.120885 193 157 108 0 0
-0.083947 0.047589 -0.110117 197 159 99 0 0
-0.091328 0.060965 -0.133042 194 151 73 0 0
-0.077568 0.026144 -0.111185 184 167 131 0 0
-0.410138 0.268981 -0.191293 242 226 209 14 6
0.132987 -0.187801 -0.205730 201 189 176 14 6
0.153008 -0.180337 -0.204096 201 191 178 14 6
0.132748 -0.173638 -0.203502 203 192 180 14 6
0.149060 -0.203613 -0.226008 118 108 96 14 6
0.152729 -0.194816 -0.211067 133 122 107 14 6
-0.222040 0.048304 -0.194014 232 215 186 14 6
-0.217141 0.062698 -0.190747 229 210 181 14 6
-0.231273 0.056095 -0.176805 235 217 197 14 6
-0.233671 0.056958 -0.179075 233 213 181 0 0
0.319249 0.050314 -0.193008 129 122 108 40 9
0.341140 0.034872 -0.197133 187 177 162 40 9
0.308347 0.041458 -0.196037 186 176 160 40 9
0.008452 -0.080234 -0.202938 200 189 173 14 6
-0.003003 -0.066162 -0.203520 199 187 172 14 6
-0.440925 0.141783 -0.183412 237 224 207 14 6
-0.177453 0.165614 -0.072424 161 147 139 0 0
-0.186104 0.186107 -0.098718 210 196 183 0 0
-0.179824 0.177235 -0.083600 129 120 109 0 0
0.339219 0.197684 -0.168809 44 43 36 40 9
0.359889 0.201639 -0.168007 34 34 28 40 9
-0.435268 -0.010675 -0.182443 240 228 212 14 6
0.311666 0.389937 -0.130993 70 69 73 40 10
0.302147 0.396995 -0.132454 43 43 50 40 10
0.306465 0.375042 -0.123704 12 11 12 40 10
0.333961 0.384544 -0.129521 12 11 12 40 10
-0.201250 0.144434 -0.065351 213 199 189 0 0
-0.209259 0.160868 -0.072124 144 133 124 0 0
-0.062387 -0.184090 -0.203580 203 190 173 14 6
-0.059696 -0.198064 -0.209575 152 135 120 14 6
-0.317710 0.118749 -0.328605 18 15 12 0 0
-0.014082 0.181447 -0.202124 153 142 138 14 6
0.014689 0.191653 -0.201859 148 137 129 14 6
0.028062 0.203198 -0.199705 151 140 130 14 6
0.198883 -0.068102 -0.199811 178 169 159 14 6
0.223519 -0.081761 -0.194308 170 162 155 14 6
-0.242069 0.185584 -0.095686 207 188 171 0 0
-0.252388 0.193058 -0.105525 222 202 185 0 0
-0.237620 0.209359 -0.106112 218 199 180 0 0
0.464833 -0.179112 -0.250594 91 76 60 0 0
0.449220 -0.166911 -0.234357 161 151 138 0 0
0.465543 -0.152167 -0.233151 168 159 143 0 0
0.445786 -0.177412 -0.247413 109 97 79 0 0
-0.297183 -0.030209 -0.186221 232 213 184 14 6
-0.289521 -0.030658 -0.184587 232 213 184 0 0
-0.101083 -0.204487 -0.230152 39 34 29 14 6
-0.085623 -0.201421 -0.232989 225 212 185 14 6
-0.100091 -0.183872 -0.251436 68 60 48 0 0
-0.097522 -0.177671 -0.250296 56 53 43 0 0
-0.083844 -0.189549 -0.249132 26 19 10 14 6
-0.320671 0.081229 -0.326963 12 7 7 0 0
-0.320439 0.052706 -0.326813 26 22 18 0 0
-0.366163 -0.170514 -0.244157 121 111 92 14 6
-0.343050 -0.167644 -0.240313 106 98 88 14 6
-0.366888 -0.165406 -0.238645 158 153 143 14 6
0.387926 0.246380 -0.191757 75 72 56 40 9
0.391879 0.231758 -0.177333 61 54 43 40 9
-0.331183 -0.075511 -0.166919 250 235 218 14 6
-0.353260 -0.067768 -0.172458 241 228 211 14 6
-0.473803 -0.080967 -0.372424 48 33 21 0 0
-0.451755 -0.081067 -0.372088 50 36 23 3 3
-0.478896 -0.070758 -0.373543 43 28 15 0 0
-0.461658 -0.086711 -0.373534 70 52 37 0 0
-0.447557 -0.038314 -0.311720 25 18 15 0 0
-0.436505 -0.033935 -0.322644 27 20 12 0 0
-0.072729 0.022628 -0.151042 154 141 111 0 0
-0.070179 0.013199 -0.125450 171 157 128 0 0
-0.067226 0.006057 -0.132619 39 30 18 0 0
-0.074012 -0.002350 -0.134037 72 58 43 14 6
-0.060964 0.002597 -0.139301 32 24 11 0 0
0.115355 -0.187765 -0.252249 36 28 19 14 6
0.096407 -0.180843 -0.252199 71 60 44 0 0
0.102701 -0.198669 -0.241645 43 35 26 14 6
0.090918 -0.203289 -0.234399 40 35 25 14 6
0.121797 -0.200457 -0.239857 38 32 20 14 6
-0.308886 0.219814 -0.171172 228 213 199 14 6
-0.315739 0.214249 -0.179469 229 216 199 14 6
-0.413068 0.153277 -0.190543 240 227 210 14 6
-0.389422 0.136715 -0.193712 242 229 212 14 6
-0.480212 -0.057917 -0.299892 32 24 16 0 0
-0.464466 -0.053257 -0.312756 21 16 10 0 0
-0.460981 -0.034791 -0.302828 34 26 21 0 0
-0.454081 -0.051302 -0.323494 22 20 8 0 0
0.228007 -0.159807 -0.202148 182 172 157 14 6
0.057059 -0.002594 -0.201084 192 182 167 14 6
0.055367 0.009411 -0.199491 190 179 162 14 6
-0.387042 -0.103612 -0.195848 235 222 208 14 6
-0.379891 -0.077131 -0.195691 236 222 209 14 6
-0.383029 -0.123432 -0.189083 165 151 138 14 6
-0.404188 -0.127096 -0.195540 245 233 218 14 6
-0.328892 -0.175477 -0.202547 253 244 223 14 6
-0.346563 -0.191170 -0.205409 245 234 212 14 6
-0.352008 -0.203414 -0.214863 122 113 98 14 6
-0.374388 -0.203346 -0.226443 122 113 98 14 6
-0.346180 -0.198947 -0.208773 248 239 220 14 6
0.203780 0.023271 -0.198072 186 175 163 14 6
-0.558527 0.024108 -0.176363 244 231 214 14 6
-0.528828 0.015901 -0.169971 234 220 205 14 6
-0.540042 -0.011128 -0.177278 229 216 199 14 6
0.398100 0.204631 -0.169470 38 38 31 40 9
0.393736 0.217623 -0.170263 42 41 32 40 9
-0.257285 0.098846 -0.196981 67 58 41 14 6
0.187258 -0.095353 -0.199167 195 187 170 14 6
0.167865 -0.087248 -0.200972 195 185 170 14 6
-0.363859 -0.050426 -0.354003 29 22 13 3 3
-0.423823 0.198180 -0.190364 240 227 211 14 6
-0.402156 0.215574 -0.194885 233 220 203 14 6
0.371434 0.139256 -0.175690 39 37 31 40 9
0.359436 0.147446 -0.173752 36 34 27 40 9
0.380548 0.156501 -0.172264 38 37 33 40 9
-0.415861 0.146519 -0.334341 22 18 13 0 0
-0.434399 0.171727 -0.354609 16 15 9 3 3
-0.429627 0.147619 -0.350349 21 18 12 3 3
0.076563 0.369353 -0.101182 87 100 113 40 10
0.072014 0.359385 -0.114549 26 24 24 40 10
0.084351 0.359214 -0.115214 28 27 25 40 10
0.099974 0.362061 -0.115578 31 31 28 40 10
0.096403 0.367983 -0.124478 45 44 40 40 10
0.134566 -0.187652 -0.250307 25 21 13 14 6
0.144759 -0.181360 -0.252611 47 40 28 0 0
0.129475 -0.180918 -0.251783 65 57 40 0 0
0.143933 -0.199401 -0.239420 28 22 14 14 6
0.145652 -0.177239 -0.248996 84 76 62 0 0
-0.182493 0.126854 -0.190437 227 207 170 0 0
-0.210111 0.109528 -0.185378 222 204 177 0 0
0.295645 0.134554 -0.174897 31 29 22 40 9
0.376634 0.377119 -0.120116 58 51 58 40 10
0.377901 0.381313 -0.096902 77 68 58 1 2
0.380990 0.375529 -0.113531 91 81 65 1 2
0.306624 0.371688 -0.099398 103 114 139 40 10
0.324463 0.361195 -0.111948 11 8 6 40 10
0.320440 0.363994 -0.116928 10 10 11 40 10
-0.555295 0.177946 -0.151003 73 41 25 14 6
-0.558825 0.200857 -0.132708 101 50 18 14 6
-0.524258 0.207905 -0.164744 102 74 53 14 6
-0.534360 0.187414 -0.158231 89 62 46 14 6
-0.542030 0.196632 -0.153490 79 43 23 14 6
-0.050484 0.331467 -0.194089 145 124 82 14 6
-0.458931 0.158960 -0.396046 26 19 12 0 0
-0.458752 0.181831 -0.397451 26 18 12 0 0
-0.317561 0.140767 -0.377488 86 77 69 0 0
-0.308341 0.129681 -0.388090 125 118 108 3 3
0.325052 0.371310 -0.097048 189 217 247 40 10
-0.240304 0.169293 -0.417410 10 9 6 3 3
-0.236631 0.151180 -0.411686 12 11 6 3 3
-0.236160 0.129233 -0.413297 64 58 51 3 3
-0.242900 0.125580 -0.402647 15 10 8 3 3
-0.541825 -0.122586 -0.199230 138 192 39 14 6
-0.506443 -0.205144 -0.222133 135 123 108 14 6
-0.494354 -0.204248 -0.222955 133 121 105 14 6
-0.464255 -0.204373 -0.227091 119 108 97 14 6
-0.448718 -0.201786 -0.211192 106 97 83 14 6
-0.435758 -0.205731 -0.221394 89 82 66 14 6
-0.447225 -0.204191 -0.217939 118 107 94 14 6
-0.447384 -0.202242 -0.229313 115 105 91 14 6
-0.426716 -0.207563 -0.207934 246 235 220 14 6
-0.461777 -0.197767 -0.205166 167 159 141 14 6
-0.439571 -0.197833 -0.203831 254 247 231 14 6
-0.320444 0.157657 -0.365171 138 130 116 0 0
-0.316618 0.153993 -0.341069 17 16 10 0 0
-0.324996 0.171093 -0.351067 21 19 15 0 0
-0.316459 0.143785 -0.350524 15 12 10 0 0
-0.533838 -0.069193 -0.370912 52 38 25 0 0
-0.509847 -0.048667 -0.378368 50 39 27 0 0
-0.546493 -0.059951 -0.365242 51 38 24 0 0
0.393538 0.097689 -0.181258 38 35 28 40 9
0.378136 0.091715 -0.183221 26 24 18 40 9
0.423745 -0.125345 -0.200343 199 188 174 14 6
0.433066 -0.100191 -0.200693 200 191 176 14 6
-0.195538 0.184266 -0.150329 170 132 95 14 6
-0.211231 0.180427 -0.154312 178 170 165 0 0
-0.216708 0.186189 -0.159205 200 161 98 14 6
-0.208974 0.185613 -0.150973 203 167 122 14 6
-0.205741 0.185461 -0.135615 198 179 167 0 0
-0.197110 0.187913 -0.135172 207 173 135 14 6
0.376786 0.397579 -0.022673 69 64 63 1 2
0.365636 0.389742 -0.011070 82 72 78 40 10
0.372129 0.392062 -0.015745 79 70 80 40 10
-0.432886 -0.189958 -0.200898 213 210 221 14 6
-0.464834 -0.188879 -0.197587 97 99 155 14 6
-0.126228 0.324144 -0.185872 169 152 131 14 6
-0.520163 0.134110 -0.159555 163 148 129 14 6
-0.526656 0.117450 -0.159050 156 141 122 14 6
0.295430 0.173736 -0.168909 26 25 23 40 9
0.317034 0.166466 -0.171549 32 33 30 40 9
-0.103312 0.079382 -0.127789 179 153 94 0 0
-0.086256 0.078388 -0.109195 201 181 139 0 0
-0.079555 0.084284 -0.103195 211 188 145 0 0
-0.108676 0.072982 -0.129291 166 133 87 0 0
-0.101962 0.067844 -0.122842 189 159 102 0 0
-0.093297 0.066068 -0.111093 172 149 87 0 0
-0.095033 0.084716 -0.113693 188 159 94 0 0
-0.402376 0.269265 -0.383155 23 21 13 3 3
-0.374542 0.258165 -0.387013 159 150 140 3 3
-0.382828 0.281355 -0.385669 159 149 135 3 3
-0.392210 0.270269 -0.386465 165 156 143 3 3
-0.384637 0.251665 -0.381108 92 86 76 0 0
0.324154 0.275726 -0.197780 189 179 169 14 6
0.326861 0.244265 -0.201963 119 109 94 14 6
0.334388 0.255004 -0.201569 77 70 62 14 6
-0.027256 0.146769 -0.201515 157 140 95 14 6
-0.134248 -0.246043 -0.209697 13 8 3 14 6
-0.247939 -0.110462 -0.185262 247 234 214 14 6
-0.267366 -0.096760 -0.192205 237 224 207 14 6
-0.189757 -0.227649 -0.230615 168 152 128 14 6
-0.192598 -0.198998 -0.234147 197 185 160 14 6
-0.153997 -0.186486 -0.238133 140 132 125 14 6
-0.177659 -0.219389 -0.231573 243 230 198 14 6
-0.095088 0.170328 -0.179474 187 168 144 0 0
-0.118625 0.168127 -0.150751 207 187 147 14 6
-0.103412 0.170207 -0.137644 170 149 115 0 0
-0.101828 0.171359 -0.149886 154 131 93 0 0
-0.110844 0.166384 -0.145018 155 132 92 0 0
-0.295276 0.184104 -0.391019 20 13 13 3 3
-0.278262 0.193832 -0.391321 114 106 98 3 3
-0.273404 0.216510 -0.390455 31 27 18 3 3
-0.244715 0.317231 -0.417166 23 19 15 3 3
0.028128 0.321169 -0.198182 79 69 52 14 6
0.020987 0.309850 -0.200897 142 127 102 14 6
-0.241451 0.046273 -0.399637 19 17 11 3 3
-0.251845 0.046084 -0.395900 18 16 12 3 3
-0.268086 0.035392 -0.394691 16 15 11 3 3
-0.266470 0.052238 -0.392081 25 19 15 3 3
-0.357712 -0.038599 -0.366515 24 20 11 3 3
-0.358794 -0.042052 -0.389385 19 15 11 3 3
-0.363237 -0.046245 -0.383196 25 21 15 3 3
-0.354491 -0.043468 -0.361669 30 23 13 3 3
-0.358537 -0.011548 -0.373174 22 16 8 3 3
-0.360875 -0.027716 -0.371523 26 20 11 3 3
-0.365386 -0.019758 -0.378204 19 14 10 3 3
-0.365223 -0.038940 -0.380256 28 21 17 3 3
-0.025895 -0.205795 -0.225666 115 106 95 14 6
-0.026030 -0.197799 -0.213221 133 120 107 14 6
-0.195558 0.145583 -0.199727 190 179 172 14 6
-0.208862 0.160463 -0.198933 140 120 99 14 6
-0.538494 0.105597 -0.160133 237 222 203 14 6
-0.538976 0.088909 -0.161694 243 230 211 14 6
-0.558870 0.122896 -0.159962 242 228 207 14 6
-0.265644 -0.190195 -0.200247 201 190 172 14 6
-0.520943 0.007209 -0.300844 29 22 15 0 0
-0.570231 0.001529 -0.315077 47 41 35 0 0
-0.525808 0.011297 -0.300765 33 25 14 0 0
-0.545162 0.003802 -0.307645 49 41 32 0 0
-0.529029 0.012796 -0.312320 27 19 15 0 0
